5.851395 5.981583 10.896255
5.848190 5.995499 10.934128
5.830795 5.990952 10.943069
5.866989 5.979721 10.963730
5.853958 5.984207 10.957932
5.962448 5.986099 10.891495
5.875046 5.973618 10.892776
5.898422 5.982193 10.881912
5.910233 5.973282 10.877884
5.903458 5.973801 10.927475
5.876511 5.975235 10.913254
5.903427 5.970718 10.919632
5.903885 5.973740 10.936905
5.932785 5.980698 10.911514
5.913193 5.970413 10.917862
5.936142 5.975876 10.911545
5.977310 5.986740 10.902420
5.969254 5.983414 10.882309
5.988113 5.995132 10.877884
5.992752 5.992691 10.929855
5.987991 5.993851 10.936234
5.896683 5.982407 10.942764
5.905350 5.974838 10.996353
5.878311 5.977097 10.973618
5.929306 5.982590 10.975388
5.914139 5.971817 10.981735
5.908279 5.973618 10.984024
5.940048 5.975906 10.959549
5.960556 5.986496 10.952713
5.978958 5.988419 10.962204
5.971024 5.980392 10.937607
5.938675 5.978439 10.973129
5.993179 5.990860 10.987564
5.985092 5.995132 10.999222
5.940170 5.989700 11.649857
5.939590 5.979355 11.147781
5.962875 5.983841 11.127213
5.833420 5.993668 11.005203
5.861588 5.983353 11.030899
5.855301 5.985580 11.017715
5.835159 5.995438 11.066055
5.857712 5.988052 11.079941
5.854324 5.988693 11.101456
5.938766 5.975693 11.020126
5.888931 5.988235 11.013596
5.879715 5.978531 11.033585
5.906509 5.975998 11.055954
5.907639 5.972824 11.043716
5.928146 5.982254 11.035812
5.924759 5.972946 11.043991
5.938644 5.978409 11.030350
5.967880 5.981949 11.001083
5.959854 5.985764 11.012375
5.980301 5.989761 11.021805
5.991470 5.991074 11.049057
5.982712 5.995987 11.061905
5.880630 5.979446 11.093063
5.885361 5.990158 11.078079
5.936142 5.976761 11.083298
5.902390 5.976334 11.111221
5.907181 5.976700 11.115067
5.923172 5.985489 11.102859
5.939285 5.979019 11.089127
5.965134 5.983139 11.064346
5.956497 5.987503 11.076675
5.982285 5.991745 11.083023
5.989304 5.991684 11.111588
5.983170 5.994125 11.120285
5.837692 5.998062 11.128922
5.857407 5.987747 11.137405
5.847641 5.993484 11.171494
5.838791 5.999161 11.189407
5.872726 5.999069 11.217300
5.858353 5.988693 11.197647
5.843460 5.995926 11.237991
5.837997 5.998367 11.246750
5.953812 5.988571 11.140213
5.881973 5.980820 11.153732
5.876999 5.996506 11.150742
5.932175 5.979050 11.148972
5.919022 5.974228 11.149979
5.898117 5.978928 11.177567
5.908981 5.978531 11.176743
5.920151 5.986893 11.167130
5.985886 5.995377 11.147659
5.988205 5.991318 11.172897
5.980667 5.995102 11.183884
5.903732 5.974472 11.194260
5.930832 5.978897 11.210800
5.894882 5.980484 11.242599
5.885635 5.984543 11.219223
5.911880 5.981461 11.240921
5.916824 5.988602 11.232285
5.940445 5.980240 11.207840
5.950211 5.990494 11.205704
5.961990 5.983261 11.188126
5.987137 5.996597 11.208298
5.979507 5.994675 11.245560
5.987411 5.990646 11.233994
5.943283 5.992661 11.398117
5.860519 5.990921 11.260696
5.837997 5.998367 11.305923
5.861160 5.991562 11.321182
5.942551 5.982346 11.270615
5.884415 5.983322 11.275894
5.928909 5.979294 11.274002
5.891037 5.982681 11.309097
5.913284 5.990433 11.298141
5.909409 5.978958 11.295303
5.949356 5.989883 11.267014
5.958633 5.985001 11.253555
5.982834 5.992325 11.258957
5.959518 5.982742 11.312332
5.978012 5.994644 11.308243
5.986069 5.990494 11.296341
5.885727 5.984634 11.337753
5.926987 5.979660 11.337509
5.888718 5.983383 11.373459
5.913010 5.982590 11.361649
5.909378 5.992630 11.365097
5.941910 5.981705 11.328659
5.947495 5.990189 11.330429
5.982040 5.991531 11.316574
5.983353 5.991562 11.361404
5.976608 5.994522 11.371170
5.861526 5.991959 11.381577
5.838760 5.999161 11.427048
5.864395 5.994888 11.447311
5.945938 5.985764 11.396042
5.888565 5.987534 11.403030
5.924942 5.980087 11.401566
5.902664 5.997452 11.437057
5.913589 5.983200 11.422684
5.956711 5.983902 11.377579
5.982254 5.991745 11.376480
5.957413 5.981827 11.437424
5.975540 5.994064 11.433853
5.986008 5.987625 11.417801
5.980453 5.989944 11.432907
5.890182 5.989151 11.466354
5.882767 5.987473 11.444229
5.922073 5.981339 11.467484
5.915909 5.985550 11.487503
5.942734 5.991714 11.460068
5.945023 5.984848 11.454300
5.979385 5.988876 11.491104
5.984726 5.987411 11.481216
5.976486 5.991684 11.493576
5.954636 5.980026 11.627213
5.946701 5.984421 11.627548
5.862869 5.993332 11.504868
5.839523 5.999954 11.549850
5.863663 5.994156 11.567337
5.834488 5.995743 11.618912
5.837143 5.997513 11.606400
5.938034 5.994644 11.529434
5.892044 5.991074 11.530685
5.879166 5.989395 11.511551
5.916122 5.985764 11.548691
5.917953 5.983719 11.535904
5.955063 5.982559 11.502670
5.959549 5.980179 11.515091
5.944626 5.984451 11.514023
5.977463 5.989334 11.553635
5.974930 5.984421 11.543228
5.986038 5.984665 11.540543
5.891739 5.990768 11.591171
5.877029 5.989914 11.576797
5.917831 5.982407 11.598038
5.914932 5.984573 11.607529
5.939804 5.991531 11.588303
5.956192 5.980850 11.569321
5.942215 5.982040 11.570267
5.954147 5.981918 11.565933
5.954575 5.983932 11.576492
5.941727 5.981094 11.615372
5.938400 5.978165 11.624039
5.977463 5.987808 11.615585
5.972366 5.981857 11.599258
5.989365 5.980057 11.596878
5.871506 5.993576 11.648209
5.863235 5.993698 11.627884
5.832077 5.996475 11.685257
5.835739 5.996048 11.665237
5.861710 5.992172 11.686691
5.811478 5.999741 11.707413
5.874680 5.989182 11.705368
5.835678 5.991684 11.741928
5.833115 5.993393 11.722122
5.858139 5.988541 11.741745
5.861008 5.998337 11.726944
5.991562 5.976517 11.655472
5.894485 5.993546 11.658096
5.934464 5.974228 11.678024
5.916336 5.982346 11.662827
5.914139 5.983780 11.667587
5.937210 5.984879 11.677536
5.969040 5.978531 11.654221
5.959244 5.974258 11.681870
5.940018 5.981827 11.671188
5.977768 5.986038 11.677475
5.905838 5.975388 11.713150
5.891739 5.990768 11.714584
5.923813 5.973892 11.712753
5.933487 5.973251 11.738144
5.927383 5.982162 11.718887
5.918747 5.985031 11.720871
5.963669 5.973160 11.705521
5.942490 5.986008 11.708481
5.961563 5.970596 11.740738
5.980423 5.982040 11.735703
5.990311 5.976212 11.720261
5.967758 5.977249 11.901657
5.894608 5.874313 11.866409
5.830215 5.990372 11.778763
5.838425 5.987747 11.800400
5.855392 5.985703 11.798813
5.860703 5.997147 11.790451
5.867294 5.906631 11.857040
5.811081 5.999344 11.831894
5.828659 5.988785 11.838516
5.871414 5.940567 11.832169
5.867569 5.989304 11.842087
5.871994 5.982559 11.849289
5.847763 5.977615 11.847916
5.848099 5.978256 11.847092
5.862930 5.985489 11.850937
5.942917 5.984177 11.770706
5.905869 5.975418 11.775558
5.901810 5.982040 11.756882
5.880295 5.982498 11.758713
5.882675 5.981583 11.758865
5.900253 5.992355 11.751236
5.898453 5.985123 11.762894
5.922318 5.973831 11.778305
5.891006 5.960373 11.808548
5.892349 5.969925 11.801498
5.886612 5.982285 11.802780
5.932632 5.972366 11.798904
5.909348 5.982407 11.798935
5.960831 5.970291 11.762131
5.961960 5.968704 11.803146
5.979599 5.981277 11.800217
5.989517 5.975418 11.784714
5.905991 5.915390 11.841385
5.904343 5.908585 11.840164
5.902725 5.935410 11.826065
5.896988 5.930862 11.827621
5.884750 5.924179 11.828964
5.903275 5.922073 11.833511
5.889359 5.877762 11.871109
5.879440 5.888779 11.851212
5.882980 5.876968 11.857529
5.903732 5.890152 11.850479
5.896255 5.875290 11.854599
5.905228 5.880997 11.856613
5.905533 5.895309 11.846329
5.898849 5.891586 11.857712
5.928787 5.901749 11.872269
5.919296 5.905869 11.851883
5.890823 5.911118 11.863510
5.878922 5.915756 11.863083
5.929764 5.915909 11.860672
5.932571 5.926285 11.858109
5.926987 5.928604 11.858322
5.915451 5.912399 11.859573
5.885117 5.984055 11.826492
5.900406 5.950790 11.821854
5.913528 5.948807 11.828659
5.913162 5.947586 11.822983
5.913803 5.945114 11.826706
5.915024 5.954666 11.826645
5.930252 5.961502 11.826553
5.893753 5.985733 11.816879
5.924606 5.970200 11.837753
5.884384 5.947403 11.858658
5.928421 5.942734 11.845901
5.875229 5.973984 11.869675
5.962814 5.972305 11.828690
5.943008 5.982529 11.833817
5.960648 5.968460 11.869003
5.977798 5.981430 11.866867
5.984573 5.978561 11.856735
5.863327 5.872665 11.882187
5.922928 5.871140 11.881332
5.923660 5.867416 11.878922
5.935562 5.863113 11.883835
5.830276 5.990463 11.905228
5.811050 5.999313 11.895157
5.858353 5.988754 11.931412
5.870651 5.986984 11.966141
5.838669 5.999100 11.986282
5.944534 5.979568 11.894913
5.930740 5.888535 11.876968
5.936874 5.888199 11.885452
5.927109 5.966354 11.897171
5.890121 5.987198 11.929916
5.883377 5.983749 11.915970
5.978073 5.983109 11.931931
5.998062 5.994278 11.925644
5.904312 5.973831 11.962143
5.887405 5.986374 11.957962
5.889053 5.998215 11.961227
5.909225 5.981491 11.992325
5.925339 5.995956 11.992355
5.948288 5.978470 11.954453
5.965897 5.991043 11.951523
5.996231 5.998337 11.995163
6.004623 5.996933 10.964828
6.013229 5.989944 11.648331
6.010178 5.998734 11.406693
6.005142 5.999680 11.413315
6.010452 5.997025 11.467392
6.003311 5.999954 11.477585
6.008957 5.990128 11.653732
6.008072 5.986710 11.638626
6.012772 5.993332 11.524979
6.017380 5.995956 11.534439
6.004471 5.997330 11.537216
6.014206 5.990524 11.584396
6.013504 5.992081 11.587845
6.007431 5.993088 11.594101
6.032822 5.998245 11.661179
6.014694 5.987045 11.708450
6.001846 5.980484 11.688156
6.007309 5.990189 11.719254
6.004074 5.992477 11.917099
6.030716 5.999527 11.771347
6.011429 5.988602 11.777054
6.005417 5.984055 11.757187
6.007675 5.988266 11.781631
6.010696 5.989304 11.830063
6.009689 5.988754 11.843521
6.003372 5.990829 11.852554
5.731369 6.220505 10.649124
5.742935 6.235916 10.646255
5.714554 6.219528 10.161789
5.715164 6.244339 10.165848
5.743881 6.102432 10.028824
5.749374 6.099991 10.025467
5.726791 6.123856 10.002914
5.748550 6.085892 10.038773
5.726059 6.123093 10.052811
5.736160 6.102676 10.043228
5.743546 6.103134 10.079849
5.747452 6.084763 10.088333
5.733231 6.099564 10.089584
5.725571 6.122574 10.103470
5.709793 6.226303 10.019974
5.711258 6.178482 10.006119
5.737137 6.132065 10.017807
5.722824 6.137253 10.015488
5.719742 6.148361 10.018539
5.713669 6.172073 10.009903
5.726852 6.167770 10.011551
5.710648 6.171768 10.057297
5.713028 6.173355 10.034927
5.715775 6.241440 10.006088
5.708939 6.207993 10.007309
5.715286 6.205856 10.014053
5.724503 6.204727 10.010544
5.714859 6.242233 10.011673
5.723190 6.240372 10.010208
5.707657 6.208633 10.057632
5.723251 6.205338 10.060837
5.715622 6.233414 10.058395
5.712570 6.242813 10.061295
5.719711 6.240128 10.047562
5.712997 6.173355 10.086288
5.718735 6.147324 10.068100
5.735672 6.132706 10.068069
5.722519 6.137924 10.066452
5.716629 6.172928 10.063034
5.727921 6.168503 10.063400
5.729568 6.133102 10.115402
5.720505 6.138504 10.116470
5.719467 6.148087 10.120956
5.712265 6.173416 10.111496
5.730179 6.169327 10.116196
5.708908 6.220657 10.070175
5.715469 6.206039 10.065567
5.724991 6.241165 10.062546
5.710831 6.209457 10.111008
5.708237 6.214310 10.121201
5.715927 6.206558 10.117905
5.724228 6.206070 10.112839
5.716690 6.243698 10.115372
5.714554 6.228012 10.108597
5.725510 6.241867 10.114212
5.719833 6.240250 10.099136
5.734512 6.100937 10.143570
5.725296 6.122269 10.154831
5.746201 6.083420 10.137863
5.740311 6.103683 10.129135
5.747208 6.101273 10.126633
5.744553 6.081680 10.186996
5.746567 6.101944 10.177811
5.739487 6.104324 10.180191
5.724777 6.121689 10.205978
5.732895 6.099228 10.192795
5.743088 6.080124 10.236710
5.733109 6.099442 10.245529
5.745041 6.102585 10.228500
5.734726 6.104813 10.228806
5.723129 6.243851 10.156693
5.714371 6.174850 10.140427
5.718216 6.146744 10.170639
5.732132 6.133896 10.168594
5.720016 6.139206 10.167679
5.713669 6.174149 10.163895
5.729141 6.169968 10.167068
5.728745 6.242752 10.167862
5.709244 6.202835 10.177048
5.713364 6.210281 10.164200
5.717941 6.208725 10.173325
5.723557 6.206741 10.163864
5.714798 6.174911 10.216324
5.718979 6.139847 10.218674
5.713669 6.174057 10.191147
5.728958 6.170639 10.218613
5.718369 6.146927 10.223129
5.730942 6.134537 10.219498
5.713821 6.174240 10.243790
5.716873 6.245132 10.218704
5.712326 6.210953 10.215164
5.713852 6.212967 10.213516
5.727768 6.207626 10.218338
5.725204 6.246109 10.212418
5.709610 6.193222 10.231522
5.718277 6.209122 10.226120
5.718033 6.245560 10.240891
5.728714 6.243423 10.219528
5.995438 6.043015 10.168167
5.758591 6.067093 10.030716
5.773026 6.052109 10.029617
5.811111 6.021225 10.018997
5.788315 6.036942 10.029160
5.806778 6.026199 10.035202
5.813644 6.032852 10.022324
5.817093 6.029068 10.017563
5.874130 6.004776 10.021713
5.848160 6.008743 10.003494
5.863998 6.004471 10.020493
5.823807 6.012405 10.037491
5.844681 6.005173 10.048721
5.853165 6.011734 10.035477
5.780106 6.065048 10.045090
5.770279 6.068192 10.045700
5.771561 6.050583 10.078445
5.805283 6.024612 10.083969
5.811020 6.029526 10.064896
5.808334 6.033371 10.070206
5.786911 6.035446 10.078079
5.810043 6.030167 10.115707
5.802811 6.033859 10.118088
5.823318 6.011887 10.088058
5.813828 6.017441 10.068405
5.853073 6.010605 10.089096
5.872665 6.003281 10.070511
5.865982 6.001389 10.070999
5.817612 6.012741 10.116531
5.870926 6.001511 10.119156
5.843979 6.004440 10.098984
5.751602 6.100784 10.078140
5.757645 6.066055 10.080399
5.777420 6.065628 10.094681
5.769333 6.068863 10.096420
5.991745 6.046860 10.011490
5.888901 6.011917 10.008499
5.928543 6.008926 10.029068
5.907883 6.007126 10.000748
5.891708 6.008072 10.057724
5.904648 6.003830 10.046432
5.902756 6.001358 10.042953
5.923904 6.010147 10.034836
5.974808 6.032181 10.011703
5.950363 6.018661 10.021225
5.955643 6.017258 10.014847
5.973190 6.030563 10.013016
5.993057 6.049149 10.010941
5.941605 6.011856 10.032883
5.977005 6.028793 10.061783
5.995590 6.045486 10.060532
5.984024 6.034500 10.047318
5.994919 6.042526 10.060074
5.901627 6.000748 10.092667
5.931351 6.005020 10.078354
5.922806 6.009872 10.089920
5.890976 6.007492 10.112381
5.902512 6.000320 10.096817
5.934677 6.004868 10.124008
5.956436 6.015244 10.067001
5.938004 6.008224 10.078079
5.950027 6.017715 10.075150
5.974869 6.027695 10.063889
5.958542 6.012009 10.117569
5.958450 6.009811 10.109268
5.952896 6.013748 10.124496
5.976852 6.024490 10.114487
5.978470 6.026138 10.113205
5.994888 6.044815 10.115097
5.987015 6.032700 10.105209
5.995682 6.040482 10.112503
5.775223 6.066238 10.144730
5.770370 6.049332 10.128036
5.803665 6.022934 10.132889
5.786728 6.035263 10.129440
5.800766 6.019943 10.179855
5.807297 6.030777 10.165512
5.768600 6.047470 10.176926
5.784988 6.033463 10.178391
5.798386 6.034378 10.166794
5.842361 6.002823 10.147995
5.822098 6.010605 10.137650
5.857681 6.005081 10.136093
5.820328 6.008804 10.186630
5.817612 6.011490 10.170425
5.764297 6.069321 10.144638
5.758804 6.067276 10.134140
5.756851 6.065231 10.182724
5.805435 6.031418 10.216049
5.795914 6.034988 10.216934
5.800552 6.019730 10.231796
5.768570 6.047440 10.229172
5.783829 6.032242 10.228622
5.840988 6.001389 10.197678
5.855850 6.005508 10.192764
5.819626 6.008072 10.237747
5.818771 6.009201 10.222916
5.859299 6.001053 10.241989
5.776688 6.067001 10.197342
5.762833 6.069992 10.195328
5.771133 6.067459 10.245499
5.755081 6.063370 10.231888
5.762985 6.070694 10.247269
5.996384 6.038528 10.165298
5.933945 6.001328 10.128189
5.925674 6.005936 10.139389
5.893082 6.004288 10.163162
5.929977 6.000107 10.167801
5.954819 6.010635 10.175552
5.962051 6.008286 10.166275
5.960007 6.009354 10.169266
5.990158 6.030899 10.163406
5.977036 6.023056 10.168106
5.980118 6.023270 10.164566
5.894577 6.001602 10.215073
5.927505 6.002914 10.190628
5.926620 6.002487 10.246292
5.998093 6.039200 10.218307
5.981369 6.020798 10.216873
5.997818 6.035843 10.217270
5.955154 6.002121 10.246414
5.960587 6.007523 10.222580
5.956100 6.008133 10.227859
5.985397 6.025803 10.236832
5.977798 6.021042 10.221115
5.991989 6.028519 10.225052
5.720535 6.254837 10.140976
5.741623 6.292618 10.026993
5.741165 6.274887 10.022446
5.723892 6.278030 10.018082
5.722824 6.264664 10.041519
5.731369 6.274002 10.033066
5.748795 6.295486 10.069260
5.722458 6.257492 10.093155
5.729782 6.279037 10.073135
5.742905 6.275681 10.074783
5.730148 6.269119 10.082687
5.741043 6.286148 10.077866
5.747604 6.290512 10.119095
5.728714 6.264938 10.131912
5.747330 6.276596 10.129135
5.740341 6.278946 10.129562
5.734146 6.279953 10.127396
5.727036 6.261307 10.180832
5.733688 6.280655 10.178665
5.749222 6.277390 10.181931
5.719254 6.250259 10.190720
5.723465 6.263412 10.224808
5.734512 6.281387 10.230972
5.957779 6.332047 10.134048
5.817886 6.349594 10.022263
5.750320 6.299393 10.020584
5.767136 6.310837 10.039902
5.805344 6.355728 10.002121
5.770523 6.324966 10.008499
5.760147 6.321121 10.011948
5.792984 6.341812 10.003952
5.782700 6.340714 10.005234
5.788193 6.352310 10.009933
5.770370 6.317154 10.060593
5.751144 6.315384 10.036423
5.792099 6.336136 10.054092
5.781387 6.336472 10.054062
5.834061 6.361588 10.028244
5.818375 6.351059 10.006302
5.844376 6.358627 10.010239
5.830154 6.359695 10.054306
5.861526 6.362900 10.054581
5.770493 6.311722 10.093430
5.801285 6.353806 10.069687
5.757309 6.316422 10.091782
5.759598 6.314560 10.062851
5.768631 6.313919 10.108871
5.756912 6.314316 10.108353
5.804581 6.332596 10.111923
5.803665 6.344528 10.102371
5.827530 6.350845 10.079849
5.864212 6.347122 10.066086
5.858139 6.361526 10.063339
5.830063 6.352005 10.106461
5.814316 6.346359 10.100876
5.841904 6.349380 10.108932
5.870102 6.352982 10.116837
5.944626 6.346756 10.026535
5.995926 6.310471 10.006454
5.877335 6.361252 10.000717
5.918961 6.321518 10.044296
5.894485 6.358047 10.055801
5.891556 6.357132 10.033035
5.910416 6.351639 10.034134
5.985336 6.318893 10.023026
5.978409 6.315506 10.047195
5.973495 6.328049 10.041855
5.993301 6.306381 10.076553
5.993301 6.306381 10.104263
5.904739 6.346481 10.088486
5.904037 6.343674 10.092178
5.926071 6.326035 10.087204
5.890091 6.353409 10.081497
5.922287 6.352188 10.067368
5.892502 6.354263 10.124222
5.964493 6.321701 10.064835
5.960617 6.336227 10.063156
5.985641 6.315903 10.086990
5.943069 6.343094 10.094162
5.972153 6.324448 10.109421
5.839493 6.348099 10.155655
5.811539 6.355087 10.127884
5.774307 6.312637 10.147476
5.759109 6.317215 10.144485
5.778793 6.327713 10.152634
5.801193 6.342636 10.149399
5.789017 6.328415 10.151871
5.827835 6.350327 10.153427
5.814072 6.338760 10.153275
5.855453 6.357712 10.131210
5.820755 6.356369 10.185684
5.869095 6.347519 10.167313
5.856277 6.350876 10.163651
5.765854 6.305161 10.208054
5.755081 6.303146 10.209610
5.751724 6.278214 10.235397
5.777603 6.322952 10.202560
5.779495 6.313614 10.202560
5.761093 6.318008 10.197433
5.811966 6.336594 10.200912
5.786240 6.328140 10.197830
5.799973 6.337936 10.199295
5.798874 6.332932 10.249680
5.826614 6.345688 10.203232
5.838394 6.342941 10.206039
5.867752 6.343277 10.216965
5.853714 6.350266 10.209946
5.854355 6.354202 10.198257
5.939163 6.338547 10.167526
5.993454 6.303299 10.141373
5.984695 6.312393 10.154343
5.999557 6.292709 10.134506
5.888718 6.349319 10.130539
5.903061 6.343155 10.136917
5.923325 6.336105 10.153763
5.918045 6.347549 10.140976
5.900833 6.341324 10.184189
5.936142 6.329361 10.160110
5.887222 6.345688 10.179398
5.970932 6.320847 10.177414
5.994705 6.300583 10.204544
5.999771 6.289658 10.199844
5.970108 6.306564 10.237625
5.983932 6.308914 10.221939
5.888351 6.349625 10.197952
5.932632 6.331131 10.204269
5.922043 6.331863 10.203262
5.916611 6.343887 10.209335
5.899643 6.336472 10.234482
5.928940 6.322311 10.237930
5.884842 6.344437 10.226273
5.958389 6.329117 10.198318
5.963669 6.314529 10.219467
5.938705 6.335190 10.234329
5.971695 6.317917 10.241898
5.717392 6.221939 10.401321
5.740555 6.103073 10.277451
5.734360 6.105515 10.280441
5.725174 6.122147 10.259171
5.741653 6.078598 10.286789
5.723129 6.119949 10.308273
5.730057 6.096207 10.292770
5.744431 6.103958 10.332077
5.742783 6.079819 10.341843
5.735123 6.106247 10.333023
5.722519 6.119308 10.360245
5.730515 6.096664 10.346573
5.731125 6.244247 10.272995
5.715164 6.175644 10.268387
5.718460 6.140518 10.270157
5.717850 6.146347 10.274704
5.733261 6.135330 10.272903
5.727921 6.171280 10.269791
5.715317 6.175858 10.299118
5.710953 6.180740 10.288895
5.720322 6.245987 10.272842
5.714645 6.211777 10.268539
5.714188 6.203201 10.268417
5.727280 6.208298 10.269821
5.720871 6.211929 10.283310
5.717117 6.176437 10.321732
5.717209 6.145676 10.326431
5.732651 6.136032 10.324509
5.719009 6.141251 10.322556
5.727005 6.171921 10.321152
5.713852 6.176987 10.371719
5.715561 6.176102 10.352493
5.729355 6.172745 10.374954
5.736710 6.245255 10.328781
5.715591 6.212509 10.321213
5.723404 6.214706 10.340744
5.733200 6.209305 10.325851
5.726273 6.237656 10.340652
5.721848 6.246780 10.325912
5.715622 6.213242 10.373398
5.718887 6.225937 10.351120
5.730362 6.096512 10.399673
5.740829 6.104507 10.381851
5.742233 6.079239 10.394150
5.736252 6.107010 10.386063
5.742752 6.105301 10.435593
5.723984 6.120865 10.416336
5.734818 6.107651 10.437485
5.733078 6.099411 10.458298
5.740891 6.077805 10.445328
5.744431 6.106064 10.489334
5.724411 6.121323 10.470840
5.732132 6.108261 10.488297
5.725723 6.230515 10.393753
5.714005 6.186234 10.376663
5.718582 6.147141 10.382095
5.731949 6.136703 10.376236
5.720779 6.142044 10.375931
5.729019 6.137253 10.426651
5.721786 6.142807 10.429031
5.719070 6.147659 10.436508
5.718521 6.177933 10.427261
5.716751 6.177414 10.407974
5.715591 6.172653 10.435837
5.733139 6.173630 10.429886
5.736740 6.245956 10.381058
5.725204 6.216629 10.397171
5.733414 6.210007 10.378220
5.724930 6.247665 10.380234
5.716690 6.213547 10.426468
5.735092 6.210800 10.431747
5.741165 6.246872 10.436447
5.729233 6.248581 10.435562
5.734390 6.246048 10.436295
5.716324 6.176956 10.460892
5.719955 6.148636 10.491989
5.732254 6.138138 10.481430
5.719955 6.143417 10.480392
5.717972 6.156540 10.497726
5.714005 6.178391 10.476730
5.731857 6.174271 10.481583
5.729233 6.221024 10.458115
5.717422 6.213242 10.456100
5.725327 6.223007 10.447495
5.717514 6.214279 10.479630
5.736618 6.211594 10.485367
5.745193 6.247787 10.491806
5.731888 6.249435 10.489975
5.733170 6.241165 10.487747
5.959488 6.001053 10.387039
5.759628 6.071274 10.297012
5.766434 6.045212 10.278000
5.781204 6.029526 10.276596
5.794296 6.035660 10.267838
5.801285 6.031967 10.265213
5.799332 6.018448 10.282242
5.754166 6.062393 10.282913
5.821640 6.005325 10.273148
5.818619 6.007034 10.288620
5.769577 6.068100 10.296432
5.766068 6.044846 10.330276
5.779800 6.028061 10.327042
5.796280 6.015274 10.329727
5.752487 6.060654 10.332870
5.796890 6.032486 10.314407
5.788864 6.036148 10.316269
5.798172 6.033249 10.367508
5.786179 6.036758 10.366745
5.816788 6.005142 10.338364
5.825943 6.000076 10.321487
5.767990 6.068741 10.347549
5.756607 6.071823 10.347153
5.998459 6.037552 10.272202
5.999741 6.032730 10.268753
5.961960 6.004959 10.274979
5.957718 6.005325 10.279892
5.974411 6.014755 10.270493
5.981216 6.016525 10.270401
5.982986 6.017990 10.268845
5.966354 6.006668 10.309280
5.967758 6.004379 10.285324
5.994431 6.026382 10.285965
5.959488 6.002365 10.331985
5.963699 6.001999 10.327072
5.974777 6.004227 10.336655
5.980698 6.015671 10.325912
5.983932 6.015823 10.322128
5.998489 6.024887 10.343979
5.764481 6.069290 10.397507
5.765610 6.044357 10.382706
5.779861 6.028152 10.380386
5.795883 6.014908 10.382309
5.752396 6.060532 10.385941
5.779831 6.028091 10.433884
5.811813 6.000046 10.436386
5.795700 6.014664 10.435532
5.765152 6.043869 10.435440
5.791397 6.033676 10.415390
5.787094 6.037491 10.419815
5.815231 6.003525 10.388870
5.847061 6.000839 10.407455
5.758926 6.072647 10.401016
5.753067 6.061264 10.440781
5.788467 6.034286 10.465988
5.778519 6.026749 10.485428
5.795059 6.014023 10.488327
5.765396 6.044144 10.489822
5.753098 6.061295 10.494766
5.783951 6.038101 10.470291
5.827774 6.000900 10.447067
5.825577 6.001511 10.498337
5.756821 6.073288 10.452133
5.765305 6.070053 10.450577
5.985123 6.013382 10.375320
5.982681 6.012466 10.377792
5.987961 6.009354 10.426224
5.985275 6.008713 10.429153
5.986404 6.006302 10.482986
5.989182 6.006882 10.479874
5.746017 6.284134 10.395065
5.736618 6.264938 10.279678
5.732437 6.254013 10.277786
5.744583 6.273972 10.271561
5.740067 6.282394 10.286636
5.742966 6.283249 10.340714
5.735397 6.260056 10.330338
5.742996 6.269882 10.321518
5.735764 6.257645 10.336563
5.742416 6.263016 10.374313
5.743423 6.266006 10.403549
5.734543 6.254135 10.382187
5.740860 6.258957 10.424759
5.749466 6.277664 10.464676
5.740005 6.252701 10.477432
5.954666 6.318069 10.407272
5.852676 6.345108 10.260513
5.764786 6.299759 10.258926
5.753586 6.299210 10.259109
5.755600 6.279129 10.289871
5.763351 6.295456 10.309036
5.753433 6.291428 10.312332
5.776474 6.318069 10.252884
5.767105 6.319077 10.253311
5.783249 6.314560 10.256943
5.786636 6.318558 10.252457
5.811050 6.330826 10.252090
5.774673 6.315079 10.301682
5.777206 6.320358 10.312088
5.809525 6.326828 10.301926
5.784866 6.315231 10.301620
5.796921 6.330399 10.298019
5.836929 6.338913 10.255661
5.824814 6.342850 10.251724
5.865677 6.340805 10.265152
5.835068 6.335861 10.304550
5.823196 6.339310 10.300980
5.850967 6.341812 10.309586
5.840927 6.346298 10.292038
5.751724 6.287949 10.361893
5.759964 6.280045 10.344986
5.761703 6.291702 10.358871
5.773392 6.310471 10.352219
5.783310 6.311234 10.351669
5.791641 6.315720 10.314590
5.801346 6.317001 10.373398
5.795670 6.325790 10.348526
5.807571 6.324020 10.350845
5.784439 6.321487 10.369217
5.863998 6.337387 10.314499
5.833115 6.333084 10.353470
5.821609 6.335617 10.350632
5.872055 6.341568 10.366623
5.849289 6.338516 10.358932
5.862167 6.334274 10.363754
5.956100 6.325119 10.269424
5.978867 6.286484 10.275131
5.993973 6.297104 10.272751
5.988174 6.253983 10.286606
5.950546 6.300156 10.286301
5.983566 6.305588 10.289413
5.970413 6.297562 10.291977
5.884781 6.345200 10.271255
5.883469 6.340286 10.275986
5.914169 6.339828 10.280624
5.931320 6.326675 10.254288
5.919968 6.329636 10.251144
5.898178 6.332413 10.284225
5.928360 6.326797 10.300308
5.875443 6.346817 10.310623
5.937607 6.331619 10.303085
5.970322 6.314194 10.311661
5.967148 6.298538 10.337357
5.993637 6.293716 10.340805
5.997513 6.275070 10.350052
5.983566 6.302353 10.356796
5.895096 6.332870 10.330063
5.882278 6.341110 10.343033
5.881119 6.338760 10.323563
5.879288 6.335983 10.372482
5.936844 6.328079 10.371933
5.916306 6.323990 10.348679
5.927231 6.321732 10.351303
5.908005 6.336655 10.345505
5.911667 6.335678 10.352737
5.956314 6.321945 10.335983
5.950272 6.314865 10.321487
5.948135 6.312881 10.369675
5.832260 6.327042 10.405624
5.772202 6.305588 10.403214
5.763382 6.280960 10.399582
5.781967 6.306625 10.402481
5.761002 6.285110 10.411606
5.750778 6.282303 10.413651
5.805527 6.321457 10.399734
5.794296 6.321487 10.399002
5.787979 6.322403 10.424088
5.820480 6.330704 10.401688
5.812943 6.318344 10.433701
5.860123 6.331650 10.412766
5.847549 6.335312 10.408463
5.770859 6.282089 10.457199
5.759567 6.280685 10.462540
5.770828 6.301193 10.454025
5.750931 6.285110 10.450912
5.780289 6.302872 10.452744
5.804855 6.314804 10.452682
5.793839 6.314529 10.452164
5.799026 6.323746 10.484268
5.830582 6.323380 10.455826
5.819077 6.326431 10.452377
5.845871 6.331894 10.458328
5.858139 6.328934 10.462112
5.820206 6.319473 10.491318
5.945145 6.313095 10.416031
5.964981 6.296310 10.385910
5.980637 6.283829 10.377182
5.970963 6.311172 10.377792
5.958755 6.305344 10.424271
5.985458 6.286179 10.423965
5.993423 6.290329 10.409317
5.982956 6.298813 10.426193
5.901382 6.328415 10.405472
5.892929 6.330795 10.378464
5.924362 6.321548 10.398026
5.914291 6.321609 10.397354
5.891037 6.327713 10.427963
5.879684 6.336929 10.415787
5.877670 6.332382 10.422379
5.937119 6.321274 10.436905
5.909836 6.331802 10.424240
5.943283 6.310226 10.465469
5.972031 6.308273 10.443710
5.955215 6.306961 10.469589
5.984238 6.295975 10.492264
5.994675 6.287491 10.475266
5.904007 6.328629 10.454971
5.935379 6.324295 10.443100
5.911819 6.320389 10.445145
5.922195 6.319351 10.446793
5.876724 6.332596 10.490158
5.889359 6.324112 10.478226
5.876053 6.328812 10.472519
5.936081 6.318130 10.490799
5.919785 6.317764 10.495224
5.909470 6.318893 10.493423
5.909592 6.328415 10.493057
5.954239 6.314590 10.476669
5.738602 6.230270 10.640579
5.744247 6.214096 10.649521
5.727402 6.124527 10.530441
5.733139 6.099503 10.512466
5.741592 6.078537 10.500565
5.741745 6.078720 10.555161
5.742935 6.106705 10.541092
5.735580 6.109116 10.543442
5.725998 6.123032 10.582352
5.732681 6.099014 10.565994
5.743790 6.080887 10.613602
5.734634 6.101059 10.624283
5.746628 6.107590 10.596603
5.739365 6.109573 10.599014
5.731766 6.223770 10.516647
5.718552 6.179337 10.518936
5.721237 6.150009 10.548569
5.735825 6.138992 10.536575
5.725327 6.144424 10.536789
5.732376 6.174973 10.534683
5.723953 6.179611 10.536301
5.718094 6.202591 10.512924
5.724960 6.215195 10.501755
5.724686 6.207138 10.556564
5.722366 6.215256 10.535690
5.736221 6.212265 10.537857
5.733383 6.231888 10.543503
5.740005 6.243942 10.532761
5.746689 6.248581 10.545639
5.735092 6.175858 10.589493
5.736008 6.139725 10.589645
5.725815 6.145157 10.590042
5.722061 6.183151 10.579788
5.720840 6.180161 10.587082
5.723129 6.152054 10.606644
5.735855 6.228226 10.578476
5.718582 6.192459 10.569626
5.722122 6.215958 10.588455
5.739090 6.237717 10.585953
5.724411 6.199020 10.611618
5.742050 6.213272 10.594864
5.732193 6.226730 10.595688
5.749222 6.249405 10.600388
5.746384 6.108292 10.649582
5.736771 6.110184 10.650406
5.745651 6.082870 10.672134
5.736435 6.102982 10.682755
5.740311 6.111069 10.706223
5.726944 6.124069 10.694077
5.744461 6.081589 10.725296
5.735764 6.102280 10.736954
5.727493 6.216965 10.645340
5.736404 6.176620 10.643539
5.737503 6.140488 10.643814
5.729294 6.126572 10.643295
5.728012 6.145950 10.644699
5.722458 6.180954 10.641312
5.718887 6.182724 10.626205
5.722641 6.183762 10.635574
5.723709 6.152695 10.662674
5.720200 6.169937 10.685989
5.724197 6.190628 10.667252
5.740158 6.177505 10.699448
5.723618 6.152573 10.717758
5.726089 6.146591 10.696701
5.736984 6.141190 10.696762
5.723251 6.184433 10.691818
5.722855 6.181717 10.694870
5.724869 6.147263 10.749344
5.724777 6.179886 10.725388
5.748978 6.242477 10.712601
5.746017 6.214920 10.704086
5.731796 6.217911 10.701645
5.731125 6.212418 10.704575
5.736710 6.226944 10.691574
5.736618 6.218216 10.747910
5.744461 6.249435 10.728531
5.992386 6.001877 10.650955
5.767624 6.070877 10.504807
5.798630 6.035385 10.525681
5.784683 6.038864 10.523605
5.778702 6.026932 10.540024
5.812210 6.000412 10.545242
5.793655 6.012558 10.539993
5.754013 6.062271 10.550766
5.765274 6.043991 10.543839
5.825546 6.002243 10.551285
5.755295 6.073929 10.503769
5.769638 6.071671 10.559036
5.755905 6.074692 10.557053
5.797501 6.036057 10.577835
5.783188 6.039505 10.575516
5.779831 6.028091 10.596603
5.794571 6.013535 10.596298
5.767136 6.045944 10.601883
5.788162 6.036392 10.624588
5.824570 6.002945 10.603714
5.770248 6.072372 10.612534
5.756485 6.075455 10.610519
5.754715 6.063004 10.606674
5.987320 6.004074 10.537430
5.989395 6.005356 10.535446
5.992203 6.001358 10.587204
5.993668 6.003159 10.598465
5.770676 6.073135 10.666031
5.766678 6.045486 10.656052
5.779892 6.028183 10.651718
5.793411 6.012344 10.649094
5.784164 6.040298 10.629349
5.798691 6.037552 10.685165
5.781662 6.040909 10.680954
5.822159 6.003586 10.655350
5.755753 6.064102 10.663620
5.759872 6.076309 10.666092
5.765305 6.044052 10.708786
5.779099 6.027359 10.705551
5.793655 6.012589 10.704819
5.786880 6.041824 10.738083
5.795273 6.038101 10.736343
5.828537 6.000534 10.705612
5.820206 6.004227 10.707413
5.750687 6.109207 10.705917
5.772995 6.073929 10.721115
5.760422 6.077042 10.719894
5.756516 6.064896 10.720383
5.740311 6.252029 10.654800
5.748672 6.271622 10.517319
5.734665 6.250320 10.544693
5.747574 6.266251 10.569595
5.746750 6.259995 10.622940
5.737259 6.251144 10.599472
5.745743 6.254318 10.675980
5.742294 6.252853 10.709549
5.940475 6.316086 10.639969
5.828690 6.320328 10.505661
5.779770 6.295761 10.506363
5.758408 6.275436 10.514481
5.769638 6.296249 10.505569
5.755783 6.286087 10.506912
5.774551 6.283005 10.512436
5.803696 6.309616 10.504532
5.793625 6.306717 10.506363
5.778793 6.289902 10.559097
5.769333 6.288651 10.559830
5.802048 6.305801 10.555313
5.790756 6.306534 10.553665
5.805435 6.316147 10.527542
5.809067 6.325027 10.543961
5.817764 6.321915 10.503494
5.843735 6.329636 10.507370
5.873703 6.327225 10.520981
5.856308 6.325668 10.512192
5.841843 6.326736 10.557266
5.816238 6.317978 10.554306
5.827194 6.316116 10.556839
5.779831 6.284012 10.568985
5.757889 6.268082 10.568619
5.761887 6.287155 10.564011
5.757492 6.260483 10.623337
5.767410 6.285690 10.610031
5.776718 6.287216 10.609116
5.763840 6.287979 10.618454
5.781815 6.284836 10.623459
5.788406 6.304916 10.602554
5.800156 6.302597 10.605789
5.807053 6.315475 10.578720
5.868942 6.329941 10.581253
5.872055 6.323593 10.571579
5.854630 6.321884 10.562973
5.873947 6.328293 10.564865
5.840561 6.322159 10.608932
5.812576 6.325974 10.599503
5.814285 6.315140 10.604355
5.825394 6.312668 10.607559
5.869827 6.321640 10.620834
5.852341 6.319962 10.612259
5.939346 6.313156 10.509689
5.936935 6.311722 10.558212
5.952591 6.306046 10.517502
5.995255 6.275711 10.510147
5.971298 6.304642 10.514328
5.991531 6.277725 10.555527
5.957504 6.312454 10.538559
5.986038 6.293259 10.557846
5.996597 6.284836 10.540451
5.886703 6.323196 10.526138
5.935532 6.320999 10.511429
5.908249 6.330338 10.502762
5.909988 6.325211 10.561172
5.917038 6.317032 10.543076
5.907181 6.317154 10.542130
5.984055 6.320541 10.509018
5.938950 6.318588 10.540359
5.934280 6.311020 10.606216
5.948807 6.308212 10.562759
5.973038 6.291000 10.589035
5.974075 6.309097 10.573807
5.974106 6.302353 10.577774
5.987534 6.280502 10.600357
5.945999 6.307693 10.610672
5.960342 6.310135 10.602127
5.989853 6.291306 10.619644
5.999130 6.282455 10.604935
5.904434 6.316696 10.589859
5.884842 6.319992 10.576431
5.914200 6.316605 10.590836
5.881790 6.319107 10.624680
5.888229 6.345444 10.611801
5.938095 6.318588 10.575180
5.873337 6.324753 10.635605
5.804733 6.311142 10.634872
5.755051 6.258743 10.672714
5.755997 6.250504 10.658249
5.766647 6.279282 10.663681
5.768570 6.288956 10.675034
5.775009 6.283432 10.660324
5.787216 6.285812 10.680527
5.788803 6.295334 10.659225
5.798660 6.298203 10.657608
5.812607 6.311539 10.655289
5.823257 6.310196 10.657516
5.838242 6.320297 10.658249
5.867783 6.319138 10.670822
5.850723 6.315933 10.663742
5.796768 6.294968 10.708542
5.758316 6.251328 10.713272
5.764816 6.276047 10.714645
5.773697 6.278397 10.713058
5.785660 6.295883 10.706528
5.811478 6.306259 10.708145
5.754013 6.252945 10.726212
5.773941 6.289963 10.732285
5.794632 6.286972 10.739212
5.820847 6.307327 10.707993
5.836441 6.317032 10.709152
5.864822 6.319138 10.718735
5.866806 6.323563 10.690720
5.847855 6.315445 10.712112
5.864700 6.319412 10.747116
5.956650 6.330582 10.625778
5.931076 6.311661 10.653183
5.976120 6.299698 10.643723
5.969498 6.292679 10.634933
5.981522 6.288681 10.640213
5.974564 6.307297 10.626541
5.991745 6.281082 10.681870
5.965652 6.295151 10.680344
5.943008 6.307602 10.658432
5.962845 6.307632 10.667221
5.991714 6.288559 10.686447
5.978043 6.289993 10.686752
5.902664 6.313400 10.640488
5.912155 6.322617 10.626144
5.911514 6.315720 10.639236
5.880051 6.315506 10.675797
5.928238 6.311417 10.701218
5.897751 6.310593 10.738815
5.925125 6.311813 10.748825
5.906723 6.312119 10.738449
5.939743 6.308243 10.705673
5.965469 6.296585 10.691025
5.981674 6.298294 10.702408
5.991837 6.278946 10.735611
5.967667 6.296432 10.742203
5.968613 6.306290 10.725571
5.960770 6.300461 10.723129
5.997757 6.287369 10.744492
5.972763 6.296127 10.728867
5.899918 6.312881 10.688705
5.877060 6.322647 10.697708
5.913101 6.319565 10.694504
5.909378 6.313217 10.689407
5.877365 6.314560 10.724625
5.945419 6.314438 10.699844
5.941086 6.313919 10.697983
5.741165 6.232681 10.889847
5.747849 6.109787 10.757462
5.740585 6.111801 10.759933
5.727280 6.124405 10.750198
5.745560 6.082748 10.783096
5.748367 6.110550 10.811569
5.735794 6.102310 10.792801
5.738022 6.112411 10.811905
5.745377 6.082596 10.838913
5.747391 6.111221 10.864792
5.735977 6.102524 10.849350
5.740280 6.113266 10.867416
5.749680 6.215805 10.760208
5.742813 6.178360 10.754837
5.726761 6.155960 10.779373
5.723404 6.151443 10.751480
5.736771 6.141891 10.750107
5.728256 6.182693 10.752182
5.725174 6.186539 10.750870
5.738449 6.142685 10.804977
5.730942 6.148270 10.807297
5.742203 6.179062 10.808090
5.725052 6.169937 10.783127
5.725204 6.183273 10.803726
5.733444 6.218704 10.756363
5.729874 6.207321 10.757492
5.734909 6.214310 10.800003
5.732651 6.219376 10.809525
5.743942 6.242081 10.783676
5.725571 6.159256 10.841843
5.726425 6.155594 10.834732
5.731064 6.128464 10.813248
5.730484 6.127853 10.868423
5.726852 6.148788 10.858322
5.740097 6.143509 10.860001
5.745712 6.179947 10.864487
5.727066 6.184097 10.858902
5.742966 6.236252 10.837723
5.730087 6.197800 10.814865
5.729294 6.190964 10.814438
5.749496 6.216537 10.813828
5.731552 6.193405 10.874954
5.734177 6.207260 10.855301
5.729904 6.189407 10.871506
5.736130 6.220291 10.865921
5.747238 6.084549 10.898941
5.741165 6.114029 10.922165
5.737534 6.104172 10.908829
5.748886 6.086288 10.958939
5.741196 6.108047 10.972763
5.744827 6.114944 10.979111
5.747330 6.236526 10.936234
5.728592 6.157944 10.895248
5.733353 6.130936 10.930557
5.729507 6.149704 10.914322
5.741623 6.144302 10.915207
5.730240 6.179520 10.929825
5.729874 6.184982 10.915024
5.745346 6.180679 10.918350
5.734207 6.220932 10.918655
5.731766 6.193649 10.931992
5.732742 6.202408 10.908798
5.730972 6.160477 10.956558
5.735977 6.133743 10.992630
5.733444 6.150589 10.971390
5.745041 6.145187 10.971878
5.731735 6.165970 10.992050
5.730392 6.185745 10.969681
5.747574 6.181503 10.974258
5.739670 6.228195 10.943008
5.733109 6.192032 10.967880
5.733566 6.195602 10.992416
5.745956 6.231400 10.990402
5.738693 6.221909 10.976181
5.738907 6.221420 10.998703
5.750046 6.237595 10.886276
5.770523 6.074539 10.772964
5.766861 6.045670 10.767349
5.778763 6.026993 10.760544
5.794083 6.013016 10.761246
5.788498 6.038589 10.785294
5.786453 6.042557 10.791519
5.822647 6.001022 10.755142
5.825546 6.005142 10.764816
5.826401 6.001877 10.811569
5.759598 6.077744 10.772964
5.755417 6.063766 10.774063
5.780838 6.043076 10.841446
5.779343 6.027603 10.817673
5.793777 6.012711 10.816696
5.765823 6.044601 10.821457
5.793991 6.012955 10.873489
5.797714 6.039688 10.845627
5.818069 6.005630 10.813431
5.826035 6.002640 10.865311
5.817520 6.006332 10.867050
5.755234 6.063553 10.829788
5.769455 6.075241 10.826035
5.759293 6.078476 10.826553
5.752151 6.249466 10.777756
5.754715 6.248703 10.778824
5.750626 6.244949 10.830521
5.751511 6.217361 10.869186
5.773331 6.076157 10.882767
5.767685 6.046555 10.881363
5.780258 6.028549 10.875748
5.798996 6.040451 10.900620
5.785477 6.043991 10.898788
5.781204 6.029526 10.934280
5.796890 6.015945 10.935684
5.812881 6.001144 10.879532
5.833481 6.003616 10.924789
5.823746 6.006851 10.925674
5.812637 6.000900 10.935837
5.755386 6.063736 10.886551
5.758591 6.079178 10.880051
5.752579 6.112167 10.922592
5.768723 6.047653 10.940140
5.802170 6.041336 10.957169
5.788925 6.044876 10.955551
5.799606 6.018753 10.997971
5.784439 6.032913 10.997574
5.831284 6.007889 10.985458
5.814590 6.002914 10.996689
5.832657 6.004349 10.978622
5.775375 6.076950 10.938400
5.759811 6.068405 10.951767
5.763962 6.080124 10.938065
5.779831 6.077866 10.996017
5.768661 6.081070 10.995834
5.752213 6.112900 10.976639
5.752121 6.218094 10.923752
5.754959 6.218979 10.980087
5.748978 6.253922 10.767807
5.886063 6.315506 10.892593
5.835068 6.312515 10.761551
5.795090 6.291031 10.760452
5.761826 6.252243 10.769333
5.764511 6.268265 10.770126
5.772629 6.272629 10.766708
5.784409 6.290848 10.759354
5.809097 6.304642 10.757706
5.778152 6.290939 10.788925
5.798691 6.299393 10.803421
5.797134 6.287827 10.794693
5.807114 6.301712 10.808762
5.819962 6.301102 10.762039
5.846268 6.311356 10.764114
5.832779 6.310501 10.811752
5.817368 6.299881 10.811569
5.862595 6.317062 10.768753
5.865372 6.317764 10.800400
5.793655 6.286240 10.813370
5.756790 6.250961 10.838608
5.762650 6.264938 10.821640
5.750504 6.254745 10.822708
5.762833 6.253006 10.823807
5.770309 6.270554 10.817062
5.783920 6.283646 10.814529
5.760300 6.263077 10.871994
5.768875 6.265762 10.870285
5.780136 6.285965 10.860825
5.780075 6.291763 10.844223
5.795609 6.294327 10.861557
5.804550 6.288956 10.853836
5.804794 6.299820 10.859085
5.791092 6.284836 10.863297
5.872696 6.310440 10.825119
5.844742 6.306870 10.816757
5.842300 6.305161 10.866989
5.815231 6.297134 10.862747
5.829941 6.310043 10.860641
5.860336 6.314926 10.819107
5.857986 6.313187 10.869308
5.867203 6.317215 10.852615
5.876785 6.319138 10.769241
5.935989 6.310226 10.751846
5.903976 6.311264 10.787491
5.895279 6.309189 10.788315
5.933365 6.309006 10.801285
5.957932 6.300064 10.771591
5.968735 6.298874 10.774429
5.941849 6.312424 10.750931
5.948685 6.312180 10.764023
5.985641 6.296310 10.765305
5.993668 6.278427 10.787430
5.943710 6.311905 10.802811
5.992599 6.285568 10.797440
5.969925 6.296310 10.793564
5.973373 6.304581 10.786850
5.875015 6.312515 10.774734
5.917191 6.317612 10.756546
5.921677 6.313126 10.795700
5.901657 6.309219 10.837875
5.893326 6.306198 10.839584
5.937363 6.303787 10.864883
5.919174 6.311752 10.845444
5.929214 6.312027 10.846817
5.964554 6.301926 10.819809
5.997787 6.280045 10.836716
5.953598 6.310501 10.825180
5.952774 6.306107 10.814041
5.991379 6.294937 10.824875
5.961014 6.303207 10.867142
5.950150 6.305069 10.863571
5.999893 6.284744 10.848373
5.989975 6.284561 10.846817
5.979111 6.303207 10.846451
5.879715 6.316727 10.834396
5.924179 6.316666 10.812820
5.908737 6.317520 10.823746
5.929977 6.315262 10.872299
5.865616 6.313522 10.909134
5.779739 6.292496 10.898056
5.761185 6.255753 10.903214
5.763596 6.253769 10.878342
5.750931 6.255478 10.876999
5.766220 6.254654 10.934402
5.766068 6.264938 10.919907
5.758072 6.260818 10.922958
5.751419 6.256271 10.931503
5.778030 6.283310 10.912094
5.812485 6.296219 10.912399
5.788864 6.282272 10.914566
5.802872 6.289597 10.906845
5.797318 6.293625 10.914169
5.802597 6.297348 10.910141
5.870499 6.307968 10.876083
5.840073 6.302658 10.918259
5.827805 6.307541 10.911758
5.867752 6.307022 10.925888
5.856094 6.310013 10.921127
5.780197 6.293228 10.952682
5.759384 6.253799 10.956467
5.777512 6.275955 10.968155
5.799881 6.296555 10.959824
5.785355 6.283493 10.962387
5.809402 6.296066 10.961533
5.804306 6.290390 10.962173
5.806442 6.299728 10.958054
5.764999 6.255295 10.987930
5.763412 6.263565 10.970291
5.755203 6.260422 10.972366
5.750778 6.256973 10.985428
5.836441 6.304245 10.965683
5.826279 6.303268 10.964828
5.835648 6.310837 10.999710
5.864517 6.307449 10.974503
5.853409 6.309006 10.971024
5.869034 6.314407 10.959854
5.905991 6.312729 10.881546
5.898544 6.309280 10.886459
5.889816 6.307693 10.886734
5.926804 6.310165 10.897293
5.917252 6.308731 10.896988
5.895493 6.309158 10.935440
5.960739 6.309616 10.881912
5.994705 6.290512 10.891464
5.996811 6.293411 10.885757
5.973618 6.295273 10.897934
5.985550 6.288437 10.891708
5.956619 6.306870 10.912338
5.945969 6.309525 10.909012
5.945999 6.308243 10.909134
5.989914 6.295120 10.935837
5.985001 6.301865 10.906448
5.980972 6.292801 10.936264
5.936874 6.314224 10.929886
5.887589 6.305435 10.937698
5.923019 6.312088 10.944321
5.913773 6.310074 10.944534
5.884018 6.306961 10.985214
5.892075 6.310104 10.983597
5.910141 6.311752 10.991928
5.920120 6.311539 10.994003
5.950302 6.311295 10.958572
5.952347 6.310043 10.958176
5.968246 6.308792 10.938431
5.943130 6.307785 10.958481
5.992447 6.301010 10.963425
5.954056 6.274673 10.976944
5.977158 6.308487 10.992264
5.977005 6.295364 10.982773
5.984726 6.300827 10.979324
5.983109 6.299576 10.996109
5.896072 6.315598 10.943100
5.908554 6.316574 10.988480
5.945389 6.313766 10.984390
5.749710 6.195724 11.651688
5.745865 6.224503 11.145584
5.749832 6.249313 11.131638
5.748611 6.115829 11.036362
5.743301 6.110306 11.034164
5.744186 6.111282 11.093643
5.736649 6.219223 11.050217
5.733353 6.163071 11.018356
5.748550 6.146103 11.028915
5.734268 6.151382 11.026474
5.739548 6.186905 11.030777
5.733078 6.182877 11.026138
5.738174 6.136063 11.054276
5.740128 6.222702 11.031754
5.738205 6.200638 11.058731
5.744553 6.226364 11.044693
5.735489 6.165359 11.080063
5.738052 6.152298 11.083908
5.749527 6.146835 11.084335
5.735428 6.166550 11.091721
5.735001 6.187454 11.082199
5.740402 6.138443 11.116440
5.737686 6.223312 11.084702
5.738602 6.201035 11.117264
5.736496 6.210495 11.108414
5.743362 6.220535 11.100052
5.745621 6.112808 11.154556
5.748001 6.115311 11.217728
5.742050 6.215073 11.155350
5.737869 6.167923 11.142685
5.738724 6.153091 11.139328
5.740097 6.138138 11.174118
5.738113 6.149124 11.158737
5.738907 6.188339 11.139938
5.741104 6.203751 11.180344
5.737045 6.199783 11.168839
5.748764 6.243393 11.187485
5.738602 6.168716 11.202499
5.740219 6.153915 11.195480
5.741409 6.139542 11.235336
5.742477 6.225021 11.198257
5.741867 6.206284 11.214218
5.738510 6.189102 11.194778
5.741684 6.204391 11.240067
5.736649 6.191757 11.226974
5.746689 6.240280 11.240799
5.758682 6.221359 11.147018
5.751938 6.089523 11.022049
5.771927 6.051010 11.003403
5.807327 6.042252 11.015366
5.792679 6.045761 11.012741
5.800949 6.020157 11.058090
5.817886 6.006302 11.060471
5.838028 6.005295 11.037064
5.832016 6.008652 11.040665
5.761978 6.070663 11.013138
5.780624 6.078629 11.051193
5.764542 6.081619 11.047501
5.753525 6.113663 11.032089
5.775558 6.054794 11.067917
5.807816 6.043015 11.070419
5.788620 6.037308 11.063156
5.797836 6.046707 11.071152
5.804092 6.023422 11.122055
5.789993 6.038742 11.123764
5.819107 6.007584 11.120773
5.839493 6.009689 11.100876
5.843491 6.006210 11.095810
5.762070 6.114822 11.093002
5.753403 6.091080 11.082565
5.762100 6.070786 11.070969
5.751175 6.116684 11.092972
5.770706 6.082657 11.106735
5.784958 6.079544 11.109146
5.758102 6.219864 11.036911
5.751480 6.182419 11.031540
5.750351 6.183090 11.085464
5.756546 6.220535 11.090530
5.760910 6.115494 11.147079
5.775864 6.055130 11.126541
5.812149 6.043930 11.128464
5.799759 6.047531 11.127487
5.804337 6.023697 11.180923
5.776688 6.056015 11.186539
5.790115 6.038864 11.182388
5.798325 6.048233 11.181534
5.836533 6.010330 11.153824
5.847275 6.007126 11.153610
5.819839 6.008347 11.180588
5.812759 6.044693 11.184036
5.753128 6.117538 11.149338
5.755692 6.093491 11.145065
5.765915 6.074844 11.136398
5.774979 6.083572 11.164902
5.783890 6.080276 11.163376
5.776352 6.055649 11.244675
5.805740 6.025162 11.242416
5.810196 6.045364 11.237503
5.789261 6.037949 11.239456
5.798935 6.049026 11.237350
5.839890 6.011215 11.211533
5.848801 6.007919 11.209946
5.821060 6.009598 11.241684
5.756943 6.094864 11.206039
5.765274 6.074173 11.193619
5.754013 6.118301 11.205124
5.763351 6.116348 11.204025
5.775253 6.084335 11.220291
5.784164 6.081009 11.218826
5.752762 6.183975 11.142105
5.752151 6.147720 11.141159
5.756912 6.184891 11.200241
5.752426 6.148453 11.196426
5.759415 6.222153 11.202682
5.754349 6.244095 11.238388
5.979874 6.315475 11.130417
5.856003 6.314560 11.027542
5.780441 6.293991 11.007370
5.760910 6.261917 11.021225
5.759445 6.253830 11.013565
5.773727 6.278214 11.015182
5.753586 6.256271 11.025620
5.800583 6.290909 11.014084
5.782425 6.283035 11.012070
5.796219 6.298416 11.007156
5.805862 6.297440 11.009445
5.764816 6.256027 11.042374
5.750900 6.257675 11.040085
5.780685 6.294754 11.062210
5.802505 6.298080 11.058151
5.793259 6.298141 11.056747
5.833328 6.304276 11.014847
5.813156 6.303604 11.005020
5.822586 6.305222 11.012100
5.860336 6.310410 11.020828
5.849838 6.310593 11.018661
5.828232 6.309921 11.058701
5.823746 6.311020 11.047409
5.818130 6.309311 11.057419
5.874100 6.316757 11.008774
5.779678 6.281906 11.062607
5.758621 6.252945 11.069412
5.758286 6.260391 11.072189
5.751480 6.253433 11.077896
5.771500 6.275803 11.066910
5.801224 6.291672 11.069229
5.755997 6.257889 11.124405
5.750473 6.258438 11.094528
5.761856 6.256607 11.095016
5.768723 6.275070 11.117294
5.775650 6.295181 11.113449
