6.567062 5.719650 4.921158
6.585098 5.708939 4.903580
6.578018 5.716019 4.886612
6.584518 5.709244 4.881516
6.592453 5.702957 4.897110
6.609024 5.690842 4.904739
6.606369 5.690292 4.885574
6.600388 5.697098 4.889969
6.567307 5.720322 4.897903
6.567184 5.720871 4.875290
6.583939 5.707870 4.928207
6.592056 5.702255 4.920639
6.576004 5.714615 4.912338
6.574692 5.713516 4.937210
6.607224 5.689499 4.930344
6.600754 5.696671 4.912338
6.599808 5.695694 4.936783
6.621170 5.676254 4.988174
6.619675 5.676254 4.966843
6.620529 5.677200 4.942245
6.613327 5.682663 4.948776
6.614365 5.681870 4.994186
6.615250 5.682846 4.969376
6.546280 5.728043 4.989365
6.516464 5.736526 4.953476
6.502609 5.739212 4.960159
6.547073 5.728928 4.964859
6.546707 5.729416 4.942154
6.558884 5.724777 4.951950
6.533279 5.733353 4.957108
6.515030 5.735489 4.978683
6.558060 5.723862 4.976425
6.532639 5.732498 4.981247
6.607559 5.688461 4.976456
6.577042 5.713882 4.957108
6.591965 5.701614 4.943893
6.584244 5.707382 4.950974
6.593307 5.701553 4.965317
6.599869 5.695114 4.959946
6.608078 5.689255 4.952347
6.567154 5.719101 4.944138
6.584915 5.706497 4.996841
6.566086 5.718094 4.968918
6.574692 5.712357 4.983810
6.584427 5.706894 4.974045
6.592178 5.700546 4.990341
6.565842 5.717392 4.992661
6.600845 5.694931 4.982010
6.632584 5.662521 4.980179
6.631912 5.663376 4.934433
6.646561 5.642960 4.902939
6.652756 5.628983 4.879166
6.650101 5.636398 4.878922
6.645737 5.643204 4.881149
6.641190 5.649918 4.883591
6.652542 5.628281 4.902328
6.651443 5.636368 4.899979
6.641739 5.649582 4.905777
6.625198 5.670853 4.893692
6.636032 5.657059 4.886642
6.631790 5.664505 4.888535
6.646652 5.642410 4.925858
6.653885 5.628311 4.923508
6.650894 5.635544 4.923843
6.636459 5.656052 4.932175
6.641891 5.649063 4.928635
6.631546 5.663834 4.911819
6.636551 5.656693 4.908920
6.625351 5.670334 4.916458
6.626938 5.669235 4.984116
6.653000 5.635300 4.967392
6.653976 5.627731 4.946640
6.651810 5.635391 4.945694
6.638199 5.656235 4.952896
6.646286 5.641678 4.949631
6.642838 5.648849 4.950546
6.630997 5.662430 4.959030
6.626053 5.670029 4.938614
6.626022 5.669449 4.961990
6.643509 5.647964 4.996536
6.654556 5.627396 4.969193
6.637253 5.655258 4.977646
6.648178 5.641891 4.970261
6.643417 5.648514 4.973129
6.652969 5.634689 4.990952
6.654861 5.626938 4.992294
6.648605 5.641464 4.993210
6.281754 5.612808 5.364365
6.345413 5.351639 5.364883
6.347488 5.345810 5.120773
6.322952 5.368027 5.112961
6.351028 5.347458 5.055588
6.359940 5.341782 5.024185
6.371689 5.335251 5.003738
6.322800 5.369431 5.015976
6.343491 5.350693 5.001816
6.325882 5.369095 5.000626
6.321945 5.368851 5.012558
6.341934 5.353561 5.020462
6.341232 5.354233 5.026443
6.326614 5.367599 5.018845
6.324295 5.369797 5.022263
6.347672 5.349503 5.016098
6.349991 5.347519 5.021805
6.345840 5.350235 5.019791
6.360977 5.342667 5.053574
6.372421 5.335098 5.037369
6.327744 5.368515 5.048264
6.343216 5.351547 5.043411
6.322495 5.369858 5.038681
6.323349 5.368851 5.046432
6.323288 5.370377 5.044418
6.343643 5.354996 5.050339
6.343216 5.354385 5.060654
6.347763 5.350174 5.062271
6.345230 5.350357 5.037125
6.345535 5.350632 5.042557
6.322464 5.371658 5.113235
6.360519 5.342270 5.081833
6.374985 5.335373 5.071915
6.324295 5.368759 5.080215
6.341293 5.353012 5.077072
6.324020 5.369888 5.062973
6.323288 5.370743 5.067490
6.326035 5.367081 5.075516
6.343277 5.351547 5.081772
6.342026 5.352127 5.085922
6.342972 5.352341 5.085037
6.341751 5.353622 5.093369
6.322861 5.370499 5.085190
6.323563 5.371048 5.090866
6.349472 5.346664 5.088242
6.344254 5.351303 5.064590
6.360031 5.341873 5.110184
6.373062 5.334488 5.104477
6.326950 5.367844 5.104935
6.341873 5.352219 5.103806
6.341507 5.352615 5.108749
6.342056 5.353653 5.106400
6.322983 5.370834 5.108566
6.499313 5.316727 5.099319
6.422501 5.319229 5.056778
6.378494 5.330429 5.028397
6.388138 5.325333 5.005905
6.385147 5.326126 5.008713
6.400620 5.321671 5.006760
6.386063 5.324112 5.029373
6.386703 5.326004 5.027725
6.427750 5.318314 5.017990
6.425949 5.314865 5.022476
6.423447 5.319809 5.023758
6.378677 5.330582 5.057114
6.379959 5.328049 5.032181
6.384750 5.326584 5.031387
6.401138 5.322098 5.035660
6.389603 5.325699 5.053177
6.385818 5.326706 5.055344
6.425125 5.316147 5.044540
6.499222 5.317459 5.058395
6.461807 5.314651 5.019363
6.460312 5.317612 5.004257
6.443893 5.314957 5.024277
6.457779 5.315536 5.030899
6.499191 5.317795 5.017410
6.455460 5.313644 5.057724
6.444565 5.314774 5.058029
6.462051 5.313400 5.060013
6.426468 5.312119 5.103806
6.462570 5.310837 5.100204
6.418381 5.317429 5.121902
6.379044 5.330887 5.086075
6.381546 5.328110 5.066269
6.384598 5.327194 5.072250
6.385178 5.327194 5.078018
6.402359 5.323105 5.065262
6.384995 5.328476 5.072342
6.399246 5.320511 5.091476
6.380539 5.328476 5.092178
6.437454 5.312576 5.088333
6.425919 5.314804 5.063614
6.425735 5.316635 5.073685
6.416367 5.317276 5.087448
6.377762 5.329453 5.113205
6.376358 5.326401 5.097305
6.377213 5.329361 5.094711
6.386032 5.323807 5.111771
6.400314 5.321396 5.121140
6.377731 5.329788 5.113754
6.381088 5.328873 5.121262
6.426529 5.317307 5.103073
6.454727 5.313034 5.114731
6.455002 5.313248 5.086105
6.438919 5.312607 5.122604
6.263474 5.484970 5.113907
6.286270 5.424210 5.050980
6.300949 5.400192 5.019852
6.309402 5.387253 5.002060
6.311966 5.387589 5.009171
6.294601 5.405838 5.009872
6.304306 5.393570 5.008163
6.305008 5.395279 5.011917
6.301346 5.402817 5.015549
6.309189 5.387680 5.024796
6.310776 5.388199 5.031143
6.279007 5.436020 5.023911
6.284286 5.422836 5.021469
6.287033 5.416489 5.003738
6.284378 5.423904 5.003555
6.288101 5.427231 5.013077
6.295822 5.406296 5.015884
6.288925 5.418381 5.021500
6.284744 5.429886 5.023331
6.285202 5.424057 5.027115
6.307266 5.394394 5.051529
6.295944 5.405930 5.033890
6.307571 5.394089 5.042862
6.309158 5.388046 5.047745
6.311111 5.388504 5.054428
6.301285 5.400467 5.048630
6.304062 5.403152 5.050064
6.278763 5.435776 5.052261
6.289505 5.427200 5.046921
6.290848 5.420364 5.032394
6.290115 5.416977 5.038345
6.296280 5.406540 5.039230
6.283646 5.423355 5.043839
6.288803 5.418259 5.049942
6.294998 5.406479 5.056107
6.295242 5.407120 5.061417
6.286026 5.427078 5.062119
6.320389 5.377762 5.053818
6.317520 5.377396 5.019241
6.313950 5.383835 5.019394
6.314713 5.384506 5.048538
6.259689 5.484634 5.059311
6.268600 5.455399 5.025833
6.275406 5.442368 5.002121
6.277695 5.438828 5.013229
6.272598 5.451279 5.009567
6.268784 5.455002 5.003159
6.266220 5.456100 5.006088
6.276657 5.439743 5.017410
6.268204 5.455673 5.026779
6.265884 5.456528 5.028641
6.255844 5.499496 5.030472
6.260025 5.475571 5.002487
6.261551 5.477310 5.008224
6.258286 5.484207 5.012283
6.258530 5.495071 5.001785
6.257034 5.498886 5.008591
6.258774 5.498764 5.015121
6.263535 5.469193 5.019272
6.261612 5.470322 5.022659
6.259628 5.484299 5.018478
6.269516 5.455582 5.049515
6.274887 5.441879 5.035049
6.280167 5.438644 5.038193
6.276840 5.440048 5.040482
6.272415 5.450851 5.042648
6.262405 5.467117 5.032974
6.265427 5.467728 5.036148
6.279648 5.439102 5.060745
6.266525 5.456741 5.052139
6.267502 5.455032 5.054764
6.257828 5.499435 5.055069
6.261368 5.476730 5.032059
6.263016 5.469650 5.041733
6.263077 5.470352 5.046829
6.263077 5.477341 5.042099
6.258652 5.484482 5.035507
6.255539 5.499466 5.038467
6.258011 5.494583 5.034683
6.258163 5.499222 5.037491
6.260849 5.484421 5.042374
6.261307 5.476669 5.060593
6.258896 5.499435 5.061111
6.287521 5.425949 5.112595
6.303146 5.402573 5.082932
6.308731 5.388474 5.070450
6.310684 5.388931 5.077164
6.306778 5.393478 5.075760
6.300827 5.400070 5.076889
6.308212 5.388962 5.093216
6.309280 5.393021 5.090988
6.280472 5.437271 5.082291
6.288620 5.426590 5.079758
6.290024 5.416611 5.071579
6.284470 5.423508 5.067581
6.287369 5.424332 5.074966
6.290207 5.422806 5.074844
6.295059 5.406815 5.079239
6.295883 5.407364 5.085068
6.289719 5.419052 5.079269
6.284775 5.423813 5.090988
6.301773 5.401810 5.115646
6.309982 5.389450 5.099777
6.305679 5.392838 5.108658
6.301407 5.400558 5.106033
6.307175 5.389542 5.115616
6.306870 5.390488 5.120468
6.279312 5.436264 5.110062
6.284531 5.424240 5.114029
6.294876 5.407211 5.102310
6.294418 5.408035 5.107040
6.288284 5.417801 5.106827
6.291000 5.416489 5.105331
6.286667 5.424850 5.097549
6.287155 5.423935 5.100845
6.284622 5.425644 5.119064
6.289200 5.426682 5.117966
6.316971 5.376114 5.118942
6.319473 5.377182 5.086716
6.315109 5.384842 5.077469
6.312759 5.382828 5.104263
6.265701 5.470200 5.113266
6.269547 5.456833 5.085068
6.277145 5.440353 5.063736
6.276932 5.442062 5.069199
6.272415 5.450485 5.075882
6.266617 5.467911 5.068161
6.268784 5.456070 5.071976
6.267685 5.456833 5.076157
6.267685 5.466843 5.075943
6.278336 5.439743 5.082718
6.276352 5.440872 5.086166
6.261185 5.484665 5.083633
6.264114 5.469803 5.065689
6.261795 5.470993 5.068741
6.262619 5.476822 5.075119
6.260574 5.484818 5.065170
6.259354 5.494583 5.068527
6.263504 5.470291 5.088242
6.261978 5.477249 5.089828
6.258743 5.499619 5.078903
6.260117 5.499557 5.085190
6.262161 5.484879 5.089584
6.268356 5.455795 5.112869
6.276688 5.440445 5.104538
6.277725 5.441910 5.102890
6.272232 5.450089 5.109116
6.269455 5.456314 5.095657
6.267563 5.457230 5.099197
6.265823 5.467361 5.101120
6.276810 5.441147 5.109756
6.267868 5.461716 5.113815
6.268723 5.456833 5.118301
6.267593 5.457626 5.122482
6.263840 5.471298 5.116806
6.264694 5.470749 5.094315
6.263657 5.476761 5.108932
6.260178 5.485245 5.105972
6.259415 5.494247 5.101883
6.259109 5.499893 5.102371
6.259933 5.499954 5.108231
6.261185 5.476547 5.117935
6.350021 5.345383 5.222763
6.320694 5.372452 5.176865
6.372452 5.334000 5.137711
6.361191 5.342819 5.139938
6.323715 5.367874 5.146774
6.340378 5.352921 5.125900
6.340561 5.352951 5.126236
6.342941 5.352280 5.126419
6.341751 5.352951 5.132309
6.342514 5.354050 5.135544
6.322617 5.371262 5.131577
6.327133 5.368027 5.133865
6.322281 5.372055 5.136429
6.341721 5.353317 5.155746
6.321884 5.371811 5.154373
6.349442 5.345963 5.155197
6.344009 5.352463 5.152390
6.372818 5.331680 5.179550
6.359024 5.340988 5.167068
6.370041 5.333023 5.170181
6.319565 5.373367 5.181137
6.341263 5.352768 5.160110
6.341629 5.353317 5.163742
6.343094 5.351364 5.167557
6.323257 5.372208 5.160751
6.328537 5.369217 5.163895
6.339432 5.353836 5.172073
6.340225 5.354019 5.178024
6.324722 5.367783 5.180771
6.324783 5.367081 5.248123
6.370041 5.332626 5.203842
6.371262 5.332413 5.201920
6.360153 5.341965 5.197006
6.372757 5.332230 5.208572
6.321457 5.373337 5.206375
6.342850 5.352798 5.194443
6.341751 5.353378 5.192795
6.340256 5.354050 5.196396
6.337875 5.354904 5.199661
6.327286 5.368149 5.191849
6.317947 5.373398 5.198166
6.342361 5.354233 5.210281
6.338455 5.354782 5.218582
6.324142 5.367264 5.214157
6.347458 5.345047 5.187881
6.372238 5.332809 5.238632
6.358444 5.340500 5.224655
6.369003 5.333267 5.223801
6.370041 5.333176 5.230026
6.365128 5.334518 5.244308
6.316299 5.374466 5.244278
6.342239 5.353806 5.222275
6.337265 5.355392 5.222855
6.342178 5.352249 5.227768
6.325974 5.367020 5.219833
6.319931 5.373306 5.223587
6.320114 5.374008 5.228989
6.336411 5.355606 5.240616
6.337570 5.355728 5.246933
6.326462 5.367416 5.249374
6.495804 5.317093 5.223099
6.433426 5.310471 5.187485
6.462509 5.310684 5.182816
6.462570 5.310623 5.141434
6.452896 5.311508 5.142166
6.438248 5.312057 5.155991
6.452286 5.310989 5.170670
6.426102 5.313309 5.186996
6.379044 5.329697 5.142990
6.379379 5.326797 5.132248
6.380875 5.329117 5.139206
6.386032 5.323563 5.153061
6.400742 5.321762 5.150345
6.379135 5.330948 5.143723
6.425888 5.314377 5.146011
6.425308 5.316269 5.130936
6.417892 5.316940 5.155350
6.379166 5.330978 5.172684
6.379837 5.326553 5.166061
6.375687 5.330673 5.158401
6.377274 5.330460 5.165054
6.399521 5.320724 5.178329
6.375473 5.331223 5.187149
6.414505 5.315689 5.187454
6.424789 5.315842 5.159470
6.499283 5.316452 5.181870
6.499008 5.317978 5.141129
6.499680 5.320267 5.138779
6.499222 5.319901 5.167465
6.462662 5.309799 5.223923
6.451401 5.310257 5.199051
6.442276 5.312363 5.225479
6.450912 5.309860 5.227829
6.423996 5.315170 5.246140
6.399734 5.320908 5.207565
6.381943 5.326736 5.200699
6.385330 5.326462 5.195724
6.379257 5.331039 5.201767
6.423355 5.314651 5.216415
6.424332 5.315475 5.188126
6.397995 5.319443 5.235275
6.380630 5.326035 5.233841
6.377853 5.329880 5.229721
6.385788 5.324295 5.236343
6.426193 5.312668 5.228226
6.417953 5.316208 5.222855
6.499039 5.317307 5.223679
6.498428 5.319260 5.195969
6.262772 5.493729 5.237473
6.288345 5.425400 5.179916
6.307358 5.392929 5.142838
6.308701 5.386398 5.128098
6.307877 5.389755 5.139542
6.300705 5.399948 5.134262
6.310104 5.390152 5.146561
6.302902 5.401749 5.149612
6.279099 5.436081 5.138718
6.286179 5.425674 5.143723
6.294693 5.407608 5.125443
6.293625 5.408585 5.129654
6.288467 5.417953 5.135788
6.288528 5.415482 5.137589
6.287613 5.419357 5.138931
6.284775 5.424545 5.137527
6.292801 5.408371 5.147202
6.293411 5.408981 5.152908
6.287064 5.425461 5.145798
6.307205 5.392532 5.176315
6.308426 5.389999 5.163467
6.311081 5.385788 5.168076
6.301468 5.400589 5.163742
6.307907 5.391006 5.168198
6.308334 5.390366 5.186966
6.304184 5.401718 5.183762
6.279587 5.436508 5.168015
6.283829 5.425461 5.183701
6.289474 5.418839 5.165482
6.284378 5.425003 5.160629
6.289322 5.426071 5.159348
6.285477 5.426193 5.166580
6.294785 5.408340 5.172379
6.293991 5.409225 5.176865
6.290421 5.415604 5.171951
6.289413 5.417587 5.178421
6.315720 5.385361 5.164322
6.322037 5.377090 5.154800
6.314957 5.384689 5.134842
6.262375 5.485886 5.177963
6.268539 5.457199 5.141464
6.276779 5.440781 5.127914
6.276566 5.441238 5.135727
6.276932 5.441483 5.133163
6.264877 5.466721 5.134018
6.276047 5.450760 5.144333
6.278641 5.440750 5.152878
6.270126 5.457321 5.143143
6.267380 5.458023 5.145645
6.269913 5.460312 5.153488
6.261154 5.485794 5.153427
6.264175 5.471603 5.140396
6.265671 5.470535 5.136551
6.262131 5.485214 5.130905
6.263382 5.485367 5.137131
6.261246 5.494370 5.136154
6.261703 5.499954 5.133011
6.263382 5.478500 5.148605
6.266098 5.477036 5.143448
6.270554 5.457687 5.172440
6.276688 5.441910 5.156357
6.278244 5.441360 5.169998
6.270218 5.457230 5.166336
6.268661 5.458115 5.170181
6.266617 5.466843 5.168289
6.277817 5.441299 5.175674
6.274826 5.442673 5.178238
6.273483 5.449692 5.176590
6.263290 5.486099 5.183945
6.263901 5.472000 5.163589
6.266006 5.470840 5.160233
6.263901 5.485611 5.160995
6.261948 5.494217 5.169907
6.263046 5.475845 5.175522
6.263077 5.478226 5.177322
6.263229 5.472519 5.186539
6.265823 5.471237 5.183578
6.284988 5.427414 5.237076
6.304459 5.391403 5.208603
6.308975 5.391159 5.192642
6.301559 5.400681 5.192825
6.308609 5.390671 5.210861
6.308731 5.391556 5.216110
6.302719 5.400955 5.216660
6.280319 5.437119 5.197617
6.285782 5.425430 5.208969
6.290482 5.419693 5.195297
6.294693 5.408707 5.195847
6.294815 5.409409 5.201187
6.286636 5.426315 5.191116
6.288712 5.428268 5.201981
6.291977 5.415665 5.206253
6.291580 5.416428 5.218277
6.288925 5.425186 5.213760
6.286972 5.426590 5.215042
6.307571 5.392197 5.238907
6.301010 5.400223 5.221420
6.305771 5.391678 5.232132
6.307205 5.391800 5.243576
6.289322 5.425613 5.242722
6.293930 5.409256 5.218918
6.293777 5.409988 5.223984
6.289810 5.419113 5.223831
6.284988 5.425949 5.232010
6.292923 5.409836 5.241776
6.292130 5.415329 5.239975
6.293503 5.410446 5.247513
6.289536 5.425003 5.247696
6.314255 5.381210 5.246689
6.314011 5.386215 5.208664
6.322311 5.376785 5.188492
6.314224 5.384048 5.192062
6.313828 5.383713 5.249954
6.319168 5.375595 5.220627
6.315811 5.385391 5.222427
6.262711 5.486923 5.249283
6.270462 5.457932 5.213699
6.276718 5.441879 5.198288
6.275192 5.442947 5.202133
6.270004 5.457657 5.189682
6.270279 5.455612 5.191696
6.267960 5.458633 5.193100
6.269821 5.457047 5.200821
6.266525 5.466446 5.201767
6.279251 5.441238 5.204025
6.273026 5.449173 5.209915
6.267715 5.459061 5.216537
6.263962 5.486343 5.208145
6.262527 5.486252 5.201645
6.264511 5.475906 5.209763
6.263687 5.478745 5.206863
6.264297 5.472672 5.211075
6.265671 5.471603 5.207077
6.262924 5.494095 5.203903
6.269577 5.458450 5.236679
6.275955 5.442429 5.221298
6.274490 5.443466 5.225235
6.280930 5.437637 5.227219
6.270401 5.457565 5.230423
6.272659 5.454941 5.231857
6.278702 5.440750 5.237381
6.276291 5.442703 5.245346
6.275528 5.443619 5.249893
6.272537 5.448685 5.243301
6.268692 5.459213 5.241135
6.267715 5.466385 5.235947
6.265823 5.475845 5.243973
6.264725 5.472183 5.229965
6.261642 5.486771 5.224564
6.263321 5.486832 5.231277
6.264542 5.472977 5.234970
6.263992 5.479019 5.236282
6.318802 5.373947 5.365005
6.326553 5.367508 5.366989
6.349594 5.344559 5.290146
6.366318 5.334641 5.269272
6.358963 5.340958 5.254288
6.367569 5.334122 5.251785
6.373398 5.332748 5.272995
6.365372 5.335007 5.273911
6.318192 5.374435 5.269821
6.341629 5.353287 5.250900
6.342789 5.352188 5.251114
6.340836 5.351547 5.260910
6.335587 5.356155 5.263809
6.319778 5.374466 5.252518
6.335800 5.356491 5.269363
6.341446 5.353134 5.280014
6.325577 5.366684 5.277878
6.319717 5.374863 5.276413
6.349686 5.344894 5.256332
6.364548 5.335556 5.297226
6.359177 5.341141 5.283737
6.362503 5.335831 5.290054
6.366776 5.330643 5.303726
6.326157 5.367172 5.307693
6.335129 5.356644 5.287430
6.343430 5.349228 5.291641
6.341690 5.351395 5.295151
6.335159 5.357010 5.292831
6.324173 5.366562 5.281631
6.318436 5.374771 5.294052
6.333389 5.357407 5.310013
6.340805 5.352585 5.308823
6.331558 5.358932 5.362289
6.372513 5.331772 5.340500
6.358658 5.340683 5.312668
6.363785 5.335922 5.315292
6.362717 5.336349 5.319809
6.358414 5.340469 5.341904
6.362289 5.336655 5.338211
6.361069 5.337112 5.342606
6.325546 5.366653 5.336594
6.333817 5.357681 5.315720
6.324631 5.366318 5.315689
6.318832 5.374374 5.321793
6.342209 5.351181 5.329300
6.332932 5.357895 5.333786
6.342728 5.352036 5.334610
6.332840 5.358292 5.339127
6.340317 5.352158 5.337814
6.349686 5.344193 5.324081
6.371597 5.331161 5.374100
6.349411 5.343735 5.357956
6.358047 5.337967 5.358810
6.358261 5.338120 5.364517
6.357620 5.339828 5.370773
6.339920 5.351822 5.367020
6.331558 5.358566 5.356888
6.323929 5.365768 5.349289
6.321365 5.374680 5.356979
6.494949 5.316391 5.369858
6.426346 5.311447 5.310959
6.426498 5.310959 5.269089
6.437454 5.310745 5.257126
6.434555 5.309647 5.289688
6.463608 5.305222 5.305161
6.462509 5.310165 5.265610
6.450882 5.309830 5.257065
6.450790 5.309738 5.286331
6.422897 5.314285 5.303909
6.379807 5.325455 5.267288
6.398117 5.319565 5.264603
6.377151 5.329269 5.258347
6.386246 5.321976 5.277054
6.422806 5.314194 5.274460
6.421066 5.316635 5.258224
6.377914 5.324631 5.300278
6.398819 5.320145 5.294510
6.377335 5.329453 5.287796
6.420364 5.316086 5.291855
6.499832 5.313370 5.305222
6.494064 5.315659 5.280380
6.494858 5.316330 5.251633
6.499466 5.315201 5.264359
6.494553 5.316086 5.310287
6.426620 5.310043 5.352097
6.447372 5.312180 5.364120
6.449112 5.308365 5.314377
6.438950 5.310410 5.325882
6.450363 5.309402 5.374588
6.450424 5.309433 5.345016
6.463669 5.304642 5.346603
6.421280 5.312912 5.361618
6.380600 5.324936 5.335556
6.386154 5.322220 5.318832
6.398148 5.319595 5.323380
6.376816 5.329025 5.316757
6.421829 5.313370 5.332504
6.414566 5.314224 5.323105
6.377487 5.319382 5.359970
6.397995 5.319443 5.352768
6.376541 5.328781 5.346024
6.386490 5.320511 5.359909
6.377853 5.323837 5.368301
6.410782 5.312881 5.355362
6.494736 5.316208 5.340012
6.262497 5.488846 5.369461
6.282913 5.427505 5.301956
6.305283 5.392532 5.279495
6.304428 5.392349 5.254807
6.300400 5.399673 5.250076
6.304733 5.401138 5.251328
6.306259 5.392838 5.261642
6.307602 5.391525 5.277481
6.301529 5.400620 5.280228
6.279160 5.436111 5.254929
6.287308 5.424026 5.280350
6.292862 5.413528 5.257401
6.289902 5.419174 5.253067
6.292404 5.410324 5.265213
6.283615 5.426590 5.254623
6.283188 5.428146 5.259384
6.293259 5.410873 5.271194
6.288498 5.417984 5.281143
6.291885 5.414902 5.273575
6.282761 5.427170 5.277786
6.304977 5.392990 5.303268
6.307571 5.392929 5.286728
6.302475 5.400162 5.283981
6.304092 5.394058 5.307755
6.308090 5.391281 5.311539
6.299850 5.399216 5.308182
6.278458 5.435501 5.283615
6.283066 5.428940 5.307205
6.291672 5.410843 5.288528
6.293686 5.409714 5.296158
6.294449 5.410965 5.296249
6.283615 5.428452 5.283646
6.289108 5.426224 5.284897
6.287857 5.417435 5.309982
6.291153 5.414352 5.306992
6.318588 5.375443 5.299454
6.313583 5.383530 5.279007
6.321884 5.375961 5.255661
6.314194 5.384018 5.308853
6.314987 5.377243 5.285294
6.323044 5.375870 5.289963
6.262589 5.487686 5.296982
6.265671 5.465469 5.268661
6.270096 5.458725 5.260971
6.269852 5.457077 5.259171
6.266647 5.460007 5.263199
6.275406 5.443283 5.268448
6.278152 5.440201 5.270828
6.274826 5.444138 5.273178
6.272842 5.449783 5.269974
6.274307 5.448807 5.277847
6.262161 5.487411 5.272629
6.264297 5.473404 5.258591
6.263748 5.478806 5.265305
6.265732 5.472336 5.254623
6.264816 5.486893 5.256363
6.265427 5.472794 5.278244
6.266190 5.475601 5.277878
6.263870 5.493668 5.271713
6.265091 5.487198 5.280533
6.265884 5.465164 5.302505
6.275009 5.443741 5.292068
6.270309 5.459030 5.285080
6.267380 5.460220 5.287766
6.270615 5.457718 5.289108
6.274612 5.444565 5.296982
6.276443 5.439377 5.303757
6.274796 5.448532 5.311874
6.273972 5.446579 5.309128
6.269424 5.459641 5.308273
6.266891 5.460739 5.311386
6.264877 5.487656 5.304337
6.264755 5.473679 5.282883
6.263565 5.478622 5.294449
6.263412 5.474350 5.305679
6.265884 5.473068 5.302658
6.267441 5.475571 5.312271
6.262100 5.492783 5.304611
6.289688 5.423264 5.367691
6.304184 5.394455 5.331985
6.304245 5.400223 5.318680
6.302505 5.393875 5.325241
6.299728 5.399094 5.337509
6.278397 5.435471 5.342392
6.279373 5.436295 5.313736
6.283951 5.429123 5.332138
6.291672 5.411209 5.312607
6.293137 5.411636 5.319199
6.288101 5.423843 5.314560
6.281754 5.428116 5.325058
6.289200 5.425613 5.326584
6.294937 5.406754 5.335403
6.291641 5.411606 5.336777
6.291946 5.412277 5.342300
6.290573 5.413803 5.340591
6.290604 5.419785 5.341751
6.302475 5.394638 5.373764
6.305191 5.390152 5.344070
6.303848 5.393967 5.350662
6.301559 5.395401 5.353928
6.304123 5.399857 5.352554
6.300888 5.400101 5.368027
6.281143 5.429001 5.373062
6.278976 5.435928 5.372421
6.290970 5.412125 5.360428
6.288376 5.423538 5.348587
6.281540 5.428543 5.349075
6.282852 5.429733 5.355392
6.291733 5.412704 5.366440
6.290421 5.413406 5.374466
6.288895 5.418320 5.369797
6.317947 5.376022 5.366226
6.316452 5.375931 5.340622
6.316971 5.375473 5.316849
6.317001 5.375809 5.325241
6.319992 5.375534 5.324814
6.314133 5.383987 5.338242
6.313248 5.383194 5.366989
6.318100 5.376328 5.347397
6.318008 5.376724 5.371658
6.262955 5.494858 5.368454
6.268692 5.460129 5.331802
6.273361 5.445206 5.319962
6.275253 5.444046 5.316360
6.269455 5.456741 5.317520
6.275162 5.438675 5.336960
6.274643 5.444565 5.339981
6.266708 5.461136 5.335342
6.267319 5.465195 5.337051
6.264694 5.488052 5.328293
6.263290 5.478378 5.323654
6.265640 5.473495 5.326553
6.263626 5.487869 5.321976
6.264816 5.474411 5.331131
6.264114 5.492996 5.339462
6.265274 5.464249 5.369980
6.274704 5.442551 5.347916
6.273544 5.445572 5.344284
6.274338 5.448074 5.345535
6.269516 5.456772 5.347061
6.267410 5.460800 5.354904
6.266434 5.461563 5.359360
6.273331 5.445206 5.363083
6.275436 5.438370 5.371048
6.272720 5.446091 5.367874
6.262833 5.492233 5.372757
6.265427 5.474625 5.345139
6.264511 5.474106 5.349716
6.262863 5.475204 5.353592
6.263718 5.478745 5.353531
6.262222 5.488510 5.344925
6.264023 5.488571 5.351852
6.264938 5.474380 5.374405
6.323074 5.364029 5.485428
6.328445 5.360428 5.427597
6.349075 5.343307 5.391861
6.355789 5.338852 5.381271
6.355881 5.339035 5.386856
6.357101 5.339371 5.399979
6.329117 5.359879 5.403580
6.342972 5.350754 5.375961
6.322800 5.365067 5.382767
6.329453 5.359451 5.379379
6.330521 5.359543 5.385818
6.341965 5.350327 5.397232
6.339828 5.351761 5.396591
6.324875 5.366074 5.395187
6.320816 5.374161 5.390762
6.319077 5.369003 5.403397
6.348465 5.342789 5.425705
6.356430 5.339127 5.406357
6.355820 5.339432 5.411331
6.373184 5.331192 5.409012
6.354843 5.339828 5.429550
6.356491 5.338852 5.429184
6.353409 5.340378 5.433853
6.328964 5.360672 5.433548
6.343216 5.349472 5.417435
6.324631 5.365219 5.417740
6.330368 5.359970 5.410202
6.340408 5.352219 5.426773
6.338913 5.349167 5.429886
6.324875 5.366074 5.424850
6.322617 5.374252 5.425735
6.324814 5.366013 5.484512
6.349655 5.341568 5.455215
6.350449 5.341202 5.450333
6.370316 5.330093 5.441818
6.348221 5.342331 5.459824
6.355637 5.338120 5.458267
6.329391 5.360977 5.458633
6.321579 5.368484 5.444016
6.323380 5.364517 5.451309
6.329208 5.360641 5.452957
6.339737 5.351669 5.456009
6.340378 5.349167 5.464828
6.323441 5.364853 5.453445
6.320633 5.373398 5.458969
6.343826 5.346634 5.458298
6.356522 5.338882 5.488998
6.348831 5.341965 5.473740
6.349594 5.341995 5.479996
6.367752 5.329056 5.474838
6.373795 5.326462 5.492477
6.346603 5.341568 5.493332
6.346756 5.342819 5.496750
6.320511 5.372574 5.493118
6.324844 5.361984 5.473831
6.327621 5.361740 5.481857
6.323013 5.365799 5.483658
6.339432 5.351425 5.485672
6.339767 5.348648 5.498856
6.492294 5.314224 5.487289
6.436447 5.308670 5.427353
6.426987 5.308243 5.393173
6.420456 5.312241 5.390579
6.426926 5.308182 5.435043
6.419876 5.311752 5.419846
6.463425 5.305344 5.430557
6.442795 5.310654 5.396133
6.463181 5.306656 5.389236
6.450485 5.309494 5.404434
6.448074 5.307510 5.432205
6.415390 5.313309 5.426041
6.375992 5.328323 5.404770
6.397659 5.319168 5.382065
6.376419 5.328659 5.375473
6.376663 5.323196 5.401840
6.386063 5.322067 5.402451
6.415939 5.313828 5.392044
6.393997 5.316360 5.423508
6.397537 5.319077 5.411697
6.404800 5.313522 5.408401
6.375626 5.328018 5.434219
6.403702 5.313614 5.426590
6.495102 5.316513 5.429611
6.495499 5.316818 5.400070
6.499496 5.314346 5.389084
6.499283 5.314957 5.431229
6.412399 5.311813 5.493301
6.435715 5.308121 5.461349
6.419357 5.311325 5.449234
6.410995 5.311813 5.458206
6.427261 5.306625 5.476364
6.418381 5.310501 5.478348
6.447403 5.306961 5.491592
6.447525 5.307053 5.461655
6.440018 5.308853 5.497971
6.463699 5.303787 5.471848
6.391556 5.317551 5.490280
6.393692 5.316696 5.467270
6.386459 5.320145 5.443619
6.388351 5.318039 5.443253
6.381058 5.323959 5.438217
6.395187 5.317093 5.439468
6.396194 5.315720 5.444687
6.388596 5.318405 5.468246
6.375473 5.327866 5.463943
6.393082 5.315323 5.497543
6.381302 5.323654 5.472672
6.396652 5.318344 5.470627
6.386307 5.320541 5.485825
6.388138 5.318893 5.492752
6.499252 5.314804 5.473129
6.494125 5.315720 5.458755
6.261398 5.490952 5.491501
6.288010 5.417557 5.428421
6.298569 5.395859 5.394730
6.306320 5.390121 5.378586
6.301529 5.395737 5.378281
6.297195 5.405777 5.375687
6.302383 5.399002 5.385666
6.300125 5.399429 5.396988
6.300339 5.396408 5.401657
6.279007 5.429855 5.395554
6.280197 5.431046 5.401840
6.278763 5.435745 5.401871
6.292221 5.412979 5.391251
6.290848 5.412521 5.384720
6.282578 5.430161 5.379532
6.289047 5.423355 5.382889
6.289047 5.418442 5.399582
6.298874 5.398361 5.425644
6.303268 5.388901 5.411148
6.298355 5.396286 5.419083
6.301590 5.398422 5.419327
6.298477 5.402786 5.415054
6.312302 5.382401 5.425522
6.300430 5.396774 5.426285
6.279526 5.431381 5.425827
6.279221 5.430161 5.420242
6.277267 5.434464 5.430344
6.290268 5.413406 5.433212
6.291916 5.413437 5.409225
6.289505 5.413193 5.407974
6.290695 5.418808 5.407974
6.291550 5.413498 5.415207
6.290268 5.423325 5.417526
6.315292 5.377731 5.437424
6.317245 5.377274 5.395432
6.315903 5.376816 5.388870
6.314621 5.384384 5.397812
6.312515 5.377945 5.410355
6.313889 5.378372 5.416946
6.262589 5.490005 5.423874
6.268967 5.456284 5.405807
6.274246 5.447678 5.379440
6.275711 5.438980 5.386978
6.270828 5.446884 5.390549
6.273697 5.445480 5.387802
6.265488 5.462143 5.382889
6.269302 5.456589 5.376450
6.266281 5.461380 5.378220
6.274948 5.437881 5.404800
6.267746 5.461441 5.403976
6.265701 5.463974 5.404190
6.260757 5.489548 5.392288
6.261856 5.475784 5.377029
6.262650 5.477829 5.382248
6.267075 5.474716 5.379929
6.264175 5.488907 5.376328
6.264359 5.474899 5.398331
6.262344 5.476059 5.401840
6.263382 5.489487 5.400040
6.266159 5.462173 5.427078
6.272293 5.446182 5.410995
6.273483 5.447067 5.413101
6.271469 5.447128 5.415604
6.264847 5.462662 5.406754
6.277908 5.437881 5.427353
6.269058 5.447220 5.432663
6.264084 5.463211 5.430649
6.268295 5.455704 5.435013
6.261246 5.476669 5.425400
6.264145 5.473495 5.412491
6.264145 5.479111 5.413223
6.263107 5.475540 5.421738
6.263046 5.489456 5.406784
6.262497 5.491776 5.406601
6.262863 5.489517 5.418686
6.288467 5.422073 5.484970
6.298569 5.398422 5.453781
6.304825 5.388962 5.446060
6.299362 5.396439 5.444656
6.300064 5.397629 5.452713
6.300095 5.397232 5.450668
6.310745 5.381088 5.453995
6.299545 5.398941 5.456039
6.298264 5.397079 5.468399
6.277939 5.435043 5.460739
6.273636 5.437149 5.438248
6.278000 5.430801 5.443802
6.279312 5.431839 5.450302
6.276413 5.431534 5.467087
6.278061 5.432632 5.465775
6.289963 5.413834 5.457657
6.290573 5.412735 5.442703
6.290604 5.414108 5.438950
6.290451 5.419571 5.450516
6.288162 5.422348 5.450638
6.287491 5.417099 5.457779
6.290665 5.414474 5.463699
6.299850 5.397202 5.486832
6.304214 5.388412 5.479965
6.298599 5.397934 5.474075
6.311966 5.381760 5.484818
6.297928 5.397537 5.484512
6.300034 5.395798 5.493515
6.297287 5.397659 5.492325
6.298325 5.398392 5.498734
6.275497 5.432114 5.491074
6.278366 5.432419 5.474167
6.275284 5.437210 5.473221
6.277573 5.434708 5.490372
6.277359 5.433029 5.498123
6.287186 5.416824 5.487442
6.290909 5.412430 5.477066
6.287613 5.414749 5.480331
6.290329 5.414932 5.488235
6.291275 5.416000 5.491318
6.312607 5.379074 5.484573
6.313217 5.378555 5.460312
6.314621 5.378616 5.442276
6.312912 5.379379 5.465439
6.313766 5.379562 5.491104
6.264114 5.490860 5.499527
6.268112 5.455551 5.464706
6.269638 5.447891 5.438583
6.273544 5.446701 5.447220
6.264603 5.463333 5.437729
6.265915 5.462601 5.451553
6.270432 5.447311 5.458603
6.269852 5.448227 5.463455
6.264999 5.463394 5.456161
6.259872 5.490891 5.465286
6.262833 5.477982 5.441879
6.265244 5.473434 5.447128
6.263565 5.475784 5.446762
6.261887 5.476944 5.450638
6.263382 5.491653 5.441147
6.262070 5.490067 5.442581
6.264694 5.487228 5.446701
6.263077 5.490311 5.448959
6.267746 5.455215 5.494339
6.269516 5.447922 5.482559
6.273087 5.446213 5.481216
6.265060 5.463791 5.480972
6.265793 5.463638 5.472519
6.265823 5.462997 5.476181
6.269180 5.448776 5.487686
6.265030 5.482254 5.485397
6.261734 5.476547 5.469833
6.262955 5.478073 5.471909
6.261551 5.477402 5.475113
6.265823 5.473221 5.481613
6.261795 5.490860 5.474533
6.263809 5.490524 5.474350
6.260330 5.499680 5.482834
6.263382 5.476608 5.496201
6.604630 5.362869 5.365311
6.611404 5.372726 5.104935
6.601028 5.358780 5.107010
6.547165 5.333084 5.050308
6.505295 5.324905 5.027817
6.551102 5.336319 5.024582
6.535233 5.329056 5.018692
6.503799 5.323654 5.055374
6.535446 5.327805 5.059311
6.610458 5.373489 5.058304
6.570297 5.338394 5.019363
6.584213 5.352585 5.030197
6.583511 5.352829 5.007675
6.606552 5.372665 5.016617
6.600540 5.361496 5.025650
6.570114 5.338760 5.060654
6.585800 5.352798 5.051529
6.608963 5.373306 5.036758
6.544388 5.330826 5.105942
6.500687 5.321121 5.081741
6.546402 5.332474 5.078568
6.502426 5.322525 5.111984
6.536087 5.324692 5.099319
6.587173 5.351700 5.121384
6.586777 5.352707 5.073929
6.612259 5.373825 5.079605
6.600540 5.361252 5.066727
6.570633 5.336227 5.100845
6.587021 5.352249 5.097488
6.687698 5.493454 5.113876
6.667007 5.429306 5.054703
6.638626 5.397842 5.011948
6.654922 5.414902 5.006699
6.657364 5.415543 5.026749
6.660446 5.416306 5.000351
6.665970 5.430008 5.008682
6.638779 5.396713 5.059158
6.630081 5.388321 5.033401
6.638687 5.397263 5.035507
6.656570 5.414505 5.051712
6.660294 5.416763 5.041763
6.666458 5.429642 5.031631
6.684677 5.483261 5.051407
6.680710 5.464310 5.019241
6.677109 5.453842 5.005844
6.671768 5.441879 5.018661
6.678299 5.453842 5.027725
6.686630 5.495377 5.018997
6.683334 5.474838 5.010483
6.684738 5.484512 5.003647
6.687363 5.472122 5.019241
6.685104 5.484055 5.026871
6.677811 5.452988 5.052383
6.673019 5.441910 5.040573
6.681931 5.464310 5.041306
6.684738 5.474289 5.056137
6.683792 5.474472 5.033585
6.686783 5.494858 5.042648
6.687637 5.470413 5.059921
6.661179 5.412155 5.122635
6.640488 5.396988 5.080643
6.630264 5.387283 5.074265
6.661545 5.410599 5.080643
6.656937 5.414078 5.075150
6.669174 5.429794 5.075485
6.630295 5.386703 5.115341
6.639450 5.395828 5.106277
6.659683 5.414261 5.119461
6.658188 5.414139 5.097397
6.668655 5.428909 5.100449
6.687180 5.482651 5.120316
6.683151 5.463669 5.087601
6.672592 5.441086 5.065201
6.681625 5.463547 5.065720
6.679367 5.453171 5.074081
6.674454 5.441391 5.086502
6.685410 5.474014 5.079178
6.686508 5.483536 5.072678
6.687057 5.494370 5.066269
6.683731 5.463364 5.111038
6.679825 5.452774 5.097580
6.674271 5.440689 5.111069
6.680710 5.452591 5.120621
6.687088 5.483200 5.096085
6.684769 5.473068 5.104446
6.687881 5.469040 5.100815
6.687912 5.494156 5.089157
6.610550 5.369186 5.228958
6.536697 5.321457 5.180649
6.545334 5.331619 5.135696
6.535995 5.324783 5.140610
6.544968 5.331314 5.164536
6.611588 5.370956 5.177780
6.570328 5.337479 5.142654
6.587173 5.351059 5.145676
6.610336 5.370956 5.155075
6.610519 5.371689 5.130478
6.601151 5.357925 5.147995
6.571426 5.332260 5.181931
6.585526 5.349594 5.172562
6.541916 5.328812 5.249924
6.541885 5.328781 5.191269
6.541855 5.328751 5.220505
6.536209 5.323318 5.222855
6.600723 5.359299 5.231491
6.589981 5.350632 5.215286
6.590988 5.351761 5.189041
6.611069 5.370071 5.203293
6.601181 5.357498 5.189255
6.570419 5.336533 5.225113
6.587173 5.348557 5.244431
6.689621 5.491226 5.235214
6.669144 5.427292 5.173264
6.640701 5.395248 5.153152
6.641068 5.396042 5.128189
6.631180 5.382431 5.155014
6.668381 5.427536 5.149734
6.667526 5.427719 5.126480
6.658524 5.413071 5.145676
6.641678 5.395096 5.176315
6.661575 5.410019 5.163223
6.659286 5.412827 5.169144
6.685837 5.471756 5.176620
6.681290 5.452286 5.144272
6.674850 5.440353 5.134628
6.683823 5.462784 5.135330
6.686691 5.472794 5.150528
6.685593 5.472885 5.127640
6.684525 5.461868 5.183701
6.674973 5.439804 5.159012
6.680862 5.451431 5.169632
6.683426 5.461960 5.160599
6.676071 5.439713 5.182144
6.689957 5.492691 5.184494
6.689163 5.462662 5.139816
6.687912 5.482376 5.143784
6.687851 5.492874 5.138168
6.689072 5.462906 5.181503
6.688675 5.492691 5.161545
6.688736 5.482132 5.167252
6.669693 5.425644 5.247452
6.639450 5.393326 5.204514
6.631577 5.380295 5.195633
6.661118 5.411911 5.205521
6.659256 5.412155 5.193985
6.669876 5.427017 5.196976
6.630661 5.384262 5.238785
6.640244 5.393082 5.228287
6.660385 5.411453 5.242325
6.657578 5.410660 5.221512
6.669327 5.426102 5.222824
6.661301 5.410873 5.246750
6.687241 5.479507 5.244827
6.685013 5.461472 5.207962
6.680771 5.450760 5.194626
6.676712 5.439407 5.206100
6.681900 5.450668 5.217911
6.687302 5.471848 5.199326
6.681412 5.449783 5.243912
6.676590 5.438705 5.231339
6.684891 5.460770 5.233322
6.688766 5.499954 5.231522
6.689957 5.492050 5.209457
6.688644 5.481461 5.192307
6.687912 5.480484 5.218491
6.688736 5.464127 5.223648
6.687973 5.471542 5.223343
6.601242 5.356277 5.355270
6.573380 5.338760 5.367203
6.543411 5.329666 5.310013
6.539566 5.326889 5.277481
6.536179 5.323288 5.264359
6.537155 5.318649 5.304031
6.609207 5.366562 5.306778
6.570816 5.334427 5.265823
6.583542 5.346024 5.275040
6.612106 5.368698 5.276932
6.609329 5.367905 5.255936
6.601913 5.353683 5.270767
6.569962 5.338211 5.309006
6.586655 5.347000 5.295609
6.500137 5.311722 5.346207
6.538986 5.326065 5.365768
6.541428 5.328049 5.338028
6.536148 5.322861 5.347488
6.570602 5.334976 5.349380
6.577499 5.341599 5.335098
6.604904 5.363693 5.339066
6.600876 5.358322 5.314377
6.688095 5.487198 5.366501
6.674698 5.435806 5.310806
6.631973 5.378036 5.277878
6.639053 5.391861 5.255234
6.668991 5.424667 5.273941
6.658371 5.409805 5.270737
6.635361 5.389297 5.286301
6.654770 5.407272 5.301865
6.668076 5.423538 5.300919
6.661362 5.410263 5.288193
6.674088 5.436142 5.286057
6.685928 5.468552 5.303055
6.681839 5.449356 5.268661
6.677017 5.438278 5.255997
6.685013 5.460190 5.258438
6.686630 5.469589 5.276230
6.685654 5.469742 5.252304
6.683701 5.458878 5.286057
6.680466 5.448013 5.296371
6.688400 5.497818 5.308823
6.688736 5.463943 5.265335
6.689133 5.479782 5.267258
6.689926 5.490738 5.260178
6.688950 5.462540 5.306625
6.689072 5.489670 5.287094
6.688736 5.478897 5.293594
6.689255 5.498886 5.281693
6.672684 5.433487 5.365891
6.631577 5.386703 5.317703
6.631241 5.381149 5.320877
6.654251 5.406357 5.328445
6.673752 5.434677 5.338150
6.661453 5.409439 5.329636
6.666214 5.421921 5.329697
6.630569 5.384048 5.363907
6.630600 5.385574 5.344986
6.652573 5.404861 5.356979
6.628494 5.383804 5.374283
6.661209 5.410507 5.371964
6.666061 5.421188 5.355850
6.687271 5.476242 5.373825
6.684769 5.467331 5.330795
6.679794 5.447037 5.323227
6.682693 5.457718 5.313370
6.683365 5.457413 5.338181
6.682510 5.456314 5.365677
6.679123 5.446030 5.350266
6.685562 5.467056 5.355545
6.688431 5.496506 5.360794
6.688889 5.497391 5.333939
6.688126 5.477951 5.320328
6.688858 5.488907 5.313187
6.689285 5.488449 5.338486
6.688522 5.464493 5.349350
6.688156 5.477310 5.346298
6.601425 5.354599 5.480362
6.540115 5.326981 5.426437
6.540329 5.327164 5.396713
6.536423 5.321487 5.388718
6.536301 5.321671 5.430649
6.599380 5.358810 5.425797
6.570480 5.335342 5.391312
6.603378 5.361557 5.393265
6.602158 5.351822 5.395218
6.570206 5.336319 5.433609
6.538651 5.325790 5.485336
6.541306 5.327957 5.457443
6.536453 5.320786 5.472244
6.593155 5.354233 5.488724
6.597488 5.357162 5.455246
6.601425 5.354965 5.438492
6.569931 5.337234 5.475998
6.616867 5.375778 5.471909
6.621445 5.378830 5.437943
6.684006 5.499985 5.496475
6.669907 5.430710 5.423080
6.625778 5.381760 5.404678
6.651016 5.403366 5.385574
6.630508 5.384018 5.405777
6.671738 5.432327 5.393631
6.663651 5.419296 5.385818
6.647751 5.401047 5.417068
6.662918 5.418228 5.413376
6.660812 5.412186 5.414597
6.685715 5.474106 5.429367
6.681747 5.455246 5.393265
6.677658 5.444626 5.378769
6.684647 5.465927 5.383255
6.677719 5.443954 5.405045
6.687424 5.486160 5.394028
6.687027 5.495163 5.389389
6.687057 5.475449 5.400620
6.675491 5.442154 5.435226
6.684555 5.465195 5.409897
6.680527 5.453964 5.421707
6.686905 5.494400 5.416153
6.687698 5.485641 5.420029
6.688736 5.463181 5.390793
6.687851 5.467148 5.434555
6.660324 5.413986 5.499557
6.643875 5.398361 5.449814
6.630661 5.383163 5.447403
6.660416 5.413712 5.457321
6.661240 5.416702 5.442703
6.668411 5.429276 5.452164
6.638504 5.394943 5.485275
6.630051 5.385696 5.490555
6.668289 5.428513 5.479202
6.659256 5.415024 5.472610
6.683731 5.471725 5.486465
6.681992 5.462601 5.467514
6.679062 5.452560 5.450790
6.682236 5.463394 5.440231
6.673172 5.440292 5.465805
6.683640 5.472366 5.459610
6.686264 5.484268 5.449203
6.686569 5.493576 5.443375
6.680954 5.461472 5.496231
6.677933 5.451309 5.479538
6.672897 5.439468 5.493271
6.684860 5.492050 5.473099
6.686478 5.473618 5.479507
6.684769 5.482834 5.478622
6.285446 5.624496 5.363510
6.270737 5.609573 5.115372
6.274033 5.610123 5.123184
6.259995 5.556534 5.051651
6.256454 5.528549 5.021896
6.255447 5.512955 5.004745
6.257065 5.500778 5.011124
6.258835 5.504501 5.010635
6.256943 5.513016 5.011093
6.255234 5.526718 5.002090
6.257553 5.523544 5.005112
6.257339 5.527023 5.008804
6.255814 5.513046 5.027939
6.256760 5.526749 5.026230
6.257278 5.555801 5.021408
6.256851 5.541672 5.005844
6.256149 5.532486 5.013199
6.256393 5.556503 5.002853
6.258713 5.560013 5.006851
6.256821 5.551346 5.008469
6.259171 5.536972 5.023178
6.254562 5.541580 5.021805
6.257034 5.542007 5.028824
6.258102 5.556534 5.027084
6.257248 5.526993 5.049545
6.257889 5.513199 5.034714
6.256027 5.503342 5.042496
6.257919 5.523270 5.038467
6.258713 5.527115 5.032822
6.256424 5.513260 5.051407
6.257858 5.513565 5.057663
6.257248 5.529251 5.051132
6.259689 5.527267 5.056595
6.257797 5.532578 5.047134
6.255325 5.541763 5.045364
6.260300 5.561447 5.036758
6.258926 5.551590 5.042648
6.256638 5.556259 5.043777
6.257034 5.542374 5.051773
6.259628 5.532425 5.061386
6.271317 5.609543 5.051468
6.260696 5.583359 5.019333
6.258804 5.569565 5.002457
6.259537 5.583450 5.000656
6.263351 5.582016 5.015335
6.258682 5.569717 5.020126
6.259659 5.569778 5.026016
6.261765 5.583389 5.025345
6.273087 5.614029 5.023727
6.263107 5.596085 5.001328
6.269669 5.609116 5.004318
6.274124 5.622147 5.005722
6.263382 5.596329 5.019272
6.264816 5.596146 5.025558
6.265884 5.609024 5.019119
6.267166 5.595444 5.024734
6.270279 5.609360 5.027695
6.273239 5.622665 5.027786
6.275131 5.621201 5.024460
6.263626 5.581711 5.048691
6.259964 5.569839 5.044083
6.261856 5.583481 5.043198
6.259811 5.570084 5.049088
6.264542 5.583237 5.050552
6.275406 5.621506 5.047623
6.264389 5.596512 5.043015
6.265488 5.609451 5.041672
6.265152 5.596451 5.048752
6.266891 5.595169 5.053177
6.273849 5.613876 5.057388
6.280777 5.621689 5.057053
6.258530 5.556961 5.114670
6.261215 5.527359 5.080978
6.257706 5.501358 5.068832
6.260056 5.504105 5.077652
6.258194 5.513290 5.075912
6.258347 5.523026 5.071884
6.257950 5.527206 5.073166
6.259079 5.513687 5.081741
6.258652 5.530502 5.081009
6.258957 5.556534 5.091843
6.257095 5.541763 5.069870
6.259171 5.542313 5.076584
6.260422 5.561539 5.065536
6.258255 5.556320 5.068161
6.260666 5.551712 5.076736
6.260025 5.556900 5.074661
6.258377 5.532364 5.080673
6.257126 5.542130 5.092972
6.258591 5.530441 5.109756
6.259262 5.502731 5.098831
6.257736 5.513748 5.098679
6.258987 5.514053 5.104813
6.258133 5.527573 5.096451
6.259872 5.527359 5.099411
6.259079 5.522873 5.105545
6.259995 5.527939 5.103073
6.260910 5.503983 5.111343
6.258224 5.500473 5.124832
6.257004 5.514236 5.121292
6.260696 5.527420 5.121841
6.259903 5.557663 5.120895
6.259628 5.542587 5.100113
6.259964 5.557297 5.097733
6.258713 5.550797 5.109177
6.259415 5.532303 5.114517
6.257614 5.542435 5.116562
6.259781 5.542953 5.123489
6.278336 5.622086 5.119461
6.264572 5.581619 5.082413
6.259903 5.570175 5.067032
6.261429 5.570145 5.073441
6.262283 5.583786 5.066574
6.264542 5.583603 5.073593
6.259354 5.570663 5.089645
6.262070 5.584152 5.089493
6.268753 5.609573 5.090500
6.263901 5.596970 5.065598
6.266006 5.596634 5.072495
6.267563 5.609451 5.066422
6.271835 5.609787 5.074966
6.277695 5.621475 5.072556
6.276840 5.622757 5.076797
6.264908 5.597122 5.089554
6.267471 5.595688 5.082474
6.273544 5.613419 5.090622
6.265762 5.581589 5.116379
6.261673 5.562637 5.095352
6.263046 5.570206 5.097916
6.265091 5.583878 5.097183
6.261642 5.570602 5.114792
6.262375 5.570694 5.120590
6.263626 5.584244 5.113968
6.264084 5.584396 5.119583
6.269913 5.597855 5.113327
6.266525 5.596909 5.096085
6.274429 5.609695 5.100266
6.277786 5.621811 5.095779
6.275772 5.623276 5.099045
6.265091 5.597488 5.112900
6.266312 5.597336 5.119095
6.344131 5.696609 5.114059
6.311752 5.672043 5.050613
6.292068 5.647598 5.015823
6.281479 5.635361 5.004288
6.283707 5.635178 5.011154
6.291824 5.648758 5.003006
6.291000 5.647018 5.009933
6.285690 5.638290 5.021317
6.284012 5.635239 5.029251
6.308975 5.672134 5.025345
6.297256 5.659103 5.012955
6.307327 5.672043 5.001144
6.300827 5.659286 5.020859
6.307846 5.671555 5.019455
6.289658 5.641830 5.053238
6.285294 5.635269 5.035355
6.291672 5.647263 5.033371
6.293686 5.648911 5.037186
6.293961 5.647629 5.040298
6.284561 5.635483 5.052658
6.286972 5.635330 5.059738
6.293350 5.647293 5.057755
6.300949 5.659164 5.061966
6.298752 5.659195 5.037125
6.301376 5.659531 5.044296
6.308578 5.671768 5.042984
6.323074 5.684677 5.052567
6.327652 5.686813 5.023178
6.320389 5.684372 5.004471
6.321915 5.685287 5.010635
6.321762 5.684525 5.028458
6.326736 5.685196 5.060532
6.324356 5.685226 5.035568
6.353470 5.707809 5.050156
6.338516 5.696365 5.022110
6.336624 5.696365 5.015488
6.373367 5.718399 5.023392
6.350479 5.707565 5.001816
6.353531 5.707687 5.009293
6.369766 5.718155 5.015488
6.351242 5.707809 5.025345
6.331497 5.687546 5.058395
6.337875 5.696518 5.039444
6.340195 5.696426 5.046463
6.357285 5.707840 5.058334
6.355423 5.707748 5.033768
6.372849 5.718002 5.041000
6.303055 5.660355 5.115036
6.293503 5.647629 5.080948
6.286331 5.635544 5.077194
6.294174 5.647964 5.063431
6.295456 5.649063 5.071365
6.289383 5.635269 5.084824
6.292496 5.644363 5.084396
6.295151 5.648178 5.087387
6.311874 5.671921 5.091904
6.303421 5.659531 5.069046
6.309097 5.672012 5.066452
6.300583 5.659622 5.084732
6.302475 5.660080 5.091354
6.296677 5.648239 5.111893
6.287643 5.635696 5.101425
6.288132 5.635849 5.106979
6.294632 5.647812 5.105087
6.295578 5.648727 5.104874
6.296524 5.647995 5.116653
6.302017 5.659714 5.109116
6.330185 5.685379 5.109726
6.326920 5.684402 5.078812
6.312546 5.672256 5.074326
6.326767 5.685562 5.083664
6.312759 5.672134 5.115860
6.315720 5.672104 5.100113
6.327011 5.684738 5.102097
6.315872 5.672409 5.123520
6.344894 5.696762 5.119827
6.343552 5.696335 5.090347
6.340714 5.696457 5.064835
6.342178 5.696457 5.071152
6.361069 5.707596 5.084579
6.355270 5.707870 5.074753
6.335495 5.688370 5.093765
6.362778 5.707657 5.109268
6.345749 5.696243 5.097275
6.358627 5.707718 5.100693
6.488998 5.732224 5.106400
6.407028 5.727951 5.048599
6.404282 5.727982 5.023331
6.399826 5.727676 5.014755
6.425705 5.730850 5.020584
6.375809 5.718369 5.048386
6.401291 5.727829 5.038925
6.424179 5.729691 5.046158
6.490860 5.734146 5.055893
6.448929 5.734695 5.029160
6.454147 5.734024 5.015396
6.441422 5.735489 5.000168
6.460617 5.733719 5.023209
6.491501 5.735580 5.007736
6.453964 5.734299 5.056320
6.460892 5.733353 5.043869
6.461197 5.733353 5.046005
6.490341 5.734543 5.032852
6.419083 5.725967 5.124863
6.378433 5.717850 5.091812
6.375809 5.717911 5.066483
6.380203 5.718033 5.075089
6.409988 5.727219 5.092331
6.406631 5.727371 5.066391
6.411362 5.727646 5.075241
6.420914 5.727859 5.074417
6.381210 5.717789 5.117386
6.381790 5.718155 5.099625
6.383835 5.718216 5.124619
6.414993 5.726791 5.119766
6.419571 5.726761 5.100113
6.416000 5.727310 5.102280
6.473251 5.732224 5.100296
6.460434 5.733658 5.084763
6.464066 5.733231 5.069565
6.457901 5.731461 5.074387
6.489883 5.733170 5.081100
6.466354 5.733170 5.112961
6.457138 5.730576 5.099411
6.457748 5.730209 5.122635
6.284042 5.622879 5.242020
6.261398 5.550797 5.177383
6.259720 5.527969 5.144333
6.259720 5.503128 5.128036
6.260330 5.514175 5.129227
6.259140 5.528458 5.125595
6.260513 5.522903 5.139664
6.261887 5.525955 5.139145
6.258408 5.530258 5.138474
6.261398 5.503769 5.145004
6.259048 5.514206 5.146347
6.259567 5.500565 5.149338
6.261307 5.500412 5.156052
6.259781 5.514633 5.152115
6.261948 5.528305 5.151321
6.260483 5.550919 5.143417
6.257767 5.542740 5.139999
6.257767 5.557480 5.137344
6.258591 5.531693 5.147568
6.259689 5.543289 5.146744
6.260025 5.557999 5.144333
6.261917 5.522934 5.173813
6.259933 5.503311 5.157120
6.259262 5.514511 5.169968
6.259567 5.528366 5.167648
6.259354 5.531082 5.168228
6.258865 5.501053 5.172165
6.260483 5.503128 5.178055
6.260818 5.514786 5.176437
6.262161 5.500595 5.180283
6.259811 5.503189 5.186020
6.261734 5.520157 5.176895
6.262039 5.528610 5.174881
6.258560 5.558060 5.184891
6.258957 5.542862 5.164444
6.260574 5.543503 5.170944
6.258530 5.557693 5.161392
6.261612 5.558060 5.169083
6.259872 5.531662 5.181656
6.258316 5.543350 5.187363
6.283493 5.623032 5.175674
6.265732 5.584457 5.144302
6.263382 5.564163 5.125626
6.262100 5.570847 5.138474
6.263565 5.584610 5.137222
6.262558 5.571030 5.144058
6.262375 5.563278 5.153763
6.266953 5.581558 5.150436
6.276077 5.610123 5.148239
6.265274 5.597794 5.136307
6.275772 5.613663 5.125137
6.271561 5.609787 5.139389
6.267136 5.597549 5.143143
6.270981 5.598831 5.143204
6.280014 5.622147 5.144180
6.279709 5.623337 5.148941
6.281448 5.622665 5.127090
6.267624 5.581375 5.184311
6.262589 5.571121 5.162277
6.264359 5.571060 5.169052
