6.476700 -6.107285 17.061569
6.445206 -6.075974 17.037216
6.438614 -6.065384 17.052048
6.416397 -6.012527 17.035965
6.414474 -6.038193 17.042618
6.430466 -6.059097 17.041458
6.419937 -6.028885 17.049667
6.622269 -6.219345 17.106644
6.666977 -6.278427 17.147781
6.672775 -6.271561 17.146591
6.739365 -6.321457 17.174881
6.711655 -6.319229 17.151901
6.725815 -6.334763 17.153275
6.729416 -6.340134 17.172867
6.734848 -6.332535 17.175217
6.677780 -6.289536 17.133743
6.708328 -6.291550 17.158432
6.713364 -6.292099 17.154892
6.710190 -6.305374 17.155563
6.701309 -6.305771 17.159164
6.706894 -6.298874 17.158859
6.837082 -6.414108 17.213974
6.871231 -6.441330 17.226883
6.779922 -6.379410 17.176712
6.774948 -6.381058 17.175095
6.875198 -6.433853 17.234634
6.894119 -6.460312 17.228256
6.903976 -6.467484 17.248917
6.766678 -6.281540 17.182938
6.851028 -6.262009 17.182632
6.890121 -6.296188 17.224380
6.924973 -6.254837 17.158157
6.963760 -6.258072 17.170395
6.956772 -6.292435 17.207352
6.620377 -6.235458 17.089493
6.541519 -6.178116 17.036057
6.532669 -6.177963 17.027237
6.711746 -6.028183 17.094681
6.908218 -6.460342 17.254807
6.941788 -6.487289 17.271225
7.397598 -6.164566 17.174026
7.300583 -6.504501 17.310410
7.236740 -6.956375 17.483322
7.244583 -6.944351 17.486679
7.242844 -6.952042 17.467758
7.187241 -6.800980 17.438065
7.212479 -6.861099 17.418289
7.171646 -6.750931 17.416946
7.168442 -6.758133 17.406082
7.193741 -6.795975 17.425186
7.190659 -6.807266 17.427261
7.211411 -6.814621 17.451462
7.302292 -6.941818 17.492203
7.260178 -6.999283 17.499344
7.344009 -6.962936 17.493057
7.373642 -6.851517 17.478439
7.331284 -6.836441 17.455643
7.121658 -6.652328 17.344345
7.134476 -6.661636 17.369156
7.194901 -6.659927 17.369919
7.037857 -6.574387 17.320633
7.029495 -6.563797 17.299515
7.043442 -6.505295 17.282486
7.017868 -6.542007 17.288193
7.016251 -6.553513 17.287216
7.004044 -6.547379 17.304520
7.008316 -6.540665 17.309158
7.057358 -6.505630 17.294968
7.035019 -6.508743 17.305649
7.211258 -6.511765 17.278702
7.166245 -6.663681 17.381973
7.148178 -6.712479 17.392624
7.152786 -6.706039 17.394424
7.222916 -6.657669 17.395798
7.188858 -6.665482 17.376907
7.279037 -6.502457 17.293625
7.279373 -6.518509 17.298904
7.305618 -6.662369 17.403244
7.301498 -6.668930 17.396713
7.251480 -6.656845 17.395981
7.368454 -6.657150 17.415604
7.327927 -6.660324 17.396103
7.416641 -6.669937 17.425308
7.378891 -6.654373 17.394363
7.894577 -6.545273 17.343674
7.555283 -6.653549 17.440384
7.550186 -6.654404 17.454636
7.599777 -6.731369 17.476425
7.562607 -6.636917 17.475082
7.609421 -6.647690 17.445145
7.621658 -6.645370 17.462936
7.581619 -6.684494 17.471756
7.633591 -6.637436 17.444656
7.626175 -6.639816 17.467606
7.723282 -6.652176 17.462021
7.796829 -6.669113 17.459244
7.767838 -6.661942 17.437943
7.462479 -6.163040 17.158493
7.115646 -6.275436 17.197739
7.220383 -6.209274 17.160263
7.168167 -6.491684 17.315231
7.165237 -6.499832 17.297867
7.242813 -6.482773 17.294266
7.232071 -6.494644 17.294418
7.237961 -6.488846 17.291672
7.208481 -6.326950 17.256058
7.233810 -6.362900 17.271988
7.349411 -6.440323 17.277725
7.332901 -6.457169 17.279190
7.323624 -6.470596 17.265091
7.395523 -6.452682 17.302689
7.390732 -6.458725 17.298050
7.404282 -6.469101 17.263565
7.450363 -6.463364 17.299698
7.473251 -6.477615 17.300827
7.444595 -6.468582 17.301926
7.566910 -6.134903 17.194931
7.564987 -6.143723 17.160080
7.631699 -6.189377 17.243057
7.525375 -6.110428 17.191818
7.679611 -6.489426 17.340652
7.464767 -6.879776 17.502060
7.248337 -6.997940 17.502762
7.391190 -6.964005 17.543289
7.395340 -6.957870 17.545578
7.387375 -6.969711 17.540909
7.573380 -6.686752 17.500107
5.783676 -5.258194 16.990982
5.997574 -4.294388 16.808517
5.522476 -4.605728 16.971390
5.692581 -4.595627 16.980606
5.287552 -5.183334 17.099228
5.283066 -5.586136 17.046280
5.438370 -5.606827 17.087936
5.916641 -5.666306 17.090805
5.813248 -5.843521 17.113724
5.617264 -5.513168 17.100876
5.617172 -5.507278 17.093704
5.661453 -5.550003 17.115982
5.686264 -5.645676 17.143600
5.733353 -5.616318 17.163010
5.977005 -5.669022 17.085495
5.997604 -5.507156 17.015030
5.486893 -5.117203 17.123489
5.404190 -5.476364 17.081314
5.318283 -5.256851 17.110794
5.473160 -5.276230 17.161118
5.239944 -5.241989 17.116440
5.237961 -5.211502 17.092545
5.221146 -5.238510 17.080917
5.212051 -5.236618 17.089645
5.216110 -5.243118 17.079422
5.766342 -5.198868 17.050705
5.729599 -5.452499 17.072952
5.693436 -5.467026 17.072586
5.749832 -5.254288 17.039658
5.556564 -5.475327 17.127731
5.513474 -5.256088 17.149734
5.840378 -5.472641 17.054092
5.915146 -5.397049 17.034164
5.893784 -5.452927 17.056992
5.941788 -5.460342 17.034103
5.962540 -5.469376 17.010056
5.975998 -5.481857 17.008957
5.994003 -5.480667 17.008743
5.990189 -5.487473 17.021194
5.979630 -5.469345 17.028946
5.939407 -5.450272 17.013016
5.947128 -5.441055 17.013718
5.883408 -5.402237 17.019272
5.913742 -5.412003 17.002701
5.918167 -5.434189 17.008621
5.780289 -5.262985 17.032944
5.803909 -5.329208 17.011002
5.865433 -5.365677 17.008286
5.835739 -5.351028 17.002548
5.844223 -5.366257 17.016983
5.767258 -5.297592 17.044479
5.760025 -5.275467 17.027542
5.774948 -5.274673 17.020126
5.886124 -5.371628 17.002701
5.893600 -5.352859 17.028244
5.578659 -5.207596 17.093918
5.585709 -5.233932 17.085342
5.613358 -5.201462 17.046005
5.644516 -5.235672 17.068893
5.676346 -5.214035 17.053329
5.710129 -5.201462 17.025497
5.688980 -5.223679 17.009171
5.747482 -5.234177 17.018997
5.703079 -5.211929 17.020096
5.649429 -5.135880 17.041428
5.672684 -5.168625 17.032211
5.672653 -5.183762 17.036850
5.681168 -5.157730 17.034958
5.694321 -5.181931 17.027298
5.616135 -5.088852 17.064438
5.597244 -5.069443 17.040085
5.614822 -5.104416 17.051682
5.608841 -5.078568 17.059097
5.558395 -5.003799 17.031296
5.572128 -5.025894 17.035660
5.579575 -5.036209 17.040878
5.586288 -5.052536 17.041031
5.591660 -5.043198 17.031631
5.587814 -5.046310 17.048660
5.592758 -5.035782 17.049850
5.593857 -5.057236 17.049026
5.566910 -5.087723 17.082504
5.632828 -5.108200 17.062912
5.774582 -5.222916 17.033554
5.836685 -5.018448 17.016281
5.802231 -5.108261 17.004929
5.821274 -5.072311 17.048508
5.393997 -4.903580 17.069138
5.460617 -4.989944 17.082474
5.464706 -4.893143 17.056900
5.468063 -4.926285 17.058426
5.473984 -4.950943 17.044754
5.356247 -4.852371 17.071335
5.379715 -4.862869 17.075272
7.870102 -5.410934 16.234726
6.256424 -5.135422 16.964828
6.463211 -5.629501 16.989944
6.434952 -5.751175 16.981339
6.422104 -5.768509 16.972916
6.382950 -5.861069 16.997879
6.426376 -5.757767 16.989243
6.000290 -5.505356 16.998306
6.457047 -5.653824 16.994705
6.467789 -5.642471 16.990280
6.446457 -5.732285 16.998489
6.439835 -5.741013 16.994492
6.465378 -5.646347 16.990952
6.471817 -5.656601 16.988174
6.485764 -5.559769 16.986191
6.478928 -5.568222 16.982071
6.485428 -5.576584 16.958511
6.492203 -5.590164 16.963821
6.485916 -5.598892 16.978012
6.493484 -5.551773 16.986679
6.998428 -5.777176 16.746994
6.982925 -5.794327 16.745132
6.993790 -5.785812 16.747391
6.921463 -5.842361 16.740494
6.992874 -5.814774 16.731125
6.953873 -5.830215 16.746353
6.956345 -5.832382 16.747299
6.991531 -5.781723 16.748886
6.968338 -5.812241 16.745590
6.979599 -5.798813 16.747849
6.983719 -5.810074 16.737411
6.987595 -5.810257 16.745438
6.997452 -5.811996 16.742172
6.994461 -5.796951 16.745316
6.619522 -5.998215 16.874039
6.731796 -5.936874 16.866257
6.674393 -5.962509 16.866348
6.633072 -5.983047 16.873611
6.627579 -5.991501 16.866959
6.652145 -5.974106 16.871719
6.681442 -5.982986 16.853104
6.671768 -5.987442 16.871994
6.680740 -5.999588 16.870163
6.680099 -5.989029 16.862625
6.685867 -5.974228 16.861740
6.677231 -5.975937 16.864273
6.718948 -5.964706 16.846786
6.737869 -5.972031 16.816513
6.707993 -5.945541 16.843491
6.741257 -5.947556 16.827469
6.748550 -5.941422 16.822403
6.740646 -5.943954 16.826981
6.725723 -5.959702 16.841385
6.723495 -5.958969 16.832413
6.733810 -5.953934 16.832413
6.744034 -5.953842 16.830887
6.732346 -5.941177 16.835678
6.689346 -5.993820 16.858871
6.695694 -5.986435 16.859787
6.723618 -5.977707 16.850052
6.714706 -5.951309 16.845169
6.693314 -5.963394 16.845169
6.718246 -5.965897 16.847305
6.692917 -5.956833 16.869827
6.715073 -5.936691 16.856461
6.626816 -5.993973 16.892838
6.641769 -5.986496 16.898880
6.791245 -5.885208 16.823471
6.811691 -5.887436 16.816238
6.760757 -5.946518 16.806656
6.805710 -5.887924 16.807022
6.778641 -5.919388 16.808731
6.764572 -5.936386 16.809891
6.794815 -5.914261 16.811966
6.784500 -5.907150 16.811356
6.807327 -5.887802 16.798355
6.792221 -5.900558 16.807083
6.799179 -5.898605 16.806900
6.799179 -5.893417 16.806808
6.838516 -5.882889 16.791519
6.836868 -5.902786 16.795609
6.841904 -5.895493 16.797012
6.813889 -5.880630 16.799667
6.834183 -5.887955 16.799179
6.828690 -5.876602 16.797806
6.755356 -5.940109 16.824875
6.759842 -5.953598 16.827164
6.752640 -5.955246 16.816422
6.792557 -5.899521 16.816574
6.760941 -5.920151 16.826981
6.755630 -5.934189 16.821548
6.763474 -5.927689 16.815933
6.751083 -5.925888 16.823898
6.758957 -5.917801 16.819138
6.770309 -5.920273 16.816635
6.768570 -5.919418 16.814224
6.777756 -5.913589 16.813248
6.800980 -5.928329 16.817978
6.777878 -5.891953 16.818649
6.795670 -5.903488 16.813248
6.789902 -5.895828 16.815079
6.879654 -5.875961 16.791763
6.844681 -5.857346 16.847855
6.856216 -5.840073 16.793472
6.862961 -5.871719 16.768295
6.840408 -5.840225 16.780441
6.843491 -5.854416 16.788254
6.828781 -5.867172 16.794540
6.820389 -5.874832 16.807602
6.820633 -5.873306 16.801346
6.831558 -5.873703 16.802505
6.834885 -5.859909 16.797958
6.855301 -5.855698 16.788559
6.859909 -5.865036 16.792587
6.874252 -5.861954 16.787918
6.870651 -5.847519 16.789169
6.848709 -5.846268 16.797531
6.825912 -5.869431 16.814407
6.976486 -5.779984 16.759262
6.912735 -5.825363 16.783035
6.879990 -5.856796 16.774368
6.917526 -5.850082 16.774887
6.894943 -5.840439 16.775894
6.917862 -5.821457 16.778427
6.912491 -5.835739 16.772385
6.925186 -5.840561 16.780045
6.933334 -5.835159 16.772171
6.911575 -5.820663 16.780746
6.917465 -5.818588 16.779922
6.917404 -5.846970 16.783646
6.926651 -5.863785 16.788345
6.880478 -5.838058 16.793106
6.886307 -5.837936 16.784958
6.948715 -5.823105 16.763504
6.956711 -5.823624 16.761765
6.953476 -5.813553 16.758865
6.956070 -5.816818 16.761307
6.940384 -5.839005 16.766037
6.940567 -5.829025 16.769455
6.964554 -5.837784 16.771530
6.971878 -5.770859 16.756424
6.952591 -5.808853 16.761917
6.959030 -5.809921 16.763443
6.963852 -5.810928 16.756546
6.947769 -5.799484 16.774734
6.952194 -5.793411 16.772049
6.985947 -5.791946 16.751053
6.971481 -5.804367 16.754440
6.990128 -5.767624 16.755478
6.501480 -5.543839 16.986252
6.536942 -5.518265 16.958176
6.530350 -5.503067 16.961227
6.521713 -5.534256 16.955215
6.519058 -5.520401 16.961349
6.445511 -5.015457 16.992691
6.217300 -5.296677 16.990952
6.209488 -5.305466 16.988907
6.228531 -5.223831 16.977158
6.204605 -5.249832 16.971878
6.225876 -5.099594 16.964157
6.547073 -5.130997 16.944748
6.551010 -5.378891 16.962479
6.562302 -5.434097 16.942703
6.531296 -5.484573 16.971054
6.544113 -5.486588 16.961044
6.528244 -5.462631 16.955154
6.556564 -5.456039 16.948746
6.548996 -5.458298 16.966476
6.546097 -5.450180 16.961166
6.617813 -5.438705 16.979813
6.599594 -5.447861 16.996597
6.550461 -5.437454 16.965683
6.601822 -5.421860 16.967209
6.566666 -5.422287 16.964706
6.659348 -5.391495 16.988541
6.643082 -5.401810 16.983658
6.653549 -5.401596 16.974350
6.689835 -5.385208 16.982681
6.548141 -5.253128 16.951309
6.531601 -5.310104 16.929977
6.541794 -5.314011 16.975204
6.555008 -5.370621 16.939224
6.560654 -5.366592 16.956985
6.551682 -5.324753 16.962814
6.538895 -5.338211 16.956680
6.566147 -5.356094 16.972519
6.571213 -5.349625 16.987839
6.539261 -5.298233 16.958084
6.530777 -5.308853 16.944992
6.554184 -5.310196 16.953354
6.832870 -5.303665 16.966537
6.805252 -5.326584 16.983627
6.778244 -5.337387 16.981003
6.754196 -5.367264 16.994247
6.831863 -5.341904 16.984329
6.818771 -5.320572 16.965103
6.819321 -5.348282 16.999405
6.535324 -5.205490 16.940567
6.541061 -5.194901 16.956070
6.539444 -5.198074 16.920456
6.541702 -5.153336 16.916794
6.543350 -5.125290 16.923996
6.560074 -5.056320 16.948929
6.532272 -5.123093 16.909012
6.559433 -5.114853 16.930710
6.552750 -5.010605 16.921585
6.521744 -5.035873 16.890091
6.554398 -5.025040 16.920151
6.540695 -5.015549 16.936508
6.552567 -5.066299 16.938736
6.551193 -5.062424 16.943588
7.860336 -5.433334 16.242661
7.601425 -5.500931 16.487167
7.584305 -5.509415 16.497299
7.590714 -5.504837 16.499039
7.592331 -5.504471 16.496201
7.573807 -5.520096 16.494827
7.845169 -5.450943 16.238510
7.916824 -5.381332 16.231827
7.909073 -5.382523 16.234146
7.925522 -5.378159 16.226181
7.906082 -5.380692 16.217361
7.884354 -5.390518 16.235062
7.891281 -5.391525 16.245224
7.899551 -5.387222 16.244919
7.908279 -5.384811 16.235886
7.973801 -5.305618 16.196671
7.986008 -5.314621 16.159927
7.988571 -5.317856 16.153458
7.946274 -5.346817 16.187241
7.994583 -5.353653 16.182877
7.960403 -5.325394 16.167770
7.952408 -5.330093 16.164841
7.944534 -5.333694 16.166489
7.956711 -5.332504 16.177719
7.957474 -5.324631 16.182083
7.967056 -5.318100 16.183914
7.974136 -5.323471 16.185684
7.978073 -5.341812 16.181961
7.974228 -5.337387 16.173904
7.975967 -5.315994 16.174454
7.995682 -5.270004 16.173019
7.989273 -5.305496 16.169235
7.994461 -5.310562 16.159500
7.970566 -5.302628 16.179855
7.987350 -5.285263 16.187241
7.930771 -5.327560 16.219925
7.890060 -5.350082 16.214157
7.934189 -5.368088 16.190445
7.925888 -5.350845 16.218124
7.922226 -5.351547 16.208023
7.914993 -5.338211 16.209579
7.922806 -5.333145 16.213882
7.894730 -5.369614 16.229630
7.903946 -5.365952 16.234207
7.889908 -5.367874 16.234695
7.903610 -5.347214 16.245834
7.907578 -5.350082 16.229050
7.933853 -5.374802 16.222275
7.896866 -5.343369 16.226852
7.905289 -5.339218 16.225845
7.920700 -5.329605 16.228073
7.938644 -5.314926 16.208847
7.960770 -5.365952 16.202072
7.949875 -5.369949 16.215988
7.951675 -5.368546 16.210373
7.942764 -5.371994 16.214920
7.941147 -5.353867 16.208359
7.985794 -5.355820 16.191940
7.969009 -5.363205 16.196213
7.977432 -5.359573 16.193680
7.938461 -5.335403 16.214828
7.744888 -5.439529 16.368759
7.749435 -5.439713 16.370438
7.733566 -5.461380 16.374496
7.552811 -5.478928 16.488358
7.616165 -5.452957 16.481857
7.623947 -5.498184 16.447342
7.595078 -5.457047 16.467789
7.585068 -5.488968 16.497330
7.584457 -5.499466 16.488663
7.596176 -5.478165 16.483444
7.610397 -5.497787 16.477005
7.618027 -5.493149 16.476059
7.597733 -5.482010 16.482681
7.622482 -5.476883 16.470779
7.577713 -5.464035 16.483566
7.586533 -5.460526 16.475388
7.568558 -5.467697 16.492111
7.620560 -5.460556 16.477798
7.609482 -5.459091 16.482803
7.664139 -5.435532 16.447708
7.658279 -5.437820 16.434708
7.661697 -5.475967 16.435898
7.670670 -5.472153 16.429245
7.655899 -5.465469 16.435165
7.646255 -5.456436 16.436447
7.661301 -5.438156 16.432632
7.679245 -5.467667 16.426163
7.696671 -5.452835 16.416580
7.702286 -5.439285 16.403244
7.705276 -5.457047 16.405594
7.713852 -5.453110 16.400925
7.731155 -5.446335 16.386887
7.721420 -5.462204 16.386490
7.733444 -5.440872 16.388870
7.740768 -5.443222 16.376663
7.740799 -5.456894 16.394089
7.722549 -5.450455 16.390701
7.715988 -5.474197 16.423874
7.687546 -5.463882 16.420944
7.696457 -5.460678 16.412430
7.690475 -5.460709 16.408005
7.705002 -5.468582 16.424118
7.698959 -5.419510 16.420120
7.716995 -5.419937 16.404800
7.714554 -5.430679 16.395737
7.730484 -5.408585 16.399704
7.729752 -5.424515 16.391953
7.692703 -5.436630 16.418930
7.631393 -5.492355 16.479904
7.637161 -5.478958 16.446457
7.652878 -5.478745 16.446487
7.647232 -5.473465 16.441269
7.635269 -5.485947 16.461624
7.626846 -5.490067 16.466324
7.643875 -5.482376 16.454422
7.667740 -5.480515 16.450974
7.655228 -5.448807 16.445023
7.631271 -5.444168 16.465836
7.766739 -5.419571 16.355728
7.757492 -5.435226 16.345383
7.811661 -5.457199 16.291397
7.850845 -5.452408 16.290970
7.820663 -5.454422 16.263504
7.815720 -5.451187 16.271805
7.847031 -5.451370 16.265732
7.843735 -5.440201 16.283554
7.825302 -5.462296 16.308884
7.841751 -5.454361 16.303635
7.834091 -5.458878 16.302750
7.859085 -5.448288 16.289017
7.867752 -5.445084 16.282700
7.856827 -5.456253 16.301010
7.803879 -5.424393 16.306290
7.836685 -5.388962 16.302231
7.833176 -5.414566 16.279984
7.831314 -5.417191 16.273300
7.839798 -5.413284 16.270187
7.848251 -5.409561 16.266434
7.843765 -5.430649 16.270676
7.843369 -5.392532 16.272995
7.857498 -5.384537 16.261856
7.856888 -5.405685 16.262985
7.858658 -5.395004 16.263229
7.871902 -5.394547 16.260269
7.865799 -5.402328 16.256912
7.874100 -5.398361 16.254868
7.868790 -5.377701 16.264725
7.813278 -5.421768 16.295547
7.822372 -5.435104 16.284836
7.839401 -5.423233 16.285416
7.822922 -5.406784 16.296494
7.822525 -5.419907 16.282089
7.835953 -5.406326 16.289139
7.812698 -5.410629 16.311356
7.774612 -5.445480 16.359818
7.776749 -5.461929 16.341202
7.808517 -5.451706 16.314438
7.799240 -5.440659 16.316971
7.784225 -5.438034 16.328171
7.816422 -5.465164 16.317703
7.766769 -5.434250 16.351883
7.775772 -5.431320 16.342819
7.796524 -5.417130 16.324966
7.794113 -5.425919 16.322403
7.807266 -5.434311 16.323074
7.789291 -5.419815 16.319595
7.801926 -5.417801 16.322495
7.784927 -5.428299 16.333939
7.804825 -5.400162 16.340500
7.812363 -5.400192 16.330765
7.767502 -5.429398 16.355240
7.757980 -5.436905 16.361526
7.758011 -5.419693 16.367630
7.766495 -5.412491 16.364395
7.882614 -5.394577 16.251541
7.878189 -5.411057 16.262741
7.853287 -5.369614 16.264786
7.875320 -5.361099 16.258469
7.294632 -5.632889 16.607346
7.031876 -5.756424 16.729599
7.039902 -5.751022 16.723587
7.035172 -5.779984 16.730606
7.035110 -5.777817 16.699722
7.046097 -5.767471 16.708054
7.036880 -5.765610 16.717300
7.054947 -5.765213 16.713150
7.008408 -5.785538 16.723923
7.024094 -5.762222 16.733719
7.030197 -5.755753 16.734329
7.001541 -5.779739 16.743790
7.009720 -5.774124 16.737564
7.016830 -5.767929 16.736618
7.009537 -5.756790 16.738907
7.034561 -5.769577 16.735275
7.080429 -5.757004 16.728836
7.047440 -5.744553 16.722733
7.048538 -5.747543 16.721024
7.111771 -5.700241 16.682602
7.101883 -5.743546 16.655228
7.117020 -5.726639 16.657303
7.097153 -5.738724 16.676895
7.102737 -5.719589 16.686508
7.081100 -5.697739 16.672470
7.118790 -5.693771 16.684372
7.103775 -5.716507 16.683212
7.096603 -5.712540 16.685104
7.104050 -5.706619 16.683456
7.117966 -5.710526 16.677567
7.035080 -5.744034 16.735367
7.055435 -5.738663 16.718674
7.027451 -5.740402 16.738571
7.066086 -5.713516 16.724838
7.077530 -5.723831 16.697433
7.076401 -5.747391 16.702286
7.079758 -5.722305 16.701706
7.069687 -5.743942 16.711838
7.065659 -5.744034 16.703873
7.065292 -5.739822 16.704575
7.067947 -5.728348 16.718704
7.067307 -5.729019 16.708359
7.064224 -5.734116 16.707809
7.072128 -5.728439 16.703568
7.112595 -5.731705 16.697983
7.087265 -5.716812 16.698166
7.091782 -5.713303 16.690170
7.104202 -5.701706 16.698929
7.105911 -5.716660 16.692429
7.123093 -5.697311 16.689438
7.072800 -5.721390 16.726242
7.125931 -5.686752 16.687637
7.165695 -5.718491 16.666122
7.145340 -5.739365 16.653641
7.185043 -5.720657 16.648026
7.170151 -5.705063 16.639389
7.167221 -5.711563 16.645218
7.169388 -5.702469 16.648758
7.154190 -5.719589 16.680771
7.149521 -5.729874 16.674240
7.157608 -5.724075 16.670486
7.148544 -5.691605 16.662277
7.135727 -5.712204 16.667465
7.137558 -5.704788 16.659988
7.146744 -5.704544 16.673447
7.130234 -5.696060 16.675919
7.144699 -5.689529 16.679123
7.172684 -5.712387 16.667099
7.181046 -5.707901 16.658340
7.188370 -5.701981 16.657700
7.195511 -5.691422 16.638809
7.203537 -5.698135 16.634567
7.204239 -5.692398 16.628464
7.196640 -5.696823 16.651749
7.197586 -5.701859 16.644608
7.204361 -5.691055 16.649734
7.189377 -5.692215 16.658920
7.198624 -5.707138 16.670578
7.162521 -5.674088 16.662369
7.150864 -5.671738 16.667130
7.139542 -5.683365 16.679703
7.142410 -5.676498 16.675186
7.184006 -5.677567 16.656448
7.160080 -5.681137 16.675644
7.186539 -5.661575 16.673813
7.228073 -5.649155 16.656693
7.213150 -5.686722 16.639633
7.207626 -5.681534 16.636063
7.199051 -5.682999 16.652054
7.222763 -5.664444 16.638474
7.220383 -5.680740 16.639938
7.225632 -5.672104 16.634293
7.227890 -5.675247 16.637802
7.234787 -5.676773 16.627945
7.243332 -5.664291 16.632675
7.236282 -5.670486 16.630692
7.230850 -5.680038 16.641586
7.228409 -5.664871 16.646347
7.247299 -5.641190 16.636581
7.238388 -5.648087 16.642502
7.187851 -5.659256 16.667099
7.144913 -5.673996 16.690781
7.130417 -5.676804 16.708786
7.281693 -5.631119 16.621017
7.290268 -5.632828 16.611252
7.259720 -5.693436 16.624710
7.282913 -5.637833 16.615372
7.263474 -5.656601 16.621933
7.256851 -5.679459 16.620651
7.271500 -5.673965 16.619827
7.280930 -5.634262 16.619492
7.259720 -5.655258 16.618240
7.276779 -5.649796 16.619919
7.275497 -5.643784 16.614883
7.266678 -5.648788 16.621689
7.290298 -5.632126 16.615189
7.282272 -5.652603 16.611526
7.298264 -5.626297 16.614059
7.360672 -5.626846 16.613358
7.313370 -5.639999 16.616653
7.313004 -5.633041 16.609909
7.309555 -5.624588 16.618454
7.305771 -5.620834 16.612930
7.309921 -5.615402 16.609970
7.352463 -5.593399 16.603134
7.368423 -5.601334 16.580002
7.347427 -5.623398 16.589523
7.369644 -5.578415 16.592514
7.329880 -5.605118 16.603348
7.321304 -5.610092 16.608841
7.313828 -5.615952 16.608139
7.322556 -5.613968 16.608688
7.337112 -5.598740 16.606796
7.314774 -5.611862 16.618454
7.345474 -5.593796 16.601791
7.353226 -5.611862 16.606430
7.358963 -5.620712 16.595108
7.349869 -5.595688 16.610092
7.342392 -5.590714 16.611130
7.353195 -5.588333 16.600662
7.361801 -5.583389 16.595413
7.356430 -5.578140 16.614365
7.421463 -5.534714 16.598587
7.491196 -5.555069 16.561661
7.499771 -5.550980 16.554794
7.485367 -5.552719 16.551743
7.433487 -5.586685 16.595688
7.424454 -5.597031 16.579788
7.384323 -5.567581 16.592819
7.388779 -5.586838 16.593369
7.420822 -5.565384 16.582809
7.402603 -5.598282 16.608139
7.385452 -5.615433 16.619003
7.377975 -5.621658 16.616562
7.392990 -5.610214 16.617783
7.400589 -5.605484 16.614578
7.417282 -5.596725 16.601913
7.408218 -5.600449 16.612503
7.388321 -5.572464 16.599472
7.381332 -5.593643 16.598679
7.395035 -5.582596 16.601608
7.378860 -5.572891 16.595993
7.376602 -5.572708 16.594589
7.406113 -5.566605 16.604660
7.403976 -5.568771 16.595657
7.376083 -5.582016 16.620041
7.393539 -5.566391 16.609543
7.425583 -5.592575 16.594955
7.473892 -5.564224 16.572617
7.452713 -5.571457 16.568619
7.442429 -5.586136 16.586746
7.441849 -5.582230 16.589951
7.453964 -5.578201 16.579361
7.449509 -5.576675 16.590439
7.440048 -5.569565 16.592667
7.457504 -5.572525 16.584793
7.465683 -5.568069 16.579819
7.486313 -5.573380 16.574966
7.410110 -5.555832 16.595047
7.392380 -5.562271 16.590805
7.415573 -5.545395 16.591568
7.407974 -5.551102 16.590561
7.434677 -5.553848 16.591354
7.421555 -5.523819 16.572586
7.402725 -5.555374 16.606735
7.399002 -5.555710 16.597397
7.418045 -5.551315 16.597031
7.441940 -5.536362 16.620193
7.453354 -5.560074 16.568436
7.460922 -5.561478 16.569870
7.462448 -5.553909 16.565598
7.440048 -5.536392 16.591019
7.475113 -5.541367 16.571548
7.480667 -5.557144 16.573288
7.482346 -5.559158 16.569534
7.477554 -5.536728 16.569016
7.479202 -5.529831 16.566940
7.478500 -5.524368 16.591171
7.498459 -5.524185 16.585648
7.268204 -5.636978 16.636093
7.254562 -5.653336 16.629898
7.251266 -5.659714 16.626419
7.275223 -5.667465 16.631271
7.268478 -5.652786 16.625565
7.334061 -5.642654 16.661270
7.358444 -5.627090 16.650528
7.310471 -5.607864 16.632339
7.301651 -5.623032 16.625900
7.001633 -5.756668 16.756393
7.516312 -5.512192 16.565048
7.550949 -5.500534 16.531693
7.513443 -5.529221 16.546829
7.514664 -5.564224 16.553665
7.517563 -5.543381 16.537399
7.526321 -5.539078 16.531113
7.517746 -5.538376 16.530838
7.520462 -5.538712 16.526169
7.534195 -5.533829 16.530869
7.559280 -5.532791 16.528244
7.530960 -5.517899 16.528275
7.559616 -5.521805 16.511978
7.542770 -5.530014 16.523453
7.532730 -5.523972 16.530655
7.552658 -5.516922 16.524216
7.550735 -5.525314 16.521225
7.523575 -5.559860 16.544846
7.508469 -5.546890 16.547592
7.519119 -5.545090 16.548752
7.575668 -5.513931 16.501541
7.566940 -5.516556 16.513565
7.558945 -5.470505 16.505478
7.544052 -5.498398 16.526596
7.549393 -5.492233 16.526291
7.596329 -5.466690 16.501785
7.588577 -5.471848 16.516891
6.433975 -4.447128 16.997330
6.282852 -4.732193 16.954697
6.280075 -4.994644 16.936417
6.321548 -4.758163 16.963791
6.472000 -4.642105 16.944809
6.289993 -4.536209 16.965530
6.502487 -4.680771 16.938339
6.542221 -4.915573 16.977676
6.525467 -4.905167 16.948532
6.533005 -4.957169 16.927536
6.528000 -4.962296 16.916306
6.538589 -4.943771 16.950851
6.543442 -4.944382 16.957413
6.511826 -4.923569 16.949814
6.513596 -4.761154 16.949997
6.529648 -4.859787 16.899918
6.557571 -4.857956 16.947281
6.539719 -4.872513 16.953934
7.972336 -4.139786 16.590988
7.995895 -4.653214 16.624680
7.924789 -4.758652 16.730759
7.874741 -4.855362 16.812759
7.850998 -4.069778 16.617416
7.737259 -4.056107 16.705429
7.674911 -4.065231 16.712570
7.734299 -4.034225 16.683853
7.720139 -4.010178 16.655136
7.721725 -4.012100 16.653030
7.863083 -4.067001 16.611221
7.825607 -4.066025 16.618637
7.925797 -4.096298 16.599747
7.888626 -4.102310 16.605392
7.953232 -4.089951 16.594803
7.950394 -4.093796 16.577652
7.938187 -4.094864 16.589218
7.938217 -4.098373 16.585892
7.977249 -4.118546 16.567612
7.992294 -4.180435 16.643509
7.781448 -4.029587 16.665237
7.786301 -4.039413 16.636612
7.761642 -4.044907 16.650803
7.773575 -4.042130 16.644180
7.830399 -4.044052 16.630875
7.904160 -4.072495 16.630722
7.516037 -4.107071 16.758896
6.001572 -5.491440 17.017776
6.461197 -5.692459 17.015335
6.136490 -5.934311 17.105545
6.244522 -5.945511 17.110641
6.225418 -5.756668 17.038559
6.171371 -5.925858 17.154037
6.287918 -5.949722 17.103226
6.295120 -5.941910 17.100327
6.368851 -5.947861 17.040909
6.354935 -5.962936 17.045853
6.363419 -5.956375 17.035721
6.311264 -5.885208 17.043167
6.360245 -5.884811 17.042770
6.374008 -5.892075 17.030319
6.352158 -5.921677 17.034317
6.369156 -5.907669 17.040024
6.371170 -5.921341 17.052017
6.340775 -5.894150 17.043900
6.359482 -5.881943 17.052200
6.365768 -5.894699 17.059006
6.365799 -5.875565 17.049973
6.345993 -5.977341 17.100143
6.377457 -5.886002 17.023087
6.375168 -5.939102 17.043869
6.386154 -5.973953 17.039291
6.390549 -5.992050 17.047958
6.403244 -5.995987 17.052017
6.382095 -5.980392 17.049911
6.396103 -5.983292 17.053360
6.281204 -5.778763 17.068710
6.285599 -5.818375 17.045334
6.290909 -5.826370 17.032303
6.287277 -5.831711 17.031937
6.353195 -5.869339 17.045242
6.319351 -5.864426 17.033829
6.284958 -5.804337 17.056076
6.262863 -5.788345 17.029282
6.253220 -5.794693 17.042557
6.251785 -5.798782 17.042252
6.267227 -5.799026 17.039932
6.271530 -5.804428 17.037918
6.283188 -5.791428 17.062729
6.420395 -5.777206 17.047348
6.399918 -5.855911 17.042831
6.391861 -5.855118 17.022751
6.376297 -5.870255 17.031021
6.384476 -5.862320 17.026474
6.409348 -5.771286 17.004288
6.420273 -5.790970 17.011795
6.425156 -5.797958 17.010178
6.428482 -5.803299 17.023544
6.042862 -5.663681 17.084335
6.061050 -5.679489 17.026321
6.135941 -5.649857 17.026016
6.162766 -5.688583 17.031265
6.182175 -5.705734 17.027145
6.178207 -5.692612 17.033493
6.193069 -5.705429 17.038559
6.234207 -5.749344 17.030746
6.198410 -5.718887 17.031570
6.223282 -5.743668 17.032455
6.143265 -5.641403 17.025772
6.171310 -5.680161 17.027206
6.166000 -5.681686 17.019669
6.181564 -5.681259 17.027908
6.109512 -5.568253 17.088852
6.061539 -5.577225 17.017288
6.080063 -5.571823 17.023178
6.087265 -5.595963 17.030258
6.117111 -5.603806 17.015884
6.107803 -5.610977 17.024857
6.083511 -5.576889 17.023270
6.073135 -5.581131 17.020065
6.010239 -5.511459 17.015976
6.044785 -5.541367 17.021317
6.125443 -5.580643 17.049820
6.151413 -5.579575 17.046982
6.462296 -5.699112 17.006607
6.452469 -5.723404 17.016983
6.458633 -5.735916 17.022568
6.538864 -5.686142 17.042130
6.500992 -5.695297 17.031784
6.148239 -5.427597 17.016464
6.176651 -5.324112 17.028091
6.925583 -5.269943 17.008926
6.559860 -5.307968 17.001022
6.972000 -5.293900 17.035110
7.099747 -5.156174 17.010269
7.166275 -5.425003 17.075821
7.206894 -5.444473 17.103683
7.132370 -5.396957 17.060349
7.061996 -5.339676 17.041122
7.007828 -5.322189 17.043991
7.106369 -5.363022 17.044754
6.510361 -4.711227 17.003708
5.206436 -7.295212 18.510025
4.372940 -7.044754 18.202072
4.760818 -7.520401 18.479965
4.711533 -7.504105 18.494186
4.890488 -7.515121 18.497147
4.372116 -7.052353 18.194107
4.156143 -7.042252 18.112900
4.200668 -7.020493 18.103897
4.188126 -7.181351 18.230392
4.022690 -7.095505 18.149734
4.116165 -7.070755 18.140518
4.067825 -7.076218 18.141403
4.070419 -7.083450 18.149887
4.115799 -7.077774 18.134537
4.116623 -7.084763 18.134659
4.363602 -7.051559 18.141220
4.668900 -7.174515 18.120682
4.658249 -7.183029 18.113510
4.761856 -7.488266 18.492661
4.813339 -7.462692 18.496048
4.913803 -7.389023 18.495071
4.891953 -7.443893 18.482864
4.914078 -7.380020 18.496780
4.906631 -7.419510 18.468613
4.923904 -7.404587 18.462570
4.938156 -7.387192 18.448959
4.955338 -7.293655 18.468948
4.910019 -7.341629 18.483871
4.935623 -7.354050 18.453049
4.903488 -7.331894 18.458206
4.912552 -7.351974 18.493149
4.914658 -7.371292 18.499741
4.940445 -7.342392 18.446793
4.942276 -7.330154 18.452652
4.973709 -7.257523 18.461075
4.953629 -7.295914 18.446304
4.960403 -7.298782 18.440933
4.953506 -7.302628 18.460037
4.979324 -7.287125 18.443100
4.958481 -7.259048 18.468216
4.954208 -7.275162 18.467850
4.951065 -7.153214 18.486649
4.951859 -7.182114 18.455521
4.954300 -7.130112 18.434067
4.965225 -7.150620 18.428757
4.955490 -7.238266 18.480881
4.968918 -7.223587 18.468735
4.971085 -7.237411 18.466660
4.988174 -7.222366 18.460953
4.984787 -7.191177 18.446640
4.973618 -7.212296 18.464005
4.973740 -7.207535 18.459610
4.979294 -7.201767 18.454849
4.960953 -7.246811 18.472519
4.965500 -7.234818 18.468887
4.956406 -7.176346 18.462875
4.971268 -7.082596 18.437759
4.947586 -7.086655 18.415939
4.962692 -7.106827 18.431076
4.944839 -7.035904 18.387711
4.956497 -7.118088 18.440414
4.858139 -7.656754 18.548782
4.707932 -7.742569 18.746750
4.881302 -7.626724 18.561386
4.882431 -7.577591 18.581619
4.877304 -7.558029 18.558029
4.877090 -7.549057 18.556046
4.882248 -7.568222 18.579636
4.894119 -7.606064 18.576035
4.901291 -7.616226 18.565414
4.886154 -7.600815 18.590622
4.942947 -7.666122 18.743820
4.926498 -7.638412 18.625931
4.912521 -7.602280 18.709396
4.897629 -7.589554 18.646072
4.953903 -7.631363 18.822525
4.936508 -7.677109 18.760391
4.951736 -7.621323 18.842758
4.579758 -7.155411 18.709579
4.865372 -7.454239 18.502029
4.869308 -7.445389 18.518295
4.923477 -7.400681 18.534012
4.928604 -7.410782 18.554581
4.916458 -7.362411 18.508072
4.253372 -6.415390 18.040878
4.478897 -6.661789 18.087387
4.247421 -6.999313 18.105606
4.244980 -6.991531 18.099350
4.054916 -6.829056 18.033890
4.059189 -6.826035 18.006760
4.102463 -6.819687 18.033737
4.108658 -6.826462 18.019089
4.153610 -6.824905 18.036026
4.167801 -6.849960 18.018021
4.209824 -6.838638 18.054733
4.210861 -6.846390 18.052475
4.366440 -6.933151 18.108658
4.368668 -6.884079 18.062607
4.364639 -6.876175 18.050491
4.315842 -6.875839 18.054276
4.321579 -6.903915 18.057846
4.293350 -6.961990 18.114670
4.292404 -6.969620 18.104996
4.335434 -6.939194 18.096359
4.329727 -6.940323 18.075851
4.339706 -6.895218 18.062851
4.374741 -6.908188 18.071915
4.348984 -6.936417 18.069809
4.436356 -6.876144 18.116379
4.396042 -6.891586 18.057388
4.379684 -6.919632 18.058731
4.421249 -6.884171 18.075882
4.378555 -6.916153 18.083450
4.256302 -6.845016 18.034225
4.262009 -6.853043 18.053909
4.469498 -6.868759 18.081131
4.481613 -6.872574 18.060776
4.447250 -6.865433 18.092972
4.300369 -6.954605 18.153030
4.459854 -6.967300 18.191910
4.429001 -6.965317 18.129440
4.452499 -6.950546 18.169632
4.469894 -6.983780 18.139572
4.451431 -6.942307 18.170517
4.444809 -6.965591 18.166672
4.456192 -6.958725 18.180954
4.437454 -6.893356 18.142227
4.366409 -6.858963 18.148178
4.495010 -6.702988 18.117203
4.497208 -6.723129 18.095566
4.438828 -6.688766 18.051010
4.426010 -6.666611 18.045334
4.425644 -6.681107 18.029465
4.422623 -6.680557 18.041306
4.425888 -6.673843 18.042862
4.422379 -6.672440 18.048691
4.464432 -6.645218 18.040909
4.457840 -6.656876 18.009781
4.442337 -6.680252 18.027542
4.438248 -6.656479 18.019119
4.442703 -6.643112 18.021133
4.463791 -6.653458 18.029190
4.461349 -6.673782 18.039139
4.464737 -6.637405 18.050674
4.435562 -6.526291 18.097946
4.836380 -6.704788 18.067154
4.604202 -6.887497 18.124161
4.708511 -6.875412 18.095322
4.606705 -6.776840 18.099075
4.522141 -6.832352 18.060989
4.605820 -6.819199 18.060959
4.613327 -6.794113 18.055618
4.584793 -6.812271 18.054764
4.506027 -6.841751 18.102646
4.514603 -6.852737 18.072525
4.517746 -6.844193 18.093094
4.559708 -6.835861 18.064713
4.557480 -6.860733 18.118698
4.563919 -6.827621 18.089584
4.574539 -6.768295 18.111679
4.605545 -6.810379 18.066757
4.617661 -6.806076 18.068863
4.591690 -6.772354 18.079849
4.624466 -6.804337 18.118332
4.749649 -6.776688 18.066971
4.650162 -6.793503 18.056992
4.651749 -6.801956 18.056961
4.721603 -6.847458 18.107407
4.696213 -6.861893 18.089493
4.716812 -6.838242 18.093643
4.717148 -6.867661 18.106369
4.747910 -6.767990 18.066483
4.700363 -6.785110 18.063980
4.733963 -6.883041 18.135117
4.736526 -6.891678 18.140335
4.739059 -6.935440 18.134659
4.694351 -6.893234 18.128220
4.545334 -6.862289 18.201218
4.541153 -6.869980 18.176895
4.558487 -6.854935 18.129715
4.548050 -6.857468 18.126175
4.562363 -6.842697 18.133835
4.551926 -6.843063 18.126358
4.556290 -6.830856 18.126205
4.581894 -6.854111 18.156845
4.569443 -6.868271 18.140121
4.585556 -6.870712 18.151474
4.581833 -6.861893 18.141678
4.581039 -6.845596 18.150436
4.581345 -6.853867 18.145615
4.591324 -6.843552 18.136246
4.970535 -6.894699 18.110611
4.792984 -6.750198 18.059067
4.793564 -6.759354 18.054337
4.762894 -6.765945 18.055405
4.970291 -6.837540 18.104111
4.960617 -6.854721 18.120590
4.824051 -6.977524 18.246017
4.753922 -6.921219 18.127487
4.853775 -6.879227 18.176254
4.922348 -6.921585 18.229385
4.890945 -6.895523 18.131760
4.994247 -6.885452 18.170364
4.984512 -6.922287 18.155289
4.998581 -6.897903 18.151169
4.975449 -6.920151 18.164597
4.999496 -6.904922 18.180038
4.998337 -6.895370 18.180954
4.986588 -6.954636 18.234299
4.913162 -6.931137 18.249466
4.900436 -6.888077 18.190323
4.963913 -6.893112 18.246933
4.974167 -6.916824 18.193558
4.947922 -6.919632 18.230179
4.940720 -6.927353 18.249222
4.937637 -6.915115 18.236191
4.966080 -6.912216 18.244492
4.956161 -6.921677 18.234451
4.963852 -6.902725 18.240952
4.834702 -6.842117 18.163925
4.843277 -6.829941 18.173935
4.833847 -6.850937 18.154251
4.847610 -6.858597 18.136703
4.856949 -6.860092 18.126877
4.840225 -6.860062 18.174545
4.867508 -6.862503 18.163895
4.885727 -6.850266 18.165176
4.887558 -6.870804 18.155350
4.883469 -6.861740 18.144547
4.501114 -6.711227 18.136215
4.825302 -6.735794 18.066025
4.772659 -6.656235 18.037704
4.838242 -6.723190 18.059769
4.837173 -6.732529 18.047867
4.838913 -6.741470 18.048080
4.992661 -6.686600 18.100204
4.931229 -6.695602 18.049973
4.889816 -6.719498 18.052444
4.881699 -6.704697 18.046432
4.884445 -6.714188 18.049850
4.932083 -6.686386 18.060715
4.882401 -6.729965 18.063278
4.877762 -6.731125 18.065170
4.999374 -6.695786 18.081009
4.947250 -6.701584 18.065842
4.985855 -6.677170 18.080673
4.857895 -6.566605 18.072525
4.798111 -6.577713 18.025131
4.844986 -6.560654 18.061356
4.850815 -6.557541 18.052719
4.927231 -6.963242 18.349289
4.920395 -6.973587 18.360703
4.897751 -6.939255 18.293808
4.878586 -6.962875 18.271164
4.927750 -6.919327 18.289993
4.915421 -6.924210 18.254227
4.920456 -6.900131 18.271561
4.926804 -6.909958 18.291580
4.933914 -6.929276 18.309341
4.915604 -6.985641 18.362686
4.930710 -6.988297 18.343460
4.942093 -6.957809 18.327011
4.948013 -6.976364 18.341446
4.944626 -6.948288 18.342484
4.941116 -6.938431 18.333694
4.434341 -6.481339 18.101730
4.244400 -6.405807 18.046036
4.436600 -6.489578 18.101151
4.424881 -6.491959 18.096481
4.421768 -6.465866 18.066605
4.428238 -6.473495 18.085007
4.439285 -6.497940 18.102249
4.544113 -6.384842 18.037521
4.538284 -6.397659 18.038132
4.596817 -6.386185 18.041977
4.597977 -6.394516 18.036087
4.578781 -6.410446 18.023697
4.568069 -6.402390 18.024673
4.563858 -6.408493 18.054794
4.593430 -6.377487 18.039047
4.566208 -6.402145 18.035477
4.552841 -6.373825 18.025864
5.036880 -6.677444 18.081833
5.059097 -6.693649 18.065109
5.027390 -6.878006 18.106308
5.008591 -6.877823 18.110550
5.038986 -6.878128 18.046494
5.039963 -6.881027 18.055954
5.026474 -6.899826 18.071243
5.022415 -6.858780 18.098038
5.056778 -6.851242 18.039871
5.056992 -6.856583 18.025681
5.046371 -6.873734 18.028946
5.053085 -6.855820 18.030380
5.060104 -6.870590 18.041550
5.057602 -6.861069 18.037338
5.023514 -6.868515 18.096481
5.014359 -6.859940 18.082382
5.094833 -6.706955 18.064499
5.087326 -6.697861 18.065231
5.109787 -6.715042 18.045334
5.099106 -6.724503 18.041580
5.120804 -6.741165 18.038101
5.107193 -6.727432 18.036087
5.088455 -6.707748 18.062424
5.111191 -6.716629 18.044785
5.100937 -6.711838 18.050339
5.066605 -6.686447 18.061813
5.085312 -6.688309 18.064560
5.136337 -6.718369 18.044083
5.133957 -6.728592 18.027969
5.134537 -6.738480 18.023270
5.065353 -6.737320 18.197586
5.480942 -7.161087 19.766769
5.357254 -7.044632 19.975143
5.373581 -7.034866 19.982834
5.357254 -7.055038 19.970200
5.311905 -7.082077 19.997238
5.361313 -7.066513 19.981552
5.352859 -7.071671 19.998215
5.371262 -7.089249 19.987503
5.359879 -7.062393 19.982895
5.371567 -7.042252 19.965073
5.365463 -7.052444 19.974747
5.419785 -7.024948 19.937943
5.389847 -7.012802 19.934982
5.384445 -7.007278 19.880936
5.430832 -7.003769 19.881851
5.404434 -7.039169 19.916397
5.397049 -7.018143 19.926346
5.449692 -7.012070 19.919907
5.454880 -7.014267 19.900833
5.458725 -7.003738 19.902023
5.446762 -7.023056 19.921005
5.448929 -7.001907 19.921951
5.377182 -7.078537 19.975388
5.409714 -7.022781 19.940506
5.405869 -7.038498 19.952133
5.403549 -7.039963 19.942398
5.400131 -7.059586 19.967941
5.390701 -7.059464 19.959671
5.376938 -7.032242 19.958298
5.410904 -7.049454 19.967392
5.382584 -7.022232 19.950394
5.404068 -7.028275 19.949844
5.437790 -7.031235 19.945877
5.995865 -6.459885 19.336624
5.859299 -6.557388 19.482986
5.864304 -6.544327 19.492233
5.850327 -6.556625 19.495499
5.867416 -6.567215 19.486282
5.868973 -6.624374 19.490799
5.814529 -6.572372 19.496048
5.819107 -6.562851 19.498611
5.874100 -6.590012 19.493607
5.865982 -6.588364 19.494278
5.871078 -6.578598 19.491013
5.865646 -6.555801 19.488388
5.833755 -6.546249 19.475998
5.828384 -6.555496 19.477219
5.906509 -6.510391 19.471298
5.910202 -6.510788 19.435593
5.930069 -6.514420 19.401230
5.932968 -6.531509 19.432663
5.998764 -6.501114 19.413498
5.963882 -6.517471 19.404831
5.994064 -6.530441 19.392075
5.957413 -6.535416 19.436844
5.970047 -6.537491 19.429886
5.952072 -6.528397 19.408066
5.953781 -6.523788 19.432755
5.950363 -6.511581 19.429977
5.948715 -6.514206 19.427811
5.994888 -6.503159 19.409836
5.877609 -6.578903 19.473648
5.906113 -6.566727 19.450577
5.894211 -6.586716 19.465775
5.883957 -6.607773 19.485367
5.877884 -6.529251 19.473587
5.894547 -6.548080 19.462723
5.919052 -6.547958 19.438919
5.915176 -6.557083 19.467026
5.910995 -6.545609 19.460678
5.907028 -6.534103 19.455185
5.886368 -6.527451 19.457626
5.906082 -6.521988 19.461014
5.916580 -6.508591 19.447922
5.915634 -6.520340 19.459183
5.909439 -6.513748 19.468735
5.961502 -6.544815 19.447922
5.936508 -6.493607 19.456528
5.950607 -6.488205 19.448563
5.995865 -6.465286 19.430618
5.993393 -6.453537 19.431198
5.952103 -6.488907 19.391006
5.987473 -6.491287 19.405624
5.990952 -6.460312 19.403519
5.962570 -6.496140 19.419113
5.949478 -6.499924 19.435562
5.944321 -6.482010 19.427353
5.976639 -6.478287 19.411179
5.994339 -6.489395 19.406937
5.993362 -6.477646 19.412460
5.495682 -6.916733 19.817184
5.473862 -6.930771 19.839828
5.480789 -6.951828 19.855759
5.492630 -6.972397 19.811295
5.492416 -6.930405 19.796219
5.482742 -6.931412 19.810684
5.478470 -6.940842 19.852493
5.461746 -6.975510 19.840652
5.483688 -6.977066 19.840714
5.479385 -6.993027 19.829269
5.455490 -6.964951 19.842300
5.466202 -6.965500 19.830185
5.477249 -6.945877 19.827103
5.494919 -6.957352 19.826767
5.489487 -6.967636 19.832169
5.468704 -6.996017 19.872360
5.475876 -6.986191 19.858322
5.483383 -6.962845 19.860214
5.400833 -6.997360 19.952072
5.424789 -6.985001 19.917984
5.428604 -6.999039 19.904037
5.439926 -6.959213 19.907913
5.440445 -6.978043 19.883133
5.441940 -6.990280 19.899796
5.440201 -6.980362 19.897934
5.438614 -6.969864 19.897141
5.452286 -6.948593 19.878220
5.401321 -6.999161 19.948166
5.403122 -6.987808 19.966202
5.758987 -6.632126 19.605026
5.682846 -6.784866 19.621841
5.696304 -6.765457 19.608047
5.548599 -6.883011 19.731247
5.558426 -6.877243 19.736893
5.552292 -6.915543 19.725815
5.553543 -6.925613 19.725082
5.536484 -6.902023 19.748184
5.542160 -6.891922 19.742264
5.604965 -6.875504 19.739334
5.596786 -6.810959 19.705368
5.590561 -6.817276 19.676834
5.624283 -6.852005 19.653549
5.611893 -6.870285 19.667496
5.624832 -6.779953 19.678024
5.604141 -6.803757 19.681992
5.613358 -6.803726 19.687332
5.553299 -6.874191 19.729599
5.560104 -6.863907 19.717758
5.554214 -6.873611 19.724716
5.536179 -6.865189 19.748581
5.545486 -6.864639 19.734543
5.548477 -6.873245 19.743515
5.597427 -6.853745 19.723099
5.572495 -6.845078 19.700516
5.588303 -6.862747 19.714096
5.567184 -6.855026 19.704361
5.581985 -6.825485 19.697250
5.577377 -6.835587 19.697708
5.583786 -6.835831 19.700851
5.568100 -6.841660 19.712967
5.574356 -6.835556 19.709793
5.590652 -6.818832 19.714127
5.601120 -6.823746 19.704483
5.571854 -6.857224 19.721024
5.601913 -6.864853 19.733810
5.640488 -6.824234 19.695236
5.644882 -6.821518 19.668686
5.640152 -6.824722 19.641373
5.641403 -6.837753 19.653275
5.658554 -6.823074 19.652451
5.628769 -6.849869 19.681564
5.648880 -6.817947 19.675186
5.657364 -6.763199 19.670914
5.669632 -6.802872 19.633682
5.670639 -6.801773 19.625626
5.671341 -6.781601 19.651566
5.658035 -6.786911 19.648788
5.683823 -6.762680 19.636703
5.674942 -6.758133 19.638596
5.677780 -6.772232 19.642990
5.656876 -6.757767 19.653336
5.653824 -6.808914 19.671616
5.629776 -6.788345 19.684250
5.665451 -6.790939 19.657883
5.659286 -6.799820 19.666489
5.634079 -6.778244 19.662460
5.641769 -6.769455 19.668930
5.688858 -6.805222 19.681595
5.689774 -6.753433 19.630203
5.692276 -6.763992 19.647141
5.638046 -6.813278 19.692581
5.644547 -6.834885 19.704300
5.847672 -6.770493 19.673050
5.910355 -6.785049 19.696182
5.987747 -6.817673 19.731766
5.962540 -6.833145 19.708450
5.937424 -6.796890 19.694382
5.894424 -6.782211 19.700790
5.891678 -6.792313 19.690933
5.976517 -6.800674 19.725845
5.951523 -6.788071 19.696396
5.945114 -6.785202 19.710342
5.965958 -6.777176 19.701309
5.938370 -6.804123 19.719040
5.749771 -6.643387 19.606918
5.727951 -6.666916 19.606400
5.723831 -6.697037 19.602921
5.730759 -6.688583 19.591568
5.741348 -6.715530 19.588272
5.719162 -6.692490 19.590866
5.712906 -6.749802 19.605301
5.700272 -6.734268 19.624954
5.689499 -6.720779 19.613632
5.688980 -6.726242 19.622482
5.713211 -6.718887 19.621811
5.705917 -6.724869 19.620499
5.726456 -6.731857 19.594376
5.730972 -6.749313 19.613052
5.702927 -6.695450 19.607468
5.718460 -6.706406 19.605881
5.689255 -6.688126 19.598343
5.709305 -6.692337 19.603683
5.710403 -6.707718 19.618881
5.712234 -6.715317 19.613571
5.708847 -6.696152 19.621017
5.708359 -6.676895 19.606949
5.689255 -6.667709 19.562820
5.748611 -6.661697 19.574081
5.736374 -6.679367 19.587601
5.741379 -6.670792 19.590714
5.748276 -6.664993 19.584457
5.742508 -6.670242 19.581314
5.743454 -6.631119 19.590927
5.747177 -6.653610 19.588516
5.746506 -6.642624 19.593735
5.705032 -6.685287 19.614395
5.744766 -6.597336 19.620773
5.746201 -6.583237 19.581314
5.739212 -6.608505 19.592026
5.717422 -6.681198 19.631363
5.670456 -6.727890 19.661850
5.681076 -6.721970 19.628830
5.660538 -6.749863 19.637863
5.669571 -6.739304 19.650894
5.668167 -6.732010 19.642715
5.681137 -6.712265 19.627731
5.717850 -6.730515 19.631424
5.694962 -6.744125 19.627274
5.808578 -6.655807 19.583633
5.764633 -6.632950 19.569046
5.799454 -6.632278 19.535965
5.780441 -6.671097 19.561722
5.784042 -6.660995 19.558456
5.773270 -6.625443 19.549515
5.777817 -6.643967 19.555527
5.789261 -6.633011 19.555099
5.795303 -6.655594 19.561234
5.795273 -6.641708 19.549423
5.791946 -6.644058 19.557053
5.796951 -6.643326 19.547714
5.835648 -6.634567 19.522202
5.767624 -6.718857 19.620926
5.752792 -6.694351 19.569199
5.769791 -6.704941 19.582809
5.759048 -6.642014 19.572617
5.750137 -6.668106 19.573715
5.768753 -6.678482 19.565567
5.754227 -6.686966 19.591232
5.751389 -6.675980 19.588394
5.803238 -6.664871 19.586319
5.807205 -6.677811 19.589401
5.803024 -6.666672 19.581741
5.755508 -6.652847 19.564163
5.768997 -6.646439 19.572189
5.759506 -6.654160 19.579880
5.817429 -6.648544 19.562546
5.774979 -6.618118 19.604843
5.784531 -6.606186 19.544754
5.797653 -6.588486 19.529648
5.804703 -6.580093 19.519272
5.777817 -6.615524 19.552109
5.791245 -6.597427 19.536301
5.810135 -6.622665 19.532486
5.805618 -6.616623 19.533432
5.810837 -6.609055 19.534897
5.788223 -6.621353 19.559708
5.796494 -6.618118 19.548721
5.785660 -6.609726 19.558731
5.825119 -6.565903 19.533859
5.824356 -6.605728 19.525131
5.831406 -6.611618 19.522995
5.829239 -6.599869 19.523666
5.858688 -6.596359 19.506577
5.846329 -6.614517 19.517136
5.851578 -6.605331 19.516037
5.836441 -6.587631 19.512802
5.832199 -6.590012 19.511856
5.824265 -6.592117 19.528397
5.827286 -6.588547 19.524887
5.826126 -6.577225 19.529037
5.851212 -6.570969 19.506882
5.836288 -6.623367 19.532272
5.836746 -6.585709 19.540207
5.864090 -6.532303 19.500656
5.767105 -6.616348 19.599442
5.761826 -6.599045 19.591049
5.786453 -6.598465 19.569992
5.789688 -6.572128 19.569412
5.786850 -6.587234 19.579727
5.760422 -6.727219 19.633896
5.770370 -6.619827 19.631546
5.525223 -6.933670 19.824051
5.522141 -6.923599 19.817520
5.504745 -6.952194 19.792679
5.502792 -6.948471 19.808701
5.508865 -6.939194 19.799271
5.573196 -6.941696 19.766556
5.515366 -6.901688 19.803146
5.530655 -6.911484 19.757645
5.530563 -6.911758 19.755783
5.518906 -6.934219 19.780899
5.522995 -6.920700 19.771866
5.544418 -6.912430 19.758133
5.517868 -6.893509 19.759720
5.509964 -6.896805 19.777878
5.556137 -6.883011 19.758743
5.545792 -6.895676 19.751205
5.516617 -6.929825 19.782883
5.517258 -6.912369 19.804550
5.502823 -6.902390 19.799057
5.575211 -6.930649 19.777725
5.959793 -6.863419 19.754135
7.385391 -7.177444 18.249435
7.330429 -7.270645 18.235458
7.713394 -7.542160 18.452042
7.855270 -7.988358 18.494888
7.831314 -7.991653 18.484299
7.820999 -7.985489 18.498428
7.744400 -7.578598 18.480942
7.679520 -7.509933 18.428452
7.368851 -7.435837 18.444107
7.246414 -7.329025 18.310410
7.398666 -7.325241 18.412704
7.760056 -7.426346 18.215286
7.715530 -7.427200 18.240524
7.701340 -7.429886 18.213852
7.637161 -7.410904 18.352524
7.571182 -7.307175 18.471664
7.596298 -7.358078 18.469772
7.562637 -7.173203 18.360886
7.542221 -7.204971 18.349991
7.561996 -7.165451 18.398972
7.674728 -7.179184 18.377457
7.264542 -7.650803 18.939468
7.283218 -7.885757 18.967911
7.281387 -7.891769 18.967697
7.307785 -7.895676 18.934891
7.305771 -7.981277 18.973160
7.307907 -7.975876 18.968277
7.301620 -7.999039 18.967361
7.302933 -7.947128 18.958908
7.309219 -7.970016 18.971268
7.303421 -7.986893 18.979385
7.303055 -7.993088 18.968979
7.317673 -7.943649 18.970718
7.319839 -7.975479 18.983078
