2.809341 1.393692 27.841263
2.798264 1.414597 27.836441
2.794785 1.421219 27.835464
2.802261 1.407547 27.840103
2.806198 1.400711 27.844193
2.792862 1.428848 27.851151
2.789474 1.436203 27.854111
2.816574 1.403976 27.817917
2.822159 1.380264 27.825241
2.763779 1.495499 27.837479
2.752701 1.484604 27.871567
2.771744 1.438248 27.877213
2.750931 1.495499 27.878403
2.901810 1.500534 27.686325
2.672958 1.589584 27.963852
2.652054 1.566422 27.976425
2.683395 1.603195 27.913864
2.654770 1.559158 27.964188
2.645645 1.580185 27.990280
2.641739 1.587418 27.993637
2.649460 1.573532 27.989243
2.633530 1.600235 27.989975
2.637680 1.594009 27.993027
2.742630 1.646622 27.952652
2.740646 1.629593 27.951401
2.806870 1.588150 27.933426
3.032120 1.085983 27.576309
3.415848 1.037247 27.026657
3.182693 1.001205 27.350601
3.085220 1.084518 27.483017
3.071213 1.075424 27.499893
3.074295 1.102066 27.498825
3.130814 1.037216 27.479568
3.170639 1.016434 27.423416
3.776291 1.063797 27.200394
3.789047 1.075455 27.179337
3.054245 1.097610 27.566849
3.044632 1.111374 27.529739
3.061935 1.066177 27.539200
3.072128 1.025986 27.510941
3.069778 1.034225 27.514297
3.068192 1.042709 27.524643
3.066116 1.050186 27.528397
3.064041 1.058304 27.534348
3.062088 1.088394 27.549484
3.006821 1.082382 27.551712
3.055496 1.089401 27.553207
3.050827 1.075180 27.547958
3.061386 1.074417 27.557968
3.058456 1.081802 27.555283
3.049850 1.104599 27.551865
3.047897 1.102829 27.556992
3.081772 1.078506 27.520279
3.041794 1.136276 27.580643
3.025681 1.156326 27.512558
3.033585 1.150620 27.558029
3.036911 1.142960 27.561600
3.028519 1.182846 27.557419
3.025314 1.164658 27.556137
3.022690 1.130203 27.570602
3.002731 1.177109 27.606461
3.177750 1.038376 27.827316
3.190353 1.021652 27.828781
3.202072 1.004807 27.832840
3.216660 1.055374 27.819016
3.204666 1.042648 27.853317
3.189621 1.038101 27.848068
3.179489 1.088943 27.941635
3.147629 1.000076 27.876572
3.186813 1.046585 27.887161
3.185257 1.054947 27.896805
3.183945 1.063278 27.908310
3.182510 1.072128 27.920273
3.180832 1.080917 27.930435
3.171738 1.111893 27.937088
3.222336 1.072403 27.888565
3.207901 1.087631 27.894547
3.189743 1.101242 27.913071
3.178360 1.097733 27.956436
3.154251 1.123764 27.957596
3.176376 1.105972 27.963272
3.172043 1.121933 27.973190
3.174301 1.113998 27.969009
3.171432 1.130692 27.992752
3.252426 1.006943 27.757187
0.715103 2.074387 27.959793
0.890854 2.029892 27.753159
0.895248 2.042160 27.772720
0.776901 2.084244 27.900436
1.822769 2.082382 27.693954
5.239243 2.197708 27.701645
4.484451 1.126297 24.209030
4.042038 0.236862 24.577744
4.311996 0.241043 24.075668
4.180862 0.477615 24.156693
4.212326 0.540421 24.197342
4.430527 0.733688 24.299911
4.433792 0.957779 24.350235
4.447769 0.968399 24.343094
4.459732 0.983322 24.318985
4.703262 0.717300 24.077805
4.702377 0.704636 24.063889
4.717911 0.689529 24.082230
4.659805 0.679520 24.019211
4.630630 0.681137 24.004227
4.680008 0.662857 24.022751
4.699661 0.668045 24.023453
4.700607 0.679764 24.036728
4.698196 0.683578 24.045792
4.674820 0.690140 24.014664
4.677628 0.744095 24.027298
4.636002 0.694717 24.041702
4.637833 0.707352 24.060745
4.700333 0.691360 24.043716
4.718460 0.701157 24.060257
4.697128 0.724960 24.045609
4.716171 0.743973 24.103928
4.705460 0.729904 24.098526
4.707993 0.742416 24.120987
4.655350 0.734146 24.170486
4.705093 0.783920 24.079666
4.726608 0.756210 24.113449
4.689621 0.763901 24.049026
4.724045 0.804214 24.119247
4.701920 0.828720 24.232407
4.745834 0.751297 24.153366
4.707474 0.753708 24.127396
4.710709 0.766678 24.153946
4.715347 0.779587 24.187698
4.723190 0.803940 24.211716
4.721420 0.792496 24.228806
4.705978 0.851822 24.233078
4.735641 0.831772 24.333389
4.714432 0.848648 24.329544
4.726151 0.806107 24.263840
4.730698 0.819260 24.297897
4.711166 0.824722 24.300705
4.730087 0.871567 24.286819
4.734909 0.843765 24.298630
4.747543 0.890823 24.323990
4.719772 0.965622 24.398819
4.796585 0.853806 24.351059
4.753555 0.835861 24.278244
4.819199 0.859543 24.451096
4.804184 0.836075 24.375565
4.826401 0.837112 24.401138
4.814194 0.821091 24.393509
4.816086 0.834030 24.413712
4.815140 0.823746 24.420334
4.816879 0.846024 24.427811
4.846909 0.855637 24.418503
4.831894 0.864944 24.456314
4.823868 0.873367 24.486252
4.790756 0.901047 24.459274
4.773575 0.908096 24.384171
4.812576 0.897476 24.422134
4.823410 0.881424 24.436356
4.867966 0.904282 24.496750
4.017715 0.234909 24.560776
4.018021 0.224808 24.559219
4.144058 0.274765 24.571060
4.072220 0.286667 24.548050
4.158157 0.307816 24.573471
4.143173 0.263992 24.561722
4.203659 0.267807 24.544998
4.205185 0.288864 24.561844
4.229752 0.334549 24.556808
4.135483 0.284164 24.576431
4.207291 0.278915 24.570297
4.375931 0.340927 24.574905
4.313919 0.337326 24.588852
4.287827 0.282883 24.561813
4.270981 0.293350 24.575607
4.271011 0.303452 24.579788
4.390427 0.364395 24.585220
4.479141 0.390884 24.614304
4.464981 0.361801 24.653336
4.388199 0.237259 24.866867
4.441666 0.237656 24.796555
4.346756 0.116135 24.905685
4.481461 0.037430 24.983749
4.369858 0.180710 24.901199
4.246231 0.485123 24.904312
4.067734 0.413132 24.952011
4.448105 0.348343 24.816757
4.428085 0.289261 24.841354
4.448715 0.304337 24.775772
4.435837 0.438766 24.849228
4.513901 0.405991 24.696854
4.487289 0.512527 24.819077
4.302017 0.502426 24.863937
4.486557 0.505936 24.882584
4.297379 0.911789 24.849136
4.299393 0.923660 24.874252
4.304489 0.901993 24.876999
4.298386 0.935165 24.882523
4.879745 0.855362 24.569565
4.882614 0.842545 24.527939
4.865097 0.861954 24.574631
4.852798 0.861282 24.502060
4.843948 0.901047 24.609848
4.849838 0.908524 24.524643
4.833725 0.886581 24.546494
4.833817 0.918015 24.536209
4.814987 0.925125 24.559280
4.801590 0.893204 24.717209
4.872269 0.930618 24.633987
4.852768 0.915482 24.666428
4.809616 0.946030 24.646561
4.858719 0.943008 24.633865
4.817459 0.967880 24.658432
4.919540 0.949600 24.717300
4.883408 0.917740 24.640579
4.891830 0.899948 24.664352
4.910538 0.893295 24.705826
4.933273 0.904831 24.729080
4.937180 0.893845 24.738388
4.924301 0.934891 24.724472
4.948532 0.890091 24.737045
4.901230 0.960800 24.712509
4.912003 0.947647 24.720413
4.554367 0.624344 24.905991
4.622269 0.705063 24.980942
4.579330 0.663162 24.921890
4.567581 0.637863 24.986923
4.616714 0.728134 24.970535
4.683090 0.738571 24.982193
4.684036 0.665909 24.930405
4.730972 0.703293 24.921921
4.742447 0.747910 24.956467
4.794205 0.597946 24.886154
4.576523 0.833511 24.994034
4.610214 0.771622 24.951706
4.517746 0.923355 24.982895
4.946396 0.956680 24.838333
4.960800 0.944199 24.837357
4.935806 0.918106 24.753220
4.936752 0.931290 24.769760
4.941238 0.900833 24.757553
4.944687 0.881882 24.764359
4.967545 0.911880 24.764023
4.934586 0.943558 24.770554
4.977066 0.913742 24.829330
4.930984 0.789444 24.943192
4.986618 0.970810 24.933517
5.410080 0.044693 24.753494
5.092331 0.716995 24.214706
5.196945 0.678879 24.375015
5.631912 0.969315 24.156723
5.711716 0.960953 24.128342
5.698135 0.966843 24.132492
5.798355 0.966293 24.127243
5.628036 0.947647 24.414963
5.597122 0.896347 24.484634
5.537766 0.031937 24.740616
5.598343 0.032272 24.719711
5.959457 0.018478 24.587387
5.939438 0.062180 24.601913
5.992142 0.231674 24.666336
5.989731 0.238174 24.677994
5.506149 0.266159 24.921371
5.712540 0.497391 24.898270
5.936295 0.271835 24.789261
5.992233 0.289444 24.751297
5.426468 0.619522 24.988968
5.455490 0.730270 24.950089
5.213455 0.794693 24.967697
5.042191 0.937881 24.964645
5.023727 0.915939 24.893478
5.016953 0.933914 24.925064
5.043411 0.938736 24.922653
5.015213 0.947647 24.928177
5.044907 0.925278 24.966385
5.026627 0.932175 24.941116
5.053696 0.901291 24.987747
5.048691 0.913986 24.974808
5.035294 0.969803 24.949051
5.041855 0.951096 24.974838
5.051224 0.944901 24.990280
5.056808 0.972488 24.982285
5.056808 0.973007 24.982529
5.075211 0.959427 24.988693
5.062729 0.972549 24.983505
5.626968 0.952316 24.615341
5.608200 0.964523 24.593704
5.714798 0.997269 24.678970
5.932083 0.601364 24.869980
5.868729 0.564896 24.870102
5.942123 0.586349 24.892776
5.940140 0.541428 24.882004
5.799637 0.676529 24.908768
4.446274 1.372482 24.188309
4.579605 1.351425 24.164841
4.734207 1.487808 24.155685
4.899033 1.325699 24.089645
4.770157 1.330185 24.105331
4.966354 1.316971 24.087479
4.971268 1.304733 24.095108
4.883102 1.388504 24.115005
4.720688 1.048630 24.275040
4.547958 1.619888 24.114395
4.745987 1.538437 24.125748
4.759140 1.532608 24.121170
5.297867 1.123123 24.544937
5.152908 1.283707 24.007248
5.033524 1.294205 24.068619
5.036148 1.312363 24.022171
5.055649 1.298111 24.054550
5.027390 1.306107 24.054947
5.090775 1.281326 24.018295
5.112900 1.379379 24.020584
5.461380 1.467667 24.013657
5.326675 1.470901 24.118576
5.269547 1.455154 24.138321
5.657089 1.088181 24.117172
5.724380 1.123093 24.067581
5.669449 1.013290 24.121201
5.653488 1.124313 24.045395
5.629044 1.111832 24.046890
5.668533 1.034500 24.112259
5.574905 1.138779 24.001816
5.576706 1.153397 24.021683
5.581406 1.125504 24.017502
5.593155 1.164871 24.002640
5.584793 1.165054 24.021103
5.675949 1.143875 24.062546
5.658493 1.135147 24.048508
5.641617 1.126480 24.035690
5.688248 1.138687 24.054184
5.685165 1.156113 24.078873
5.643631 1.046524 24.195145
5.655991 1.019058 24.125778
5.706009 1.028702 24.156204
5.644363 1.049545 24.217300
5.793808 1.122513 24.083755
5.786026 1.110977 24.115097
5.757828 1.105301 24.117661
5.789169 1.135757 24.075577
5.795059 1.164108 24.047897
5.814621 1.204453 24.049454
5.793716 1.131302 24.080917
5.764084 1.126541 24.077957
5.781235 1.136337 24.089218
5.779831 1.168777 24.066574
5.858017 1.134933 24.088638
5.828110 1.151199 24.103226
5.910446 1.142990 24.086411
5.925156 1.132462 24.093399
5.894180 1.132248 24.078598
5.881332 1.138077 24.084244
5.899582 1.146652 24.101486
5.928726 1.151596 24.103561
5.913681 1.160110 24.098343
5.996384 1.151993 24.083755
5.994614 1.130325 24.107162
5.561691 1.209274 24.280289
5.312912 1.113998 24.535660
5.381851 1.193405 24.624008
5.387405 1.144150 24.737686
5.099930 1.158768 24.769150
5.945816 1.556595 24.705185
4.494705 0.926407 25.027908
5.293991 0.982468 25.581558
5.142288 0.978256 25.088852
5.142227 0.930893 25.117111
5.122025 0.958755 25.066727
5.067398 0.889969 25.043869
5.077957 0.932724 25.047867
5.102402 0.938034 25.041336
5.100723 0.986191 25.087540
5.115585 0.975540 25.081985
5.123764 0.957993 25.107559
5.114517 0.893295 25.126572
5.136459 0.996414 25.206711
5.150681 0.918564 25.146591
5.159805 0.906174 25.179459
5.146194 0.943802 25.146988
5.130386 0.938675 25.141129
5.150650 0.958023 25.180374
5.180710 0.954941 25.181320
5.157944 0.944046 25.180435
5.152267 0.910080 25.212479
5.171310 0.895462 25.225082
5.182022 0.911545 25.248550
5.148361 0.983871 25.212265
5.158157 0.968887 25.228500
5.234055 0.966751 25.338242
5.209976 0.956375 25.339493
5.204117 0.992386 25.294754
5.209091 0.969223 25.342392
5.234726 0.952347 25.415970
5.252884 0.990341 25.421005
5.300583 0.999832 25.602951
5.282211 0.988937 25.526474
5.261551 0.971085 25.507126
5.278641 1.018295 25.522415
5.124893 1.011215 25.195084
5.176468 1.014328 25.299362
5.192795 1.008163 25.279465
5.231674 1.022476 25.385178
5.525742 1.194199 25.213425
5.300766 1.009903 25.555161
5.285812 1.000473 25.552811
5.261795 1.026413 25.538467
5.368362 1.026962 25.704849
5.328629 1.022781 25.633530
5.312698 1.030075 25.649368
5.338120 1.007797 25.651962
5.353348 1.074783 25.630722
5.376938 1.036209 25.728378
5.393478 1.069687 25.838974
5.339035 1.058884 25.750870
5.421219 1.022720 25.828873
5.406143 1.057602 25.843063
5.410660 1.022812 25.855698
5.428207 1.080917 25.971878
5.430222 1.042618 25.881973
5.453598 1.059555 25.972855
5.441544 1.070969 25.968918
6.186050 1.240402 24.066391
6.069199 0.108109 24.547867
6.136276 0.019241 24.394943
6.100632 0.033859 24.460617
6.063461 0.049789 24.479111
6.016312 0.034500 24.552536
6.044083 0.227707 24.589951
6.034683 0.193375 24.601395
6.026993 0.169998 24.603073
6.002914 0.238113 24.598770
6.346725 0.836899 24.668900
7.984604 0.223465 24.559189
7.494583 0.979172 24.002182
7.271469 0.946091 24.353897
7.856216 0.535568 24.489304
7.773148 0.355301 24.634445
7.572647 0.535660 24.649094
6.126602 1.139023 24.115891
6.216995 1.148758 24.097427
6.190964 1.134872 24.107712
6.012924 1.143295 24.092453
6.022720 1.181290 24.069412
6.021591 1.161301 24.067947
6.059647 1.142563 24.113754
6.192459 1.151230 24.124741
6.231979 1.163040 24.096146
6.218307 1.169754 24.098343
6.046982 1.039322 24.249954
6.060043 1.033646 24.243759
6.107132 1.205521 24.180161
6.159500 1.155441 24.165085
6.176071 1.162979 24.163834
6.248550 1.168686 24.164261
6.382187 1.120407 24.074997
6.258682 1.232651 24.068436
6.305679 1.163132 24.094650
6.318008 1.143143 24.096146
6.321884 1.154648 24.101700
6.404495 1.154129 24.075699
6.472763 1.140610 24.049332
6.441208 1.136154 24.038742
6.460464 1.146255 24.056778
6.376022 1.147202 24.077164
6.389786 1.141159 24.073593
6.490768 1.151627 24.062881
6.445541 1.131516 24.072739
6.065231 1.033890 24.314468
6.093704 1.164627 24.260696
6.414444 1.168472 24.311813
6.696854 1.089005 24.002670
6.731155 1.221970 24.114120
6.538681 1.231339 24.043411
6.546371 1.144485 24.042587
6.684921 1.155991 24.066360
6.632248 1.143997 24.026932
6.650467 1.133072 24.042862
6.654984 1.150436 24.060745
6.669785 1.141647 24.041824
6.696945 1.141525 24.033463
6.695419 1.173538 24.051468
6.676254 1.156876 24.091629
6.717422 1.181870 24.080246
6.706955 1.185501 24.095840
6.693008 1.170059 24.098984
6.660812 1.139481 24.215561
6.892990 1.208481 24.051865
6.805893 1.203873 24.071213
6.801529 1.184952 24.055984
6.780869 1.199326 24.027969
6.816757 1.200089 24.056747
6.832260 1.212936 24.063156
6.817795 1.220261 24.062637
7.158218 1.054825 24.504623
5.495956 1.078598 26.584274
5.345749 0.960159 26.730759
5.298660 0.932846 26.660751
5.669815 0.729721 26.734726
5.735641 0.669266 26.742203
5.694107 0.750412 26.722458
5.570663 0.712631 26.758072
5.576614 0.635300 26.770126
5.567734 0.717697 26.948135
5.602676 0.685959 26.902512
5.579269 0.806686 26.757492
5.551071 0.774887 26.939072
5.839981 0.800156 26.969223
5.484543 1.113602 26.567551
5.472641 1.078903 26.121506
5.486404 1.068527 26.118973
5.459518 1.088699 26.124283
5.458206 1.036240 26.025803
5.494370 1.048904 26.155014
5.497177 1.021683 26.156448
5.520615 1.031540 26.156357
5.594406 1.060196 26.349747
5.570816 1.049026 26.346329
5.561722 1.165421 26.335251
5.535721 1.086349 26.447098
5.571823 1.084518 26.379898
5.582413 1.070297 26.396072
5.602798 1.121170 26.459702
5.616104 1.073746 26.479507
5.612167 1.105453 26.482864
5.488876 1.063766 26.537827
5.468399 1.262222 26.956192
5.469193 1.276108 26.992996
5.465683 1.289047 26.990768
5.648758 1.056625 26.602097
5.652115 1.062851 26.500320
5.510757 1.052536 26.615555
5.522507 1.116409 26.529434
5.509109 1.121475 26.541306
5.540146 1.124588 26.545731
5.669113 1.089096 26.546890
5.526138 1.130783 26.552902
5.737228 1.082108 26.712326
5.722214 1.093979 26.654953
5.738663 1.052353 26.693924
5.731247 1.116348 26.696701
5.717728 1.072128 26.725235
5.505386 1.167618 26.712662
5.502762 1.152634 26.685867
5.504715 1.182144 26.724014
5.720383 1.130783 26.679428
5.707993 1.143356 26.671127
5.751083 1.097336 26.691086
5.745682 1.160141 26.798019
5.514816 1.228043 26.817368
5.521622 1.210739 26.772659
5.512589 1.198868 26.777237
5.504959 1.219864 26.765671
5.537521 1.221115 26.779465
5.512955 1.213272 26.793594
5.525558 1.224075 26.801224
5.520615 1.244644 26.861435
5.787918 1.086502 26.847458
5.754410 1.082993 26.797989
5.762650 1.154831 26.774643
5.772995 1.139786 26.795395
5.836807 1.112869 26.976852
5.853867 1.134384 26.956558
5.855606 1.149033 26.976944
5.556381 1.360001 26.870865
5.523544 1.251724 26.791824
5.510513 1.260208 26.798935
5.529556 1.307541 26.882706
5.862839 1.349869 26.983353
5.351334 1.578781 26.674026
5.244400 1.710739 26.833450
4.601547 0.032883 27.989029
4.119278 0.639542 27.146957
4.128922 0.704819 27.277328
4.593643 0.044052 27.999741
4.918869 0.133865 27.841568
5.545120 0.492508 27.806137
5.338547 0.447311 27.112473
5.281143 0.267715 27.495895
5.926620 0.964310 27.472641
4.251724 1.065689 27.805801
5.752609 1.000534 27.736008
5.493423 1.360428 27.088730
5.476822 1.366318 27.113205
5.455734 1.284836 27.004410
5.455276 1.439651 27.230637
5.469345 1.429947 27.222641
5.497513 1.442947 27.318069
5.399368 1.374161 27.469986
5.393906 1.414078 27.460861
5.414810 1.448105 27.410629
5.433609 1.491226 27.421860
5.927475 1.072556 27.085190
5.912125 1.030685 27.076584
5.868759 1.117905 27.028976
5.883957 1.114700 27.020950
5.870010 1.183884 27.071579
5.863663 1.166336 27.027817
5.896957 1.215927 27.087418
5.906509 1.128342 27.033615
5.885788 1.226303 27.081863
5.905563 1.199478 27.117722
5.992233 1.008499 27.126114
5.978989 1.013962 27.138504
5.995316 1.038681 27.148087
5.996536 1.006393 27.164474
5.924057 1.248672 27.199112
5.934525 1.235214 27.216202
5.533737 1.385391 27.010147
5.532944 1.410110 27.001907
5.919144 1.093216 27.357468
5.898758 1.135971 27.343124
5.937393 1.044418 27.431778
5.977707 1.233475 27.441360
5.468369 1.536179 27.217026
5.482224 1.559158 27.250046
5.380020 1.528763 27.456894
5.473007 1.509720 27.401474
5.457779 1.500839 27.389969
5.444595 1.505814 27.405075
5.458511 1.516769 27.406723
5.412033 1.529404 27.471939
5.388077 1.503525 27.491226
5.437454 1.530655 27.496292
5.400162 1.532852 27.495163
5.425339 1.557724 27.482620
5.428329 1.537918 27.486954
5.455551 1.560532 27.487076
5.441574 1.548782 27.487289
5.403244 1.635239 27.445053
5.422379 1.658585 27.493881
5.480515 1.655045 27.440048
5.695236 1.479660 27.586258
5.609421 1.472275 27.526993
5.866592 1.306076 27.726273
5.960495 1.202164 27.820114
5.961441 1.217941 27.838699
5.911911 1.238266 27.972366
5.952103 1.363602 27.924850
5.377274 1.571518 27.621536
5.416275 1.541580 27.509293
5.285385 1.588425 27.566238
5.288803 1.560684 27.542984
5.362961 1.561783 27.535141
5.369736 1.540787 27.543625
5.286148 1.574356 27.549667
5.370590 1.554550 27.566452
5.310715 1.562820 27.620682
5.353195 1.563187 27.570450
5.360855 1.589584 27.608109
5.354752 1.686691 27.517197
5.431412 1.681656 27.514999
5.305710 1.623276 27.713882
5.298569 1.589371 27.682419
5.301010 1.607651 27.668686
5.344650 1.596207 27.632889
5.299301 1.642075 27.704788
5.274582 1.634293 27.731491
5.190872 1.851730 27.644180
5.199478 1.883194 27.633286
5.231979 1.686722 27.820419
5.209732 1.682632 27.854782
5.229294 1.672440 27.785324
5.221939 1.698135 27.789841
5.181961 1.670609 27.923172
5.183548 1.775558 27.942337
5.160599 1.780838 27.998154
6.384018 1.172379 26.954056
6.480698 0.035812 26.749496
6.147873 0.429306 26.778275
6.438553 0.481186 27.540451
6.444199 0.484146 27.490433
6.055832 0.955795 27.214737
6.093063 0.953445 27.248367
6.100876 0.930099 27.249557
6.000900 0.991806 27.172989
6.102554 0.914108 27.246323
6.160446 0.895737 27.263626
6.145523 0.913406 27.276993
6.220871 0.888718 27.260300
6.286484 0.865250 27.331528
6.266312 0.874466 27.299271
6.319595 0.892319 27.336502
6.261063 0.885483 27.302597
6.618454 0.738052 27.484146
6.605148 0.742447 27.499588
6.529251 0.793411 27.450058
6.618454 0.758102 27.490952
6.617599 0.793015 27.474991
6.723862 0.681656 27.580307
6.657700 0.742752 27.529007
6.639633 0.744949 27.514359
6.636307 0.706741 27.534531
6.748795 0.699265 27.559250
6.696243 0.707687 27.542374
6.814865 0.650772 27.598038
6.830643 0.606094 27.683762
6.898270 0.599350 27.706284
6.881271 0.607346 27.705307
6.916885 0.578903 27.722672
6.822067 0.697372 27.665848
7.011398 0.586807 27.804703
6.007584 1.265854 27.801132
6.088120 1.008469 27.198502
6.015152 1.013077 27.166153
6.305649 1.766953 27.486588
6.179916 1.326950 27.909164
5.193100 2.135818 27.715988
5.174850 2.139969 27.651932
5.332565 2.301498 27.724625
3.576859 2.520676 30.995926
0.123306 1.335556 28.612534
0.203964 0.589218 28.708878
0.227341 0.640091 28.030716
0.202469 0.589676 28.706558
0.201004 0.590317 28.712204
1.972855 0.312790 28.713882
1.680801 0.542282 28.193466
1.972061 0.317490 28.713181
1.972275 0.322678 28.728134
1.972855 0.307755 28.702682
1.974655 0.297562 28.705978
1.942429 0.312180 28.714554
1.973892 0.302780 28.706284
1.975998 0.292313 28.713699
1.976913 0.287613 28.717087
1.978653 0.283005 28.732498
1.725204 0.496902 28.958939
1.727371 0.492783 28.974411
1.894882 0.456467 28.871017
1.830856 0.466141 28.829330
1.856461 0.412979 28.792892
1.840805 0.408676 28.801987
1.868088 0.412033 28.802292
1.874100 0.410355 28.816360
1.886459 0.401871 28.770187
1.885483 0.411850 28.787247
1.889755 0.417252 28.796097
1.905197 0.469925 28.897018
1.304245 0.817520 28.574661
1.720688 0.509628 28.946976
1.719376 0.513931 28.946304
1.623825 0.580368 28.994980
1.718246 0.518295 28.949265
1.709641 0.514420 28.924240
1.717087 0.522598 28.951553
1.714828 0.531235 28.957352
1.716446 0.527023 28.962143
1.713821 0.535690 28.963150
1.778732 0.540787 28.944351
1.837204 0.506699 28.898727
0.164810 1.401352 28.566635
0.163712 1.486038 28.451553
0.164597 1.479172 28.458206
0.575241 1.435959 28.418869
0.819138 1.457443 28.354294
0.779251 1.339951 28.476669
0.842941 1.295120 28.389206
0.304245 1.936935 28.234055
0.211960 1.622452 28.439346
0.177383 1.539291 28.466415
0.022018 1.682327 28.385941
0.096390 1.671066 28.400803
0.210556 1.634689 28.403519
0.240036 1.671585 28.394669
0.248489 1.670670 28.400131
0.244370 1.671921 28.410660
0.263412 1.740219 28.389816
0.267960 1.739609 28.390976
0.282944 1.806717 28.344559
0.278732 1.808884 28.367905
0.288742 1.873093 28.269333
0.742630 1.592178 28.338455
0.793564 1.612320 28.297440
0.797440 1.643967 28.320084
0.801102 1.641129 28.305679
0.805374 1.639297 28.309097
0.793015 1.645645 28.313766
0.559677 1.995956 28.334732
0.805801 1.870987 28.257614
0.804245 1.781204 28.263321
0.161362 1.402451 28.580612
0.188065 1.469193 28.532242
0.462631 1.448868 28.587265
0.713211 1.381851 28.568619
0.717422 1.381546 28.598892
0.719223 1.376785 28.536697
0.705765 1.384140 28.543381
0.709579 1.382980 28.556351
0.757217 1.440659 28.576920
0.766373 1.494705 28.566086
0.752792 1.440872 28.544479
0.760483 1.437729 28.558060
0.980698 1.656235 28.710495
0.985214 1.654404 28.721420
0.688034 1.952408 28.715134
0.764542 1.502487 28.914597
0.973831 1.993759 28.762955
1.482193 1.114243 28.740982
1.273361 1.745590 28.008316
1.948288 1.655472 28.471939
1.945023 1.661026 28.484512
1.990677 1.924820 28.355301
1.829422 1.973831 28.465134
1.884537 1.971146 28.401840
1.366379 1.027451 28.744827
1.607864 1.189285 28.748672
1.918716 1.486801 28.647751
1.716812 1.290115 28.780716
1.139114 1.729263 28.723892
1.059769 1.691177 28.689194
1.089218 1.688126 28.706467
1.025955 1.671432 28.744125
1.075912 1.682053 28.738541
1.212753 1.882767 28.703751
1.547226 1.585709 28.612473
1.826096 1.583542 28.526474
1.954971 1.652817 28.509781
0.981400 0.632614 29.692215
1.045578 0.860489 29.513077
1.152237 0.110092 29.434525
1.751755 0.064468 29.474442
1.822708 0.126907 29.471817
1.630203 0.386490 29.417191
1.852982 0.389359 29.366562
1.867691 0.340378 29.422806
1.854263 0.414780 29.450638
1.781326 0.393936 29.427567
1.855087 0.405289 29.431076
1.853500 0.409775 29.421982
1.934158 0.407028 29.482101
1.486160 0.747940 29.212936
1.488297 0.744370 29.218643
1.489761 0.740555 29.211288
1.431656 0.868027 29.248703
1.423264 0.716415 29.273239
1.348892 0.705124 29.319992
1.350113 0.701492 29.308304
1.420944 0.719894 29.263931
1.279800 0.685318 29.391251
1.416214 0.854691 29.261917
1.427261 0.920456 29.361923
1.410690 0.887924 29.267593
1.380539 0.925430 29.270126
1.693710 0.619614 29.090530
1.695175 0.615311 29.088913
1.692520 0.623703 29.095596
1.699844 0.588455 29.015121
1.702408 0.579910 29.009537
1.701035 0.583969 29.009628
1.690475 0.627945 29.087997
1.742020 0.632492 29.013474
1.688858 0.632187 29.087570
1.595627 0.676315 29.139664
1.594650 0.680862 29.154434
1.593765 0.685471 29.171280
1.750381 0.646194 29.033096
1.777939 0.625290 29.211960
1.776413 0.629654 29.212173
1.746201 0.589615 29.728745
1.554459 0.836777 29.683334
1.820114 0.650284 29.957138
0.870895 1.323288 29.103348
0.952316 1.205154 29.434799
0.943771 1.562515 29.463181
1.196396 1.758408 29.501663
1.227921 1.105576 29.358047
1.248856 1.056290 29.369797
1.214615 1.124771 29.394547
1.230515 1.113693 29.410934
1.211624 1.192856 29.384201
1.293655 1.091263 29.312546
1.369553 1.051285 29.440201
1.261246 1.100754 29.393692
1.264725 1.097916 29.406845
1.350784 1.116989 29.435013
1.398026 1.056625 29.465439
1.332932 1.153458 29.439529
1.202744 1.256424 29.410324
1.170242 1.423660 29.440598
1.028061 1.621658 29.460373
1.145370 1.702255 29.449783
1.024612 1.625778 29.484329
1.145370 1.637985 29.438919
1.878342 1.612473 29.216110
1.693100 1.875839 29.045517
2.740799 1.487534 28.575485
2.199356 0.080124 28.528671
2.252609 0.024368 28.442093
2.265671 0.008774 28.437698
2.267258 0.020401 28.458450
2.731491 0.449142 28.150925
2.742508 0.481552 28.159927
2.787674 0.415329 28.104691
2.020462 0.843582 28.381821
2.917801 0.999557 28.014359
2.199661 0.074692 28.530258
2.199936 0.085892 28.538864
2.199753 0.091446 28.539566
2.199600 0.096970 28.540665
2.200546 0.102463 28.555923
2.051224 0.225449 28.624619
2.155991 0.241226 28.592239
2.125687 0.147507 28.556503
2.051407 0.246353 28.660477
2.051529 0.251297 28.670151
2.002396 0.374344 28.762985
2.992050 0.100632 28.508377
2.933517 0.361465 28.693680
2.951645 0.361588 28.715988
2.997696 0.274704 28.665543
2.996475 0.281815 28.660385
2.998917 0.290115 28.690842
2.904129 0.398575 28.826187
2.872269 0.382187 28.854843
2.856613 0.375565 28.863083
2.887192 0.392441 28.830582
2.912796 0.414932 28.847916
2.814072 0.494766 28.996841
2.858566 0.382645 28.889603
2.842026 0.377975 28.888840
2.857864 0.429123 28.926102
2.862411 0.444809 28.927567
3.158585 0.192947 28.518600
3.235611 0.069626 28.358658
3.243851 0.087265 28.368790
3.181290 0.002731 28.316391
3.168320 0.013901 28.286026
3.189865 0.003250 28.319229
3.190994 0.019608 28.329666
3.191055 0.011276 28.329849
3.221451 0.053635 28.327286
3.195023 0.027634 28.366043
3.194077 0.043381 28.359207
3.194229 0.051010 28.361496
3.195175 0.059372 28.371140
3.172958 0.129471 28.367172
3.130020 0.081345 28.439438
3.158188 0.038956 28.379532
3.157700 0.117416 28.394485
3.129562 0.065872 28.431870
3.182693 0.105392 28.414536
3.195969 0.067215 28.379684
3.193558 0.122574 28.434311
3.131027 0.089432 28.450485
3.130447 0.073471 28.441727
3.129105 0.107224 28.449203
3.131577 0.097214 28.457657
3.132278 0.105209 28.466415
3.131302 0.112961 28.460068
3.131210 0.121140 28.461868
3.128494 0.128922 28.440231
3.199661 0.141800 28.435806
3.142105 0.158401 28.496292
3.262863 0.002243 28.250320
3.273605 0.000229 28.275955
3.647415 0.797897 28.002853
3.557877 0.835342 28.014053
3.550308 0.796005 28.128616
3.597214 0.662064 28.452042
3.635880 0.845139 28.490646
3.722397 0.774307 28.499283
3.628464 0.847763 28.406418
3.646439 0.850418 28.427719
3.920303 0.842758 28.494797
3.871048 0.856735 28.459702
3.771469 0.790939 28.417892
3.776169 0.782028 28.438400
3.852280 0.807816 28.488754
3.847549 0.816940 28.469040
3.841293 0.846176 28.469528
3.151169 0.175034 28.510849
3.108566 0.214279 28.564468
3.066818 0.149582 28.548233
3.064987 0.156845 28.534592
3.438950 0.055466 28.738998
3.069412 0.315445 28.645615
3.057938 0.280930 28.638748
3.064987 0.298660 28.646378
3.232346 0.034348 28.862839
3.661087 0.650803 28.604263
3.645889 0.977158 28.568344
3.675217 0.985611 28.600052
3.640976 0.904556 28.525070
3.633408 0.966385 28.554733
3.645065 0.909042 28.576187
3.675430 0.995590 28.621170
3.994797 0.858719 28.516617
3.864761 0.759384 28.507553
3.950333 0.828323 28.682175
3.723404 0.817245 28.910782
3.694626 0.848373 28.913467
3.750473 0.869095 28.987717
3.780838 0.854294 28.985733
2.732986 1.482559 28.614914
2.976730 1.312332 28.242996
2.970352 1.318527 28.353867
2.974411 1.347305 28.348526
2.987259 1.299088 28.280533
2.983871 1.305862 28.277054
2.986374 1.294174 28.276382
2.992508 1.293198 28.302017
2.859238 1.366348 28.493820
2.869766 1.345200 28.423447
2.913132 1.338058 28.460098
2.927322 1.363571 28.433029
2.916428 1.330704 28.459579
2.894821 1.339279 28.451096
2.880630 1.354385 28.460129
2.905350 1.360764 28.482193
2.890457 1.364059 28.479294
2.902237 1.368332 28.485855
2.907822 1.352707 28.471848
2.910873 1.345566 28.469742
2.937973 1.443985 28.495041
2.408493 1.700302 28.133560
2.407211 1.714340 28.142075
2.340012 1.721420 28.191605
2.367264 1.729752 28.224808
2.319077 1.735275 28.234787
2.401260 1.716141 28.129318
2.402542 1.720016 28.137283
2.389969 1.738083 28.140701
2.394669 1.732651 28.146683
2.398636 1.726242 28.141586
2.249313 1.815445 28.207809
2.232101 1.790268 28.221573
2.163437 1.938797 28.243942
2.254105 1.809616 28.208511
2.258591 1.804031 28.208542
2.360672 1.862473 28.150772
2.361221 1.845566 28.157761
2.005081 1.695084 28.437729
2.160324 1.847275 28.323868
2.061295 1.866898 28.320541
2.061905 1.842758 28.299057
2.109848 1.842941 28.303970
2.087601 1.831650 28.304001
2.065781 1.827896 28.320663
2.075363 1.817856 28.326462
2.070999 1.823135 28.328629
2.166061 1.812546 28.262131
2.175278 1.802170 28.266617
2.171097 1.807480 28.268387
2.181107 1.797684 28.283157
2.158035 1.824081 28.275040
2.148697 1.834579 28.271683
2.133743 1.839035 28.293137
2.116165 1.988571 28.350998
2.018509 1.878708 28.311905
2.097763 1.974014 28.274368
2.010025 1.889908 28.326889
2.001266 1.900681 28.337418
2.006058 1.895554 28.337021
2.167221 1.954544 28.256485
2.559616 1.590744 28.019974
2.556259 1.597122 28.024857
2.552994 1.604233 28.034012
2.611771 1.598373 28.009109
2.594009 1.612137 28.032211
2.543839 1.625351 28.067307
2.565201 1.642166 28.057205
2.549454 1.731857 28.046463
2.621170 1.708359 28.041916
2.618759 1.690414 28.038437
2.541702 1.632980 28.088882
2.524368 1.657822 28.079605
2.549149 1.656326 28.075699
2.688309 1.668594 28.025040
2.525955 1.690170 28.126083
2.766953 1.523361 28.041336
2.562973 1.814987 28.074783
2.538834 1.790512 28.201401
2.541000 1.849808 28.257523
2.528946 1.866959 28.262009
2.540482 1.871628 28.293411
2.525620 1.885391 28.250778
2.700943 1.477676 28.624893
2.748978 1.422134 28.596054
2.724045 1.430252 28.606003
2.735764 1.414627 28.611343
2.722824 1.407944 28.623306
2.717087 1.497208 28.630905
2.697433 1.485214 28.630142
2.693893 1.492325 28.633255
2.714676 1.479050 28.639175
2.687973 1.468918 28.646072
2.701218 1.474197 28.641281
2.691360 1.499466 28.644974
2.832596 1.313278 28.513382
2.832504 1.352737 28.510910
2.823563 1.373947 28.521439
2.826706 1.367142 28.520157
2.836349 1.345963 28.516006
2.777847 1.437576 28.577194
2.811417 1.403366 28.540543
2.779251 1.394943 28.545120
2.802902 1.394913 28.553452
2.808609 1.403946 28.557266
2.788498 1.435226 28.533005
2.807541 1.410263 28.537125
2.806168 1.418655 28.560196
2.802536 1.425217 28.557846
2.839767 1.377182 28.524551
2.821121 1.381424 28.531204
2.814865 1.396500 28.540878
2.817673 1.388748 28.532608
2.822983 1.389572 28.545761
2.869919 1.433884 28.532852
2.802505 1.439926 28.533340
2.873947 1.451431 28.540146
2.758835 1.405380 28.574478
2.777725 1.422867 28.575180
2.761948 1.430374 28.577133
2.776047 1.433212 28.586349
2.793411 1.419693 28.568466
2.763138 1.451401 28.591080
2.753860 1.493759 28.566269
2.750015 1.466812 28.597946
2.984360 1.388229 28.575363
2.988815 1.381516 28.585861
2.064590 1.534195 28.645432
2.181992 1.629654 28.708878
2.437271 1.855484 28.935806
2.324417 1.838150 28.918564
2.338303 1.820755 28.920578
2.347824 1.957382 28.991440
2.439590 1.938644 28.972214
2.417892 1.906204 28.996902
2.652878 1.575668 28.688217
2.646622 1.590439 28.708603
2.646103 1.598740 28.698776
2.678360 1.510635 28.637466
2.681229 1.519974 28.656204
2.684799 1.513321 28.654831
2.677597 1.526810 28.658279
2.656570 1.518478 28.658096
2.661087 1.559830 28.669357
2.669693 1.540359 28.657211
2.674057 1.534164 28.663681
2.666733 1.547043 28.664536
2.663681 1.554672 28.675766
2.659988 1.562302 28.681839
2.689560 1.529190 28.647507
2.687851 1.506363 28.647934
2.699509 1.508499 28.657394
2.648483 1.581955 28.682968
2.645401 1.577377 28.680771
2.655991 1.568832 28.680649
2.635452 1.529953 28.691788
2.634384 1.609665 28.704117
2.642685 1.597122 28.709396
2.638779 1.603378 28.708633
2.631851 1.617233 28.720749
2.627518 1.624008 28.719345
2.623917 1.625595 28.743088
2.810532 1.512009 28.564377
2.816116 1.528946 28.578903
2.823868 1.545395 28.602127
2.760330 1.604660 28.629623
2.766678 1.586685 28.661728
2.663864 1.737259 28.853561
2.520004 1.741135 28.837936
2.602402 1.681015 28.805130
2.541580 1.731277 28.809372
2.598465 1.687759 28.808517
2.584610 1.706955 28.798691
2.581192 1.714279 28.809738
2.594589 1.694168 28.810806
2.603012 1.724380 28.790634
2.584641 1.736557 28.819870
2.564865 1.740585 28.819901
2.568985 1.733963 28.817307
2.574478 1.728165 28.829544
2.633133 1.692490 28.763351
2.516983 1.819321 28.865921
2.543259 1.772781 28.824020
2.586166 1.842056 28.773209
2.588913 1.858566 28.780258
2.548111 1.766891 28.829758
2.540298 1.779617 28.837906
2.553055 1.760361 28.833237
2.522476 1.805801 28.843552
2.531021 1.792984 28.839188
2.535904 1.786545 28.841599
2.546432 1.788071 28.837418
2.518448 1.812393 28.848648
2.527725 1.800095 28.852432
2.531662 1.802658 28.853500
2.616867 1.804306 28.871201
3.049271 1.393753 28.690201
3.160721 1.214767 28.016983
3.170395 1.232132 28.042801
3.101639 1.236862 28.113327
3.165848 1.155563 28.019302
3.168320 1.147446 28.015640
3.171677 1.139755 28.019974
3.164597 1.163559 28.032394
3.098068 1.193039 28.198380
3.051926 1.239304 28.148514
3.083084 1.214493 28.145950
3.083359 1.249466 28.135788
3.076309 1.228928 28.137711
3.078629 1.221237 28.131912
3.073410 1.236740 28.139511
3.071274 1.245316 28.150070
3.088821 1.207138 28.168472
3.095840 1.200912 28.204849
3.119736 1.275833 28.113205
3.046341 1.261703 28.190994
3.062241 1.277084 28.181595
3.045853 1.273972 28.184921
3.059036 1.284897 28.182083
3.069595 1.253738 28.163651
3.066605 1.261276 28.164536
3.064743 1.269180 28.175461
3.025925 1.271683 28.216232
3.017654 1.305496 28.197891
3.004532 1.281693 28.241104
3.242447 1.455307 28.821121
3.234024 1.436020 28.808212
3.662979 1.041794 28.623917
3.665298 1.047134 28.555313
3.730484 1.123520 28.738785
3.668716 1.023880 28.628983
3.671280 1.014908 28.629471
3.665756 1.032883 28.625809
3.696854 1.070938 28.680283
3.938919 1.035477 28.634018
3.803909 1.174973 28.815720
3.802109 1.153793 28.758469
3.801743 1.163864 28.777084
3.781296 1.165939 28.775681
3.873795 1.185867 28.788803
2.475876 0.800461 29.507126
2.103806 0.284683 29.448776
2.131912 0.521652 29.414352
2.058609 0.509232 29.416519
2.016983 0.652054 29.403824
2.496292 0.794357 29.488998
2.737167 0.624069 29.189163
2.735092 0.607834 29.196457
2.644211 0.548477 29.248978
2.677475 0.656631 29.237259
2.782578 0.577866 29.100510
2.770554 0.544083 29.086777
2.823807 0.510941 29.017868
2.762436 0.524521 29.110947
2.777695 0.531662 29.099045
2.751480 0.522232 29.137619
2.603378 0.669083 29.372238
2.586899 0.657883 29.346542
2.594925 0.764725 29.443222
2.596054 0.782547 29.431747
2.446518 0.910385 29.613785
2.400803 0.974228 29.691544
2.407120 0.955612 29.679245
2.427689 0.920303 29.647842
2.409073 0.949753 29.675369
2.404648 0.961380 29.677475
2.449478 0.968460 29.651077
2.455490 0.984360 29.662857
2.155045 0.590897 29.947311
2.080215 0.576401 29.942734
2.007126 0.550552 29.917953
2.006088 0.555954 29.924026
2.081955 0.570969 29.945755
2.297745 0.845779 29.786179
2.296677 0.852188 29.801041
2.372116 0.853317 29.752029
2.315323 0.893784 29.825363
2.494797 0.961441 29.775162
2.387894 0.894333 29.791824
2.540298 0.812668 29.502304
2.553329 0.844315 29.526962
2.503067 0.888901 29.609512
2.512833 0.905167 29.635513
3.267654 0.012161 29.655594
3.126633 0.019333 29.070969
3.129593 0.011185 29.098099
3.124100 0.003220 29.046799
3.068527 0.110825 29.239456
3.805557 0.075394 29.111679
3.779190 0.017014 29.052811
3.762802 0.032486 29.053879
3.849045 0.119064 29.166794
3.817215 0.054611 29.133133
3.942398 0.213974 29.246872
3.970993 0.193008 29.318741
3.999557 0.240250 29.313187
3.948166 0.186996 29.296646
3.938858 0.187149 29.306778
3.972641 0.182938 29.327469
3.975235 0.202713 29.353531
3.976028 0.246048 29.353165
3.842545 0.841141 29.082138
3.835495 0.859604 29.067734
3.854874 0.839310 29.093796
3.756424 0.843979 29.028854
3.763077 0.822403 29.060410
3.858475 0.829575 29.104691
3.837570 0.869797 29.094711
3.822311 0.876328 29.053360
3.947281 0.848618 29.222763
3.902145 0.867477 29.137192
3.887955 0.867447 29.136795
3.863205 0.911270 29.135422
3.932816 0.920639 29.204361
3.890518 0.883865 29.128891
3.960220 0.891922 29.201187
3.945694 0.905746 29.205978
3.936813 0.623398 29.260849
3.590988 0.759201 29.304764
3.274734 0.029282 29.661972
3.234268 0.061417 29.779434
3.226334 0.043442 29.770523
3.203568 0.027847 29.786942
3.203293 0.035599 29.785049
3.204178 0.043655 29.794113
3.114944 0.111862 29.970901
3.143814 0.097733 29.951706
3.138290 0.042831 29.887527
3.139481 0.050339 29.900040
3.141159 0.058548 29.917374
3.139725 0.066238 29.905136
3.140396 0.073837 29.913193
3.141403 0.089859 29.926743
3.141922 0.081772 29.929489
3.181259 0.120529 29.913620
3.145157 0.121811 29.972733
3.146744 0.129807 29.990646
3.587204 0.355728 29.970139
3.479752 0.730057 29.560318
3.481491 0.721298 29.559616
3.284317 0.663742 29.747055
3.352432 0.686111 29.708054
3.353928 0.677750 29.706253
3.418289 0.699539 29.636276
3.422592 0.691574 29.658737
3.223373 0.625931 29.824661
3.713394 0.846329 29.571945
3.714279 0.846176 29.661972
3.835281 0.803207 29.816727
3.832108 0.836502 29.930374
2.413528 1.077957 29.746628
2.268478 1.075272 29.139816
2.103775 1.268692 29.292923
2.965897 1.225449 29.145676
2.055832 1.913895 29.085068
2.404892 1.922928 29.005936
2.347061 1.986862 29.064743
2.310379 1.992966 29.055344
2.306015 1.998856 29.060593
2.325302 1.967667 29.022690
2.320389 1.981003 29.053452
2.316696 1.987930 29.069748
2.047592 1.545944 29.401688
2.396286 1.029831 29.712204
2.462753 1.017258 29.666550
2.457779 1.001328 29.658646
2.415024 1.060104 29.766861
2.326859 1.116440 29.836197
2.311600 1.051743 29.809708
2.310806 1.118362 29.807175
2.349045 1.108200 29.764603
2.349930 1.105637 29.794113
2.767960 1.847824 29.546158
0.137772 2.122787 28.508987
0.972610 2.253098 28.790939
0.125290 2.068039 28.493393
0.138779 2.109360 28.403702
0.069260 2.122452 28.421768
0.137955 2.098648 28.401321
0.354080 2.078079 28.251297
0.360641 2.139542 28.311050
0.518600 2.082932 28.073837
0.515945 2.072006 28.061569
0.579575 2.080521 28.009506
0.764114 2.008224 28.245926
0.815201 2.131821 28.187057
0.629654 2.004135 28.313339
1.006821 2.143936 28.725357
1.912155 2.088730 28.422165
1.975143 2.055923 28.375290
1.779465 2.122086 28.493362
1.281662 2.068069 28.714462
1.238144 2.190720 28.758743
1.647598 2.111252 28.576859
1.716782 2.109360 28.551071
1.640671 2.199509 28.534317
0.755081 2.240982 29.837082
0.695084 2.004959 29.435349
0.829056 2.252975 29.819687
1.146317 2.343155 29.869675
1.673080 2.019028 29.072647
1.840927 2.465652 29.499466
1.911392 2.550064 29.474564
1.221512 2.370346 29.860123
1.393875 2.286514 29.822342
1.442398 2.416214 29.805649
1.654739 2.479477 29.714096
1.720871 2.482071 29.659225
1.584091 2.462387 29.745163
1.787186 2.469650 29.603745
1.829147 2.462143 29.506607
1.514694 2.431656 29.781143
1.802597 2.592758 29.614700
1.817825 2.591049 29.569839
1.853439 2.532425 29.502457
1.815079 2.530869 29.535538
2.601425 2.312546 28.583237
2.563828 2.269760 28.506302
2.523636 2.079330 28.365097
2.565414 2.058945 28.339584
2.534897 2.089371 28.375931
2.547043 2.190506 28.429001
2.565689 2.434067 28.635727
2.220352 2.108475 29.157883
2.226151 2.103226 29.163651
2.212021 2.121445 29.185806
2.147537 2.201157 29.240097
2.230606 2.147415 29.143631
2.231491 2.141861 29.148727
2.212570 2.154953 29.182602
2.202713 2.173203 29.182907
2.172653 2.168655 29.232346
2.167374 2.174271 29.234634
2.436813 2.113449 29.056473
2.280930 2.071762 29.116989
2.337540 2.006302 29.060532
2.286118 2.022568 29.066849
2.291489 2.016983 29.070053
2.296585 2.011368 29.071243
2.301132 2.005295 29.065689
2.281357 2.029160 29.074600
2.276230 2.034836 29.074234
2.292984 2.054611 29.109818
2.321396 2.020340 29.083603
2.250961 2.129166 29.112930
2.267746 2.088791 29.127792
2.256485 2.107468 29.130753
2.240067 2.299881 29.239182
2.241745 2.296494 29.186264
2.251541 2.304916 29.228378
2.135818 2.208664 29.257767
2.131393 2.215347 29.274277
2.206467 2.584946 29.319809
2.222366 2.578171 29.312119
2.233200 2.582443 29.305344
2.241409 2.513321 29.270279
2.230637 2.509262 29.276077
2.185562 2.655411 29.321945
2.208755 2.516281 29.414261
1.491257 1.174576 30.619614
1.908585 0.113388 30.840317
1.902084 0.410446 30.159775
1.826950 0.399277 30.164566
1.224380 0.704208 30.131912
1.222580 0.707230 30.130997
1.226547 0.701187 30.140274
1.228500 0.698257 30.145554
1.789200 0.598953 30.434341
1.909561 0.104050 30.847519
1.909714 0.108627 30.853989
1.910385 0.098984 30.856125
1.985794 0.052780 30.789749
1.957108 0.207626 30.874893
1.756851 0.158096 30.972061
1.832474 0.141403 30.903305
1.833298 0.155624 30.936142
1.756607 0.162308 30.974655
1.833786 0.150894 30.937729
1.834213 0.146133 30.938553
1.895279 0.245346 30.922409
1.950058 0.405380 30.871292
1.947311 0.414963 30.860123
1.948471 0.410141 30.862015
1.830521 0.266983 30.981888
1.872360 0.404160 30.896957
1.951462 0.400681 30.877670
1.444595 1.192795 30.747543
1.396805 1.117111 30.073715
1.394638 1.121140 30.087173
1.278122 1.144302 30.121994
1.461258 1.042160 30.178299
1.684738 1.286148 30.468460
1.682266 1.290543 30.478622
1.732681 1.380661 30.413986
1.908401 1.345444 30.267990
1.838058 1.323807 30.356949
1.835098 1.328781 30.364151
1.905441 1.350784 30.276566
1.902481 1.355789 30.283035
1.553665 1.211105 30.533127
1.550919 1.215256 30.539322
1.619247 1.248978 30.503128
1.589981 1.235031 30.517288
1.616318 1.253220 30.507217
0.951614 0.311996 31.515854
0.857712 0.382248 31.496628
0.218155 0.535141 31.335648
1.074295 0.437759 31.517532
1.380325 0.093674 31.189407
1.380295 0.096939 31.193832
1.303635 0.078384 31.213821
1.303635 0.081680 31.218491
1.303726 0.075089 31.211533
1.303879 0.085220 31.229782
1.305008 0.072006 31.237930
1.380386 0.090042 31.185745
1.455399 0.105515 31.129745
1.455917 0.109238 31.146408
1.151871 0.040634 31.314316
1.152023 0.037704 31.315598
1.230789 0.127182 31.465744
1.303268 0.151108 31.357651
1.303482 0.147873 31.353470
1.236252 0.284103 31.397598
1.399094 0.461349 31.427933
1.681778 0.151474 31.021530
1.681290 0.155472 31.019547
1.529892 0.130356 31.085709
1.530960 0.126480 31.100388
1.606125 0.148666 31.071518
1.605850 0.152481 31.072739
1.607407 0.144913 31.089371
1.681564 0.159561 31.031754
1.594193 0.298660 31.243332
1.756119 0.275528 31.018967
1.512802 0.307358 31.253372
1.075424 0.434921 31.516434
1.076797 0.432297 31.524002
1.078018 0.429794 31.529861
1.997116 0.404831 31.584000
1.848587 0.374954 31.715134
1.960678 0.452621 31.686691
1.919357 0.404160 31.638626
1.921707 0.394699 31.644608
1.923203 0.389969 31.652695
1.921036 0.399460 31.649704
1.918259 0.408890 31.636948
1.925125 0.384995 31.667740
1.630020 0.284439 31.873856
1.706436 0.315140 31.879898
1.272507 0.713211 31.582932
1.270828 0.850632 31.528885
1.727402 0.573746 31.959885
1.726944 0.578354 31.977737
1.903824 0.729294 31.865799
1.959396 0.699203 31.760880
1.799515 0.602524 31.908279
1.801773 0.598312 31.921768
1.844772 0.760818 31.955124
1.858688 1.960129 31.543930
1.984970 1.877487 31.379623
2.128372 1.321915 30.062851
2.132980 0.019547 30.662827
2.014450 0.033310 30.051682
2.350418 0.020645 30.300674
2.553207 0.484360 30.205307
2.950699 0.315811 30.468216
2.950638 0.323318 30.475998
2.951065 0.293198 30.448074
2.951492 0.308121 30.468002
2.953568 0.285934 30.466537
2.952072 0.300980 30.466599
2.462723 0.641556 30.035141
2.721268 0.785538 30.255722
2.133591 0.008621 30.670486
2.134262 0.014206 30.680466
2.255325 0.071304 30.531357
2.061691 0.029160 30.755325
2.062057 0.024002 30.759995
2.011490 0.172501 30.792618
2.085495 0.147049 30.780777
2.740311 0.334946 30.744736
2.879196 0.344894 30.568314
2.879562 0.323013 30.545670
2.880905 0.308426 30.542892
2.882675 0.300919 30.553024
2.879440 0.337479 30.561783
2.880295 0.330338 30.561874
2.881210 0.315781 30.554428
2.942795 0.396255 30.518448
2.941452 0.377243 30.533005
2.954483 0.410049 30.549606
2.809067 0.343369 30.651382
2.811203 0.322495 30.647751
2.812027 0.315506 30.648239
2.811325 0.336838 30.667313
2.812241 0.329697 30.667831
2.809311 0.350479 30.663345
2.810349 0.357956 30.684860
2.831985 0.441635 30.695602
2.824905 0.426773 30.683273
2.664841 0.373672 30.837173
2.666916 0.367111 30.850327
2.740097 0.341904 30.751846
2.743149 0.328751 30.767868
2.743790 0.321732 30.765701
2.739548 0.349014 30.755844
2.739731 0.355942 30.767593
2.738297 0.369858 30.771988
2.739853 0.363327 30.779648
2.668503 0.360519 30.858231
2.668533 0.353928 30.848373
2.671738 0.347183 30.874863
2.737930 0.376816 30.778427
2.595291 0.370560 30.940384
2.596878 0.364212 30.948471
2.598709 0.357803 30.959335
2.591354 0.457565 30.966721
2.647110 0.454178 30.957169
2.652451 0.487686 30.942673
2.653183 0.470963 30.963577
2.773209 0.439865 30.798904
2.103104 0.586380 30.640091
2.107620 0.568069 30.681564
2.580399 0.525864 30.952805
3.084122 0.407059 30.580734
3.125992 0.232651 30.114090
3.175827 0.198471 30.025833
3.077621 0.188766 30.089859
3.081009 0.132706 30.037064
3.074661 0.134628 30.033096
3.062820 0.139938 30.056259
3.075912 0.150162 30.052292
3.076096 0.142349 30.050613
3.075974 0.165787 30.060715
3.075943 0.157547 30.056381
3.077133 0.173203 30.076248
3.077744 0.180984 30.086594
3.081772 0.162399 30.093216
3.079758 0.205307 30.120865
3.079514 0.197220 30.113510
3.187790 0.215500 30.051773
3.171616 0.179825 30.029984
3.080093 0.212723 30.129227
3.080795 0.220047 30.140976
3.135513 0.249771 30.131516
3.157944 0.301132 30.162125
3.100418 0.336227 30.223618
3.099960 0.316483 30.241806
3.018936 0.307724 30.365433
3.068283 0.401627 30.352036
3.002396 0.380783 30.440842
3.003799 0.397720 30.429001
3.006546 0.417404 30.419937
3.514938 0.348618 30.002060
3.498306 0.724838 30.345505
3.245377 0.916397 30.452133
3.863541 0.861496 30.069901
3.884323 0.875259 30.266373
3.853989 0.895462 30.421738
3.838455 0.889572 30.415176
3.066818 0.421646 30.592453
3.095291 0.474380 30.679825
3.044693 0.719528 30.530594
3.122269 0.522537 30.782028
3.804398 0.984604 30.509109
3.829514 0.947769 30.519516
3.671890 0.617447 30.956528
3.599258 0.596237 30.988449
2.122696 1.307388 30.047470
2.021774 1.447983 30.221603
2.015732 1.433212 30.203110
2.058548 1.742874 30.221451
2.310196 1.688950 30.167313
2.369888 1.745071 30.179916
2.314255 1.683365 30.167099
2.422745 1.799942 30.201431
2.654068 1.992752 30.145584
3.790573 1.277359 30.747574
3.683701 1.461014 30.975845
3.682449 1.470810 30.995132
3.802444 1.261154 30.751633
3.874527 1.368454 30.898605
3.947342 1.429184 30.958939
3.920517 1.429245 30.927444
3.971207 1.495651 30.929062
2.130203 0.471176 31.521896
2.466507 0.443680 31.093155
2.175613 0.090714 31.301315
2.218887 0.449509 31.404160
2.218979 0.455246 31.421524
2.293716 0.446365 31.316727
2.293808 0.440475 31.302689
2.393112 0.539017 31.219131
2.525803 0.539505 31.062454
2.589737 0.503891 31.015091
2.109360 0.472702 31.526871
2.607895 0.493942 31.816238
3.152695 0.920883 31.547806
3.235306 0.332321 31.052017
3.175278 0.736099 31.108139
3.131699 0.639511 31.061417
3.114578 0.686844 31.124191
3.116104 0.695419 31.156998
3.131943 0.802292 31.278458
3.098190 0.873642 31.413040
3.101791 0.866379 31.427872
3.024155 0.995346 31.458969
3.098251 0.881882 31.435715
3.096756 0.889969 31.443466
3.194412 0.917953 31.650375
3.738632 0.744858 31.693619
3.540665 0.642349 31.946457
3.725510 1.221878 31.930740
3.459732 1.413010 31.070541
3.457413 1.421982 31.081039
3.791275 1.213577 31.115921
3.743637 1.188034 31.325699
3.734848 1.195572 31.277145
3.750168 1.179733 31.355270
3.848404 1.186295 31.762589
0.875565 2.375687 30.090103
1.061203 2.217300 30.694809
