-5.197830 2.780350 4.129379
-5.193161 2.776566 4.132736
-5.198898 2.775284 4.147537
-5.193802 2.767227 4.144821
-5.229385 2.808304 4.139969
-5.228806 2.800705 4.140396
-5.223557 2.799454 4.139572
-5.216232 2.792557 4.141525
-5.213058 2.794876 4.125443
-5.205826 2.787125 4.126816
-5.214951 2.786545 4.143021
-5.209305 2.784622 4.142563
-5.205215 2.774979 4.180466
-5.201736 2.777481 4.164566
-5.202896 2.773422 4.169266
-5.193924 2.770248 4.166855
-5.195633 2.768997 4.184860
-5.241898 2.811935 4.172104
-5.219528 2.784286 4.164352
-5.218979 2.790543 4.158127
-5.232101 2.806290 4.156601
-5.232742 2.798904 4.162155
-5.226242 2.797501 4.156296
-5.238358 2.795914 4.182785
-5.223221 2.782639 4.186295
-5.221207 2.788925 4.175491
-5.229843 2.794876 4.171921
-5.235519 2.803818 4.172562
-5.213242 2.781845 4.177902
-5.210587 2.783768 4.161026
-5.181931 2.766129 4.154129
-5.183640 2.763412 4.151535
-5.179459 2.765366 4.129929
-5.173904 2.761337 4.132401
-5.157944 2.756332 4.137741
-5.165878 2.764969 4.126450
-5.178818 2.768356 4.137894
-5.157364 2.758804 4.149765
-5.162277 2.755142 4.145157
-5.167892 2.763535 4.143967
-5.149429 2.750595 4.143295
-5.154465 2.760849 4.133286
-5.125076 2.756088 4.134171
-5.127609 2.753738 4.127335
-5.140915 2.754776 4.143387
-5.142319 2.756912 4.140823
-5.128494 2.753769 4.150162
-5.132370 2.751389 4.148636
-5.182480 2.760880 4.187424
-5.183273 2.757370 4.160812
-5.159470 2.757339 4.167313
-5.161301 2.754959 4.159958
-5.169785 2.762131 4.161697
-5.186600 2.767258 4.159256
-5.180038 2.754349 4.182755
-5.186111 2.762650 4.174362
-5.183609 2.764908 4.172134
-5.171982 2.760544 4.179092
-5.166214 2.752518 4.181168
-5.162521 2.755142 4.183762
-5.147446 2.753281 4.174759
-5.145309 2.754807 4.157242
-5.131210 2.751846 4.166946
-5.138351 2.750259 4.172470
-5.244919 2.834274 4.142471
-5.246750 2.835403 4.141708
-5.238632 2.817459 4.140427
-5.236069 2.816269 4.139145
-5.241470 2.836838 4.126755
-5.241562 2.831009 4.127151
-5.244186 2.822159 4.156052
-5.240005 2.825241 4.141190
-5.238937 2.814133 4.155655
-5.248428 2.844223 4.145432
-5.248428 2.856918 4.132828
-5.245071 2.846695 4.129532
-5.245224 2.845932 4.136307
-5.248184 2.812607 4.182846
-5.242233 2.815903 4.162460
-5.248123 2.831894 4.158554
-5.247086 2.819992 4.172562
-5.217026 2.779037 4.213638
-5.207535 2.773209 4.218063
-5.201096 2.765182 4.198441
-5.198654 2.756943 4.190781
-5.190750 2.760391 4.195724
-5.209244 2.772110 4.195755
-5.209213 2.770004 4.189468
-5.217148 2.779068 4.193314
-5.188919 2.761246 4.206161
-5.210098 2.770309 4.213455
-5.246506 2.808517 4.206741
-5.232895 2.792618 4.188309
-5.224838 2.786301 4.191238
-5.245651 2.809219 4.187637
-5.238327 2.801743 4.189224
-5.239059 2.796402 4.206863
-5.224411 2.786514 4.211929
-5.225113 2.782272 4.209579
-5.233475 2.792130 4.207779
-5.238724 2.801376 4.208908
-5.210526 2.770981 4.237808
-5.191971 2.760483 4.219498
-5.217667 2.778519 4.233170
-5.197983 2.767166 4.222397
-5.188950 2.761063 4.246719
-5.188065 2.751328 4.249313
-5.193222 2.760544 4.243332
-5.207626 2.773026 4.238235
-5.197952 2.767136 4.242783
-5.247787 2.807419 4.245773
-5.241409 2.795670 4.229843
-5.234604 2.791245 4.226669
-5.227524 2.781540 4.232529
-5.225540 2.785599 4.230789
-5.240158 2.800278 4.227432
-5.247635 2.807602 4.225601
-5.234604 2.791153 4.247025
-5.240189 2.800125 4.247726
-5.181137 2.757767 4.217545
-5.177841 2.756393 4.212418
-5.185593 2.763474 4.189896
-5.176620 2.757309 4.193680
-5.165939 2.752762 4.199814
-5.170578 2.750443 4.202774
-5.167313 2.751785 4.218430
-5.151047 2.750809 4.190628
-5.180801 2.755875 4.248367
-5.187088 2.762375 4.228592
-5.172318 2.750198 4.226242
-5.177933 2.756241 4.232590
-5.166733 2.752029 4.239395
-5.249741 2.818008 4.189438
-5.005051 2.838394 4.215530
-5.107529 2.754990 4.147568
-5.096939 2.750992 4.145035
-5.106339 2.754898 4.134781
-5.104233 2.757278 4.131424
-5.096085 2.753006 4.125046
-5.094254 2.753952 4.143356
-5.080887 2.759750 4.151291
-5.079880 2.759537 4.130997
-5.076401 2.762802 4.136490
-5.077408 2.762283 4.130234
-5.075790 2.756210 4.138016
-5.074539 2.758072 4.135178
-5.093246 2.751480 4.144699
-5.073837 2.759598 4.150223
-5.071457 2.756393 4.154617
-5.111618 2.752213 4.162827
-5.103897 2.750534 4.163925
-5.100357 2.750748 4.163864
-5.091568 2.752518 4.179031
-5.085861 2.756363 4.165543
-5.066696 2.759628 4.168808
-5.073776 2.754318 4.160782
-5.075577 2.758621 4.159744
-5.063644 2.758591 4.164383
-5.071213 2.751907 4.183121
-5.068466 2.754745 4.174210
-5.048264 2.768356 4.154495
-5.037308 2.776291 4.150650
-5.059647 2.764938 4.134659
-5.057632 2.764938 4.126907
-5.050217 2.770615 4.126480
-5.054337 2.767319 4.126572
-5.038254 2.776169 4.128372
-5.042068 2.773148 4.130478
-5.055496 2.763779 4.147110
-5.041367 2.772507 4.154282
-5.041641 2.772476 4.141373
-5.005844 2.809067 4.154129
-5.018448 2.792526 4.138992
-5.027542 2.783981 4.128738
-5.027969 2.784927 4.126083
-5.029984 2.781937 4.137314
-5.019485 2.793045 4.134567
-5.013351 2.795456 4.127396
-5.005478 2.812485 4.131180
-5.009933 2.804031 4.132401
-5.010025 2.804489 4.128677
-5.004257 2.808945 4.130325
-5.018814 2.792648 4.155960
-5.024002 2.795456 4.143600
-5.027908 2.784378 4.153397
-5.014481 2.796616 4.152786
-5.010666 2.804428 4.154984
-5.049026 2.766251 4.187180
-5.053879 2.762894 4.167770
-5.058029 2.763412 4.157700
-5.049515 2.768295 4.156723
-5.040451 2.771835 4.162369
-5.056046 2.761520 4.180496
-5.040756 2.771988 4.184708
-5.040329 2.771530 4.177841
-5.036728 2.776382 4.173233
-5.043228 2.769302 4.182846
-5.017227 2.799362 4.179581
-5.019363 2.792435 4.162491
-5.029495 2.785294 4.157852
-5.028885 2.781326 4.158371
-5.015549 2.796677 4.170547
-5.011307 2.804581 4.160294
-5.020096 2.792557 4.185928
-5.029037 2.785538 4.178879
-5.020493 2.793594 4.179398
-5.031052 2.782516 4.182205
-5.013199 2.805862 4.179092
-5.007645 2.809219 4.178207
-5.005936 2.813004 4.155991
-5.005508 2.817673 4.134445
-5.004196 2.833725 4.183334
-5.001114 2.824265 4.163437
-5.007248 2.818649 4.157852
-5.000320 2.833633 4.162308
-5.002396 2.832718 4.159805
-5.008896 2.819595 4.181290
-5.001175 2.826157 4.174210
-5.008652 2.815720 4.182816
-5.000900 2.847855 4.186325
-5.065475 2.753159 4.216080
-5.069351 2.750168 4.206131
-5.067825 2.754410 4.195816
-5.073563 2.754715 4.189163
-5.062820 2.759720 4.189499
-5.066147 2.756546 4.242264
-5.069229 2.750046 4.230667
-5.073898 2.753647 4.220291
-5.064255 2.757858 4.224136
-5.066147 2.753494 4.238907
-5.042740 2.769760 4.213058
-5.040298 2.771744 4.206467
-5.057571 2.762466 4.191391
-5.052597 2.762192 4.188828
-5.035629 2.776443 4.195602
-5.040665 2.771896 4.202713
-5.048752 2.764389 4.217850
-5.058304 2.759781 4.209793
-5.061447 2.759811 4.207108
-5.050644 2.761124 4.209366
-5.054672 2.760239 4.203934
-5.020981 2.792679 4.209518
-5.020462 2.793564 4.201492
-5.029739 2.784134 4.188858
-5.029129 2.781448 4.202713
-5.028000 2.784561 4.202530
-5.017014 2.796951 4.201462
-5.010086 2.809372 4.202744
-5.012558 2.804672 4.192001
-5.015213 2.797409 4.202408
-5.014023 2.806320 4.201920
-5.040970 2.770340 4.242813
-5.058273 2.759872 4.232956
-5.054733 2.760330 4.228592
-5.051834 2.761765 4.232590
-5.040726 2.772018 4.227371
-5.036240 2.776596 4.219070
-5.039841 2.771500 4.228287
-5.036087 2.776688 4.242172
-5.015457 2.807114 4.247604
-5.021652 2.792801 4.233047
-5.029373 2.781601 4.225143
-5.030441 2.783524 4.220200
-5.020370 2.793533 4.223618
-5.028488 2.785080 4.227585
-5.017410 2.797318 4.231979
-5.015793 2.798050 4.227554
-5.011246 2.809494 4.226578
-5.014481 2.806564 4.224503
-5.014206 2.805252 4.224045
-5.021561 2.794174 4.246902
-5.030991 2.782486 4.248795
-5.007187 2.835403 4.207993
-5.009720 2.816818 4.208328
-5.003677 2.826309 4.198807
-5.005386 2.824234 4.195419
-5.002487 2.834579 4.200394
-5.001633 2.834946 4.187973
-5.010452 2.820236 4.204636
-5.030136 2.859909 4.215714
-5.004654 2.849991 4.211655
-5.003250 2.866074 4.216599
-5.004807 2.843033 4.245834
-5.012650 2.821701 4.228775
-5.005630 2.826462 4.223099
-5.007736 2.824387 4.226669
-5.008469 2.836136 4.231308
-5.002792 2.842880 4.221390
-5.005417 2.836746 4.233353
-5.009232 2.826675 4.248520
-5.011734 2.818832 4.234695
-5.006149 2.839554 4.241196
-5.006210 2.867783 4.241379
-5.001877 2.852066 4.222885
-5.003189 2.863510 4.225510
-5.007126 2.851395 4.236008
-5.238083 2.958298 4.205917
-5.249924 2.919846 4.142410
-5.246902 2.935623 4.139633
-5.248703 2.914810 4.125565
-5.249130 2.933853 4.156876
-5.240097 2.954208 4.155624
-5.235825 2.958786 4.151566
-5.242081 2.941177 4.127670
-5.238113 2.955795 4.138077
-5.234970 2.957565 4.127396
-5.236374 2.956558 4.133102
-5.233566 2.961533 4.134628
-5.242569 2.943253 4.146866
-5.233963 2.963150 4.154190
-5.221603 2.981369 4.145462
-5.223495 2.974777 4.126450
-5.223587 2.975174 4.146988
-5.213303 2.985489 4.141068
-5.212997 2.983566 4.137894
-5.218582 2.983780 4.129227
-5.202744 2.994583 4.136215
-5.192307 2.997360 4.130234
-5.193497 2.995621 4.155899
-5.238266 2.957199 4.181076
-5.243393 2.946579 4.165085
-5.238297 2.956161 4.156418
-5.243881 2.948471 4.184586
-5.241745 2.952866 4.173660
-5.236710 2.959579 4.176010
-5.233932 2.963120 4.175186
-5.228714 2.975815 4.176926
-5.223801 2.976089 4.167160
-5.225662 2.978226 4.160568
-5.213120 2.984726 4.183578
-5.214218 2.981888 4.163620
-5.213150 2.984970 4.162399
-5.202774 2.994797 4.156937
-5.194870 2.992538 4.182419
-5.202438 2.993484 4.178970
-5.190262 2.998184 4.177780
-5.175949 2.999313 4.178513
-5.234207 2.964279 4.216415
-5.243790 2.951126 4.211441
-5.243607 2.951370 4.191513
-5.237839 2.958511 4.201492
-5.234207 2.964188 4.195358
-5.243973 2.948959 4.205276
-5.223404 2.974686 4.210464
-5.223740 2.975876 4.188370
-5.196152 2.990189 4.208572
-5.215378 2.980331 4.189285
-5.189865 2.996719 4.200058
-5.201889 2.991409 4.201706
-5.216812 2.976639 4.216263
-5.212845 2.983902 4.205368
-5.233871 2.962936 4.238754
-5.242966 2.951675 4.232742
-5.243729 2.947861 4.227371
-5.238022 2.959335 4.230728
-5.239426 2.953812 4.229111
-5.243637 2.947678 4.248795
-5.222946 2.972946 4.233078
-5.188889 2.993088 4.245468
-5.212509 2.982529 4.227646
-5.189468 2.995255 4.222397
-5.201462 2.989914 4.224136
-5.218063 2.974472 4.242508
-5.200760 2.987198 4.247665
-5.197647 2.985641 4.236069
-5.177109 2.998001 4.204086
-5.157608 2.997940 4.203934
-5.175949 2.995621 4.246170
-5.178543 2.994095 4.231186
-5.176743 2.998550 4.222458
-5.158707 2.996964 4.229416
-5.163223 2.998367 4.246658
-5.139175 2.999466 4.227890
-5.081985 2.997940 4.203506
-5.002274 2.891159 4.129776
-5.001724 2.932571 4.129227
-5.002426 2.924484 4.176102
-5.008560 2.936569 4.162460
-5.080795 2.999985 4.177597
-5.024948 2.966049 4.146500
-5.010941 2.949539 4.142349
-5.006943 2.943405 4.133957
-5.002090 2.940323 4.130386
-5.017044 2.957626 4.139938
-5.018875 2.959610 4.127457
-5.060989 2.995529 4.155197
-5.033401 2.977432 4.138016
-5.059525 2.999985 4.128098
-5.043777 2.990891 4.134232
-5.041245 2.990738 4.131302
-5.042191 2.985367 4.135971
-5.030624 2.974503 4.148666
-5.022995 2.973434 4.127457
-5.026413 2.961441 4.173752
-5.018051 2.952988 4.163498
-5.010300 2.937607 4.158340
-5.009689 2.940720 4.157974
-5.022354 2.957932 4.166153
-5.018845 2.959488 4.159714
-5.030685 2.966568 4.159256
-5.018631 2.942490 4.187393
-5.014236 2.940994 4.183762
-5.062149 2.993881 4.180893
-5.039780 2.977310 4.170822
-5.043472 2.982346 4.162369
-5.039291 2.984055 4.157700
-5.056259 2.995621 4.166183
-5.052750 2.991440 4.162674
-5.036911 2.976089 4.185287
-5.036819 2.974869 4.175461
-5.002060 2.899094 4.205643
-5.000320 2.887009 4.209671
-5.011551 2.925980 4.218094
-5.006699 2.918686 4.201309
-5.007401 2.918808 4.193985
-5.007126 2.924789 4.202072
-5.007889 2.928452 4.190994
-5.009995 2.932083 4.189774
-5.008713 2.928818 4.204697
-5.005356 2.892136 4.238785
-5.002274 2.881607 4.221634
-5.007309 2.902115 4.232315
-5.001480 2.905289 4.219955
-5.006393 2.883987 4.247421
-5.004837 2.878616 4.248581
-5.020187 2.926254 4.249344
-5.004074 2.908737 4.222977
-5.011002 2.925034 4.227585
-5.012711 2.928452 4.223251
-5.012955 2.922043 4.220901
-5.013168 2.919327 4.246811
-5.008865 2.908981 4.249161
-5.020645 2.932755 4.238083
-5.068436 2.992386 4.218674
-5.063431 2.991165 4.207199
-5.071274 2.999435 4.202042
-5.084091 2.999039 4.241928
-5.083267 2.995316 4.229874
-5.070816 2.997787 4.224564
-5.076950 2.992844 4.247269
-5.064804 2.987076 4.234390
-5.031265 2.958511 4.217850
-5.025406 2.946457 4.215317
-5.022903 2.952957 4.195694
-5.014725 2.945633 4.192184
-5.027908 2.956161 4.201523
-5.026596 2.958237 4.191788
-5.017899 2.941269 4.209091
-5.013931 2.942947 4.215591
-5.053604 2.986984 4.215530
-5.041794 2.975174 4.201645
-5.039230 2.971634 4.188553
-5.044876 2.978317 4.189377
-5.054886 2.990921 4.191086
-5.061203 2.991928 4.190994
-5.046097 2.976059 4.215500
-5.035629 2.971634 4.210129
-5.045975 2.977158 4.203629
-5.045547 2.975327 4.216080
-5.036606 2.958847 4.244400
-5.035294 2.952255 4.246017
-5.030777 2.955246 4.245041
-5.029282 2.952072 4.228714
-5.027512 2.952957 4.227921
-5.021774 2.941513 4.234665
-5.047562 2.971268 4.243118
-5.046707 2.975510 4.227890
-5.051712 2.980545 4.242172
-5.051987 2.977066 4.236435
-5.202225 2.748917 4.339798
-5.189560 2.747696 4.363022
-5.184616 2.749496 4.268997
-5.177353 2.748611 4.272232
-5.166122 2.741348 4.270248
-5.155411 2.747482 4.266647
-5.150070 2.743973 4.259842
-5.137131 2.744370 4.264603
-5.133255 2.739639 4.255051
-5.135880 2.737930 4.255234
-5.139938 2.745529 4.257797
-5.140457 2.745102 4.277695
-5.133041 2.739517 4.277359
-5.135513 2.737595 4.279800
-5.177475 2.748917 4.308395
-5.180099 2.747665 4.295151
-5.179916 2.746994 4.287674
-5.170517 2.749191 4.296371
-5.157150 2.746231 4.285141
-5.163101 2.738571 4.292648
-5.157089 2.741074 4.304703
-5.171524 2.742538 4.303360
-5.159073 2.744827 4.303421
-5.133865 2.736069 4.303329
-5.142075 2.743942 4.296371
-5.152939 2.742935 4.282700
-5.137833 2.743759 4.296219
-5.131516 2.738693 4.298630
-5.190262 2.743515 4.362839
-5.195450 2.742569 4.359207
-5.186844 2.744919 4.340225
-5.175186 2.744766 4.338058
-5.183395 2.746323 4.317734
-5.172562 2.747726 4.314590
-5.160263 2.743942 4.322739
-5.159866 2.735489 4.314835
-5.165573 2.739395 4.321091
-5.160202 2.739883 4.327499
-5.157394 2.733200 4.337784
-5.174698 2.746201 4.332748
-5.162674 2.742264 4.340622
-5.160294 2.736588 4.339401
-5.145950 2.741135 4.333176
-5.132004 2.734329 4.326706
-5.144119 2.742477 4.314621
-5.136948 2.741196 4.326767
-5.128891 2.737320 4.319077
-5.129959 2.738083 4.342178
-5.125534 2.735519 4.338913
-5.178268 2.743607 4.370255
-5.187363 2.749283 4.344803
-5.176620 2.744797 4.351273
-5.164597 2.740829 4.359177
-5.164017 2.738205 4.349808
-5.173508 2.741257 4.368179
-5.166977 2.737137 4.372787
-5.150620 2.737839 4.369308
-5.154739 2.733658 4.357529
-5.129929 2.732407 4.349991
-5.148148 2.739578 4.351364
-5.134964 2.737289 4.356552
-5.127731 2.740555 4.348160
-5.154495 2.730515 4.360428
-5.127975 2.730545 4.373398
-5.135330 2.735367 4.363510
-5.130234 2.738785 4.366043
-5.109390 2.738327 4.343155
-5.119888 2.746140 4.274673
-5.117172 2.743973 4.276138
-5.120651 2.745743 4.253250
-5.115982 2.743820 4.252090
-5.107895 2.743027 4.262253
-5.105240 2.747726 4.257614
-5.113815 2.745193 4.267899
-5.112839 2.741531 4.271255
-5.085739 2.747421 4.271866
-5.091751 2.746262 4.263840
-5.072739 2.748550 4.250107
-5.120438 2.742661 4.298843
-5.119949 2.746017 4.295181
-5.112320 2.741043 4.295700
-5.111526 2.745316 4.289871
-5.105789 2.746933 4.289078
-5.107010 2.742538 4.283981
-5.105362 2.745346 4.309494
-5.106613 2.742355 4.306229
-5.085526 2.747299 4.294205
-5.090958 2.745499 4.287949
-5.124893 2.742538 4.330704
-5.110733 2.737869 4.333847
-5.124954 2.740555 4.320633
-5.110855 2.739700 4.319412
-5.122147 2.744461 4.313248
-5.103653 2.740738 4.326370
-5.105545 2.745163 4.319992
-5.095749 2.749100 4.317032
-5.097885 2.747604 4.335281
-5.099899 2.745438 4.329575
-5.089767 2.744461 4.336868
-5.091660 2.746231 4.313492
-5.085190 2.747116 4.316483
-5.083664 2.746292 4.337845
-5.068680 2.749710 4.329544
-5.104263 2.743179 4.369400
-5.122726 2.734024 4.359329
-5.100754 2.745621 4.352707
-5.102280 2.740005 4.347916
-5.105026 2.743027 4.350784
-5.094162 2.745468 4.349472
-5.099533 2.738541 4.368362
-5.107010 2.736069 4.366165
-5.105057 2.738876 4.362350
-5.089920 2.745560 4.370438
-5.068710 2.749741 4.354568
-5.080887 2.747757 4.369766
-5.088394 2.743149 4.360672
-5.082260 2.745529 4.359390
-5.198593 2.741074 4.457840
-5.193283 2.744980 4.400558
-5.193375 2.742325 4.385727
-5.191330 2.746414 4.381851
-5.191147 2.738602 4.380753
-5.206741 2.747940 4.433426
-5.205093 2.749191 4.414200
-5.194809 2.743820 4.419846
-5.195938 2.738998 4.409653
-5.196548 2.741104 4.408585
-5.198807 2.740524 4.432175
-5.192062 2.736954 4.429459
-5.187210 2.734909 4.402634
-5.171829 2.737778 4.398361
-5.180252 2.742142 4.388809
-5.166702 2.739334 4.377609
-5.170120 2.735947 4.395706
-5.169052 2.737686 4.395828
-5.134689 2.735641 4.402756
-5.152512 2.728653 4.383865
-5.151260 2.731796 4.377457
-5.140579 2.732742 4.384964
-5.152298 2.736649 4.388321
-5.134445 2.735245 4.387466
-5.133041 2.736832 4.383652
-5.147873 2.729996 4.397537
-5.125595 2.728378 4.396561
-5.183517 2.739761 4.427200
-5.173965 2.734268 4.418167
-5.182236 2.740738 4.407516
-5.169571 2.737228 4.416367
-5.183456 2.731400 4.424698
-5.171341 2.735947 4.435471
-5.170670 2.734909 4.428940
-5.146561 2.730606 4.431168
-5.144577 2.728256 4.417709
-5.150314 2.726608 4.407242
-5.143753 2.731522 4.407883
-5.133286 2.732315 4.417984
-5.138016 2.733353 4.419907
-5.154221 2.735214 4.407059
-5.148514 2.724960 4.431015
-5.156204 2.733810 4.425888
-5.143539 2.728928 4.429092
-5.202103 2.739182 4.455093
-5.208328 2.746780 4.452805
-5.196365 2.742661 4.439255
-5.225662 2.748642 4.495865
-5.223343 2.743912 4.474289
-5.222824 2.749649 4.472549
-5.215652 2.736771 4.493179
-5.218369 2.748978 4.479202
-5.210037 2.745499 4.472122
-5.205307 2.737930 4.478073
-5.199448 2.740372 4.478287
-5.211533 2.744400 4.491837
-5.201828 2.738693 4.496902
-5.188461 2.736130 4.485367
-5.186935 2.737259 4.465714
-5.180038 2.732010 4.464371
-5.183609 2.732498 4.445389
-5.177353 2.732895 4.440994
-5.180557 2.728714 4.447617
-5.157578 2.732834 4.445541
-5.185471 2.738327 4.446091
-5.177170 2.729080 4.463089
-5.173660 2.734268 4.453934
-5.159714 2.731277 4.464340
-5.168900 2.731277 4.459152
-5.150864 2.728622 4.453415
-5.142624 2.727219 4.439133
-5.133713 2.731369 4.449722
-5.139267 2.732437 4.439713
-5.136124 2.728989 4.448288
-5.141525 2.730850 4.458298
-5.146469 2.723068 4.454605
-5.139267 2.725449 4.459396
-5.177414 2.731552 4.492325
-5.175552 2.732925 4.473099
-5.177811 2.726151 4.470657
-5.162033 2.729599 4.482925
-5.171494 2.726120 4.481491
-5.173721 2.722366 4.492599
-5.182266 2.731430 4.488144
-5.158737 2.725174 4.498550
-5.168808 2.729660 4.490616
-5.144821 2.728470 4.497330
-5.153702 2.727646 4.476761
-5.144363 2.721115 4.478226
-5.142746 2.729904 4.478287
-5.133133 2.729172 4.480759
-5.130966 2.729080 4.468918
-5.136978 2.724228 4.480667
-5.093887 2.735489 4.455429
-5.110916 2.738602 4.403488
-5.117050 2.730972 4.400253
-5.120377 2.732742 4.380173
-5.105942 2.735123 4.390427
-5.104385 2.740799 4.381607
-5.108444 2.740311 4.385330
-5.095596 2.740280 4.389359
-5.098068 2.737747 4.389969
-5.077835 2.743118 4.401291
-5.088638 2.743423 4.389542
-5.079971 2.744278 4.380234
-5.087357 2.742172 4.384903
-5.083786 2.745651 4.390152
-5.076431 2.749344 4.377426
-5.067673 2.748795 4.378769
-5.066910 2.748093 4.403275
-5.102127 2.736221 4.430618
-5.123825 2.726700 4.420242
-5.115280 2.730026 4.421707
-5.104477 2.733780 4.414352
-5.114243 2.736343 4.420670
-5.103470 2.738205 4.412247
-5.095474 2.736343 4.410690
-5.095901 2.739487 4.409683
-5.094864 2.736008 4.433182
-5.079147 2.747025 4.435410
-5.084702 2.741806 4.415726
-5.086258 2.741165 4.409195
-5.080582 2.745743 4.411880
-5.075943 2.749222 4.418015
-5.076736 2.748184 4.408920
-5.084183 2.739243 4.432663
-5.077682 2.745834 4.433823
-5.076797 2.742569 4.423386
-5.065292 2.746567 4.427078
-5.111618 2.728073 4.464767
-5.117813 2.733749 4.458969
-5.113724 2.729202 4.443466
-5.122452 2.725479 4.444412
-5.108322 2.732986 4.451614
-5.103256 2.732620 4.438583
-5.116684 2.734634 4.438980
-5.103775 2.737045 4.443832
-5.103195 2.732620 4.463974
-5.081955 2.745102 4.453354
-5.079636 2.742783 4.444565
-5.064896 2.746231 4.452072
-5.075302 2.741776 4.445114
-5.076981 2.746964 4.440414
-5.084396 2.739456 4.458176
-5.075485 2.741867 4.468430
-5.074783 2.745895 4.455856
-5.120804 2.731613 4.498459
-5.119339 2.732681 4.478622
-5.121414 2.724503 4.468918
-5.111252 2.731949 4.474930
-5.104324 2.736252 4.475662
-5.115128 2.730270 4.497665
-5.123978 2.729141 4.488419
-5.112015 2.728287 4.488388
-5.120895 2.724045 4.493942
-5.101974 2.731491 4.488327
-5.083511 2.743881 4.494583
-5.092728 2.734879 4.477615
-5.083115 2.744217 4.473434
-5.083878 2.738998 4.483170
-5.074905 2.746017 4.479935
-5.076950 2.743454 4.474472
-5.076736 2.745193 4.471634
-5.065231 2.746597 4.477798
-5.076340 2.742325 4.492447
-5.268875 2.892319 4.341568
-5.268021 2.841690 4.332321
-5.251053 2.804825 4.303391
-5.261185 2.830948 4.279404
-5.260178 2.835068 4.272537
-5.251907 2.812881 4.254135
-5.260025 2.830795 4.255417
-5.260147 2.835220 4.252121
-5.252609 2.813339 4.278366
-5.252701 2.815536 4.267075
-5.257401 2.824692 4.268600
-5.265762 2.874466 4.280441
-5.266129 2.856064 4.259689
-5.266373 2.849442 4.257828
-5.263657 2.845230 4.255234
-5.267685 2.867905 4.265457
-5.267075 2.871017 4.263931
-5.265091 2.871719 4.261246
-5.266251 2.855850 4.280045
-5.264389 2.844620 4.274796
-5.263046 2.832809 4.310226
-5.257919 2.824234 4.288528
-5.253647 2.814743 4.286423
-5.261765 2.833817 4.291122
-5.259476 2.823013 4.307266
-5.255173 2.812515 4.301407
-5.255539 2.813339 4.304733
-5.263229 2.830460 4.302780
-5.269211 2.871445 4.312180
-5.267624 2.849533 4.281754
-5.264999 2.844101 4.294662
-5.267838 2.871445 4.288223
-5.267380 2.868027 4.286392
-5.268387 2.849960 4.306076
-5.267685 2.854721 4.298843
-5.269333 2.866501 4.304581
-5.257889 2.811478 4.343369
-5.253860 2.802597 4.341385
-5.257156 2.812057 4.324875
-5.252090 2.803940 4.322769
-5.256638 2.812454 4.324112
-5.260544 2.811661 4.372482
-5.259689 2.811264 4.348038
-5.252121 2.793961 4.371384
-5.259018 2.810562 4.362869
-5.255203 2.801620 4.360672
-5.266708 2.842758 4.313187
-5.265549 2.830917 4.327835
-5.261368 2.821579 4.325638
-5.265549 2.829788 4.326035
-5.271805 2.864487 4.343094
-5.269943 2.853012 4.316727
-5.270645 2.865463 4.323715
-5.269943 2.852890 4.337509
-5.270737 2.849258 4.329330
-5.270950 2.871170 4.335922
-5.270096 2.840012 4.371567
-5.261642 2.821274 4.346146
-5.268814 2.841019 4.352188
-5.266830 2.829880 4.350113
-5.265854 2.830612 4.348343
-5.262985 2.820236 4.365433
-5.268112 2.829971 4.374222
-5.267166 2.829575 4.367599
-5.272659 2.870956 4.359726
-5.271713 2.851517 4.356155
-5.272202 2.849167 4.353256
-5.273300 2.863297 4.362106
-5.268173 2.897263 4.336594
-5.265457 2.894577 4.271774
-5.267471 2.881058 4.273605
-5.267014 2.881485 4.253647
-5.265305 2.895340 4.263351
-5.253769 2.929855 4.272659
-5.260208 2.907394 4.255753
-5.263809 2.907944 4.254654
-5.263138 2.909500 4.253036
-5.252396 2.929977 4.261002
-5.255264 2.928818 4.250351
-5.256332 2.923904 4.260452
-5.260086 2.906937 4.277603
-5.262253 2.910080 4.274612
-5.267197 2.896866 4.311356
-5.268021 2.880569 4.293472
-5.265793 2.894882 4.283249
-5.265610 2.901535 4.283463
-5.269516 2.879349 4.312271
-5.266251 2.876511 4.300278
-5.266190 2.894485 4.303360
-5.265091 2.895828 4.296921
-5.254257 2.927414 4.311813
-5.262894 2.909500 4.294418
-5.253830 2.929703 4.293198
-5.253983 2.926590 4.287003
-5.252365 2.929886 4.282486
-5.260422 2.908371 4.297867
-5.255417 2.928421 4.311874
-5.252365 2.929947 4.303940
-5.267715 2.882675 4.338486
-5.270432 2.878616 4.331894
-5.267319 2.881088 4.318130
-5.267075 2.895432 4.320480
-5.267899 2.893143 4.321945
-5.254501 2.928238 4.336716
-5.260727 2.909775 4.318314
-5.263535 2.908920 4.314285
-5.252487 2.930466 4.325119
-5.260727 2.909775 4.339951
-5.264481 2.908127 4.333908
-5.255051 2.928757 4.333237
-5.268570 2.896317 4.369553
-5.268570 2.886246 4.357224
-5.272049 2.877304 4.350693
-5.267838 2.895889 4.344986
-5.272598 2.876785 4.370956
-5.269211 2.897232 4.362106
-5.269608 2.891647 4.361526
-5.252762 2.931625 4.367599
-5.265732 2.907089 4.353165
-5.256241 2.927780 4.352585
-5.252609 2.931046 4.346298
-5.266373 2.906540 4.373398
-5.261185 2.911697 4.360123
-5.257706 2.926559 4.371719
-5.253433 2.929977 4.362564
-5.278030 2.833786 4.467758
-5.261978 2.808273 4.401291
-5.257339 2.799850 4.400040
-5.260727 2.809250 4.381760
-5.256393 2.800644 4.380142
-5.251175 2.791641 4.400314
-5.254410 2.793320 4.394821
-5.263443 2.810532 4.395462
-5.265305 2.810226 4.419266
-5.257919 2.791794 4.417404
-5.252609 2.790543 4.419724
-5.263474 2.807083 4.420609
-5.259628 2.798141 4.418381
-5.271103 2.828812 4.397171
-5.265701 2.818069 4.404129
-5.264267 2.819168 4.384811
-5.271988 2.838577 4.390244
-5.268143 2.828781 4.387405
-5.275467 2.861496 4.401505
-5.272934 2.847946 4.386978
-5.273575 2.849228 4.377365
-5.272507 2.850845 4.376205
-5.273514 2.871323 4.384201
-5.275009 2.861954 4.380936
-5.274277 2.853409 4.404373
-5.273697 2.849869 4.395737
-5.276352 2.848221 4.400497
-5.274338 2.836655 4.429642
-5.269913 2.827408 4.406326
-5.272202 2.828995 4.421555
-5.272629 2.837997 4.410599
-5.271408 2.826248 4.425674
-5.267136 2.816940 4.423538
-5.276474 2.871201 4.432541
-5.275986 2.848099 4.414017
-5.277054 2.860275 4.420731
-5.275894 2.874191 4.409042
-5.276169 2.870377 4.407455
-5.276871 2.847366 4.434189
-5.278946 2.847366 4.423843
-5.274857 2.855942 4.424301
-5.277206 2.873154 4.428635
-5.251663 2.774307 4.465195
-5.251633 2.778152 4.455856
-5.270767 2.808304 4.465836
-5.259933 2.791367 4.441177
-5.255081 2.788712 4.437912
-5.267807 2.809433 4.442703
-5.264999 2.805893 4.439957
-5.260788 2.797226 4.438217
-5.261765 2.791031 4.465134
-5.256546 2.787582 4.457413
-5.262589 2.795822 4.457291
-5.267044 2.804337 4.458725
-5.254318 2.776108 4.495560
-5.253098 2.777054 4.475540
-5.254196 2.773514 4.488663
-5.268814 2.802872 4.499649
-5.257919 2.786484 4.477158
-5.264359 2.794479 4.476547
-5.267929 2.803604 4.479141
-5.265152 2.793839 4.497177
-5.264206 2.790359 4.488693
-5.258987 2.785660 4.497452
-5.271439 2.808548 4.490646
-5.277115 2.827499 4.468582
-5.274887 2.823502 4.463974
-5.274979 2.828049 4.444778
-5.268845 2.815598 4.442703
-5.272995 2.824966 4.444962
-5.275925 2.835434 4.449020
-5.271103 2.813919 4.461258
-5.280502 2.870499 4.467148
-5.279160 2.845596 4.452621
-5.278793 2.858902 4.439835
-5.280258 2.847427 4.448166
-5.279709 2.871201 4.446732
-5.276382 2.862320 4.440933
-5.280960 2.857224 4.458389
-5.278214 2.870010 4.456497
-5.279984 2.869675 4.455276
-5.281784 2.843491 4.492325
-5.279831 2.832352 4.486923
-5.276627 2.822189 4.483292
-5.272446 2.812820 4.481033
-5.279160 2.827042 4.492447
-5.281723 2.869492 4.487167
-5.282089 2.856277 4.478470
-5.282761 2.846634 4.471664
-5.281357 2.869675 4.479660
-5.283951 2.854843 4.497665
-5.284409 2.846481 4.495865
-5.278854 2.872757 4.476456
-5.281021 2.844162 4.471725
-5.250412 2.938889 4.466202
-5.267288 2.905746 4.393295
-5.269882 2.896408 4.393784
-5.273972 2.875687 4.390305
-5.271255 2.890366 4.380478
-5.269272 2.889206 4.376602
-5.270432 2.895523 4.388687
-5.272629 2.889236 4.399826
-5.269608 2.890610 4.397354
-5.258194 2.926102 4.392197
-5.261215 2.911697 4.381943
-5.252884 2.932236 4.388962
-5.253983 2.930618 4.387436
-5.261612 2.913376 4.402451
-5.270370 2.903275 4.431808
-5.273514 2.888474 4.419937
-5.270554 2.896896 4.418564
-5.269058 2.904312 4.412186
-5.271530 2.894913 4.414658
-5.270126 2.892838 4.417465
-5.270889 2.895920 4.436874
-5.255356 2.931656 4.437088
-5.253067 2.932999 4.410233
-5.259048 2.925369 4.412277
-5.254684 2.931137 4.412216
-5.261917 2.914810 4.423264
-5.253342 2.934128 4.431320
-5.259659 2.924820 4.432785
-5.272812 2.901138 4.462570
-5.273849 2.896561 4.466873
-5.275589 2.886856 4.438553
-5.272324 2.901749 4.450668
-5.273453 2.895828 4.441757
-5.272110 2.898544 4.438278
-5.278397 2.884659 4.456314
-5.271591 2.899002 4.456375
-5.256332 2.931961 4.461807
-5.262070 2.915512 4.444778
-5.253677 2.935593 4.452164
-5.261978 2.923019 4.451157
-5.262802 2.918564 4.464310
-5.272354 2.902237 4.498184
-5.279465 2.883804 4.476486
-5.271805 2.899887 4.477890
-5.274551 2.900101 4.469315
-5.281021 2.882553 4.496109
-5.279648 2.876022 4.495956
-5.275528 2.899124 4.489517
-5.276016 2.895981 4.490707
-5.273880 2.901138 4.488449
-5.257095 2.932419 4.486771
-5.264389 2.921066 4.469498
-5.254074 2.937119 4.473038
-5.267197 2.918869 4.487381
-5.263138 2.919815 4.485489
-5.254379 2.938431 4.494186
-5.251389 2.939346 4.491714
-5.254807 2.941574 4.468796
-5.239243 2.953934 4.340347
-5.223892 2.773697 4.328354
-5.209915 2.771255 4.276352
-5.218582 2.777695 4.272903
-5.196976 2.758926 4.265457
-5.190903 2.759628 4.264786
-5.212173 2.770767 4.261398
-5.208450 2.772354 4.257645
-5.218185 2.778061 4.252914
-5.199814 2.765762 4.261002
-5.201370 2.764603 4.279587
-5.248245 2.806992 4.265671
-5.241928 2.796280 4.254135
-5.228043 2.782150 4.256882
-5.224991 2.785934 4.251877
-5.243423 2.796158 4.277847
-5.235580 2.790359 4.266281
-5.230515 2.781326 4.279861
-5.227280 2.784225 4.269547
-5.241348 2.799240 4.266769
-5.222885 2.774521 4.308884
-5.220749 2.776108 4.290848
-5.229721 2.774612 4.287735
-5.233444 2.780289 4.302658
-5.218338 2.768417 4.306717
-5.199417 2.758133 4.288559
-5.192093 2.758713 4.283859
-5.211685 2.769974 4.294815
-5.215378 2.769485 4.283920
-5.218643 2.764236 4.303513
-5.201645 2.757584 4.311844
-5.193802 2.757462 4.302414
-5.202438 2.763779 4.298874
-5.244034 2.797134 4.304611
-5.236801 2.789444 4.285355
-5.228378 2.783340 4.288742
-5.249527 2.805954 4.284592
-5.242996 2.797989 4.285263
-5.246628 2.794876 4.300430
-5.238724 2.788010 4.303574
-5.229385 2.782578 4.308212
-5.179550 2.752945 4.278671
-5.180557 2.754257 4.270248
-5.178207 2.755966 4.252670
-5.167679 2.751328 4.258713
-5.169479 2.750015 4.277023
-5.183853 2.751846 4.307510
-5.181656 2.753433 4.289505
-5.220810 2.767624 4.329849
-5.235550 2.779739 4.326035
-5.231155 2.781235 4.326736
-5.215378 2.767227 4.331680
-5.209579 2.755783 4.320908
-5.203690 2.762833 4.318069
-5.195358 2.756302 4.321243
-5.213913 2.768295 4.312698
-5.206863 2.760544 4.334915
-5.205399 2.755905 4.334122
-5.197525 2.754745 4.339401
-5.246719 2.795090 4.342850
-5.244980 2.796371 4.324142
-5.239120 2.787613 4.323837
-5.248184 2.794785 4.324203
-5.241470 2.785843 4.341721
-5.242050 2.784653 4.338333
-5.239700 2.778793 4.373062
-5.238235 2.778824 4.349075
-5.224625 2.765945 4.352097
-5.225357 2.772598 4.347397
-5.232651 2.780106 4.345718
-5.234421 2.778763 4.364426
-5.235794 2.775742 4.365402
-5.227768 2.770828 4.365341
-5.218491 2.764908 4.369675
-5.208633 2.759262 4.353622
-5.207840 2.755203 4.357407
-5.199722 2.753128 4.357559
-5.217422 2.765732 4.350021
-5.209671 2.758438 4.373306
-5.248245 2.793900 4.361832
-5.249710 2.794662 4.348068
-5.243027 2.784683 4.360733
-5.185684 2.750504 4.326004
-5.017227 2.841080 4.328659
-5.094589 2.750137 4.256577
-5.092148 2.751663 4.279984
-5.066727 2.753830 4.261765
-5.075607 2.754227 4.252396
-5.070206 2.751053 4.256241
-5.065414 2.754471 4.280045
-5.069839 2.750717 4.280716
-5.094254 2.750168 4.298080
-5.065018 2.752884 4.305313
-5.076797 2.754227 4.284256
-5.066696 2.753799 4.284195
-5.069839 2.750778 4.305588
-5.067520 2.753952 4.303635
-5.041031 2.772385 4.277145
-5.040787 2.772018 4.273788
-5.055832 2.761429 4.254257
-5.059219 2.759995 4.256790
-5.051498 2.761581 4.254654
-5.051285 2.766068 4.250534
-5.041153 2.772476 4.252457
-5.041183 2.772202 4.251724
-5.055038 2.760696 4.278366
-5.061264 2.759628 4.268417
-5.058945 2.760086 4.279953
-5.051682 2.761703 4.277206
-5.043625 2.770462 4.274399
-5.036636 2.776810 4.265762
-5.031296 2.783127 4.251724
-5.017807 2.800095 4.278763
-5.021530 2.792892 4.256180
-5.029037 2.785629 4.252731
-5.019882 2.797440 4.263443
-5.019150 2.801346 4.255142
-5.016495 2.806564 4.256607
-5.014053 2.809677 4.251480
-5.024002 2.793045 4.281052
-5.030960 2.782486 4.271164
-5.022598 2.794754 4.270157
-5.029953 2.786606 4.278336
-5.017838 2.808426 4.271988
-5.014603 2.809799 4.275101
-5.042038 2.771011 4.304337
-5.062210 2.758926 4.287888
-5.051010 2.764236 4.281326
-5.037338 2.776932 4.289536
-5.040909 2.772079 4.296371
-5.059708 2.760483 4.311508
-5.054794 2.760544 4.303024
-5.057846 2.760208 4.302658
-5.052353 2.762070 4.300278
-5.041580 2.772995 4.302475
-5.031784 2.782913 4.294327
-5.031937 2.782425 4.283157
-5.019516 2.801834 4.305130
-5.022934 2.794937 4.292892
-5.020035 2.809677 4.296371
-5.017868 2.806778 4.288589
-5.022141 2.797623 4.294876
-5.024948 2.793167 4.305008
-5.029984 2.786697 4.303238
-5.016891 2.809921 4.299881
-5.014359 2.839462 4.281082
-5.009537 2.842941 4.268906
-5.009964 2.824600 4.257980
-5.014816 2.822708 4.252853
-5.013321 2.820480 4.260849
-5.011093 2.837631 4.255875
-5.017319 2.824112 4.277359
-5.010849 2.826797 4.272812
-5.008530 2.839127 4.266556
-5.007004 2.843185 4.270462
-5.009415 2.869827 4.280563
-5.010025 2.853043 4.260818
-5.004379 2.852249 4.254257
-5.006973 2.867294 4.253555
-5.009872 2.869858 4.266861
-5.016006 2.840408 4.304977
-5.015915 2.823105 4.287918
-5.014206 2.824600 4.290207
-5.010483 2.843369 4.295975
-5.018326 2.824875 4.300797
-5.012405 2.826950 4.297104
-5.010757 2.840378 4.299240
-5.011551 2.871964 4.307358
-5.011917 2.845352 4.295883
-5.009659 2.852127 4.286880
-5.013321 2.854935 4.286057
-5.011826 2.870987 4.291031
-5.014755 2.855728 4.309830
-5.065262 2.753036 4.328110
-5.069412 2.753616 4.327438
-5.076981 2.752914 4.315445
-5.063889 2.752274 4.372391
-5.073135 2.752060 4.349960
-5.077408 2.751999 4.346939
-5.064835 2.752762 4.350418
-5.063980 2.757401 4.369034
-5.037125 2.777176 4.336288
-5.041367 2.772324 4.341965
-5.057236 2.760300 4.325729
-5.052444 2.764481 4.313400
-5.051132 2.761398 4.321823
-5.040756 2.772202 4.326675
-5.040695 2.771957 4.318741
-5.037155 2.777054 4.312820
-5.055283 2.761032 4.328415
-5.061081 2.759476 4.330673
-5.040176 2.771622 4.334244
-5.032059 2.783066 4.339737
-5.031845 2.782974 4.316910
-5.033188 2.782486 4.315109
-5.021683 2.810593 4.343002
-5.029770 2.786514 4.327988
-5.023758 2.795395 4.316147
-5.018478 2.810074 4.324326
-5.020370 2.809860 4.319229
-5.021683 2.798080 4.325241
-5.019516 2.807358 4.320877
-5.025223 2.796219 4.340042
-5.024765 2.793289 4.328323
-5.021561 2.803879 4.331894
-5.037094 2.777267 4.359818
-5.054337 2.760147 4.352585
-5.055557 2.760422 4.348190
-5.061081 2.759384 4.351547
-5.052139 2.762650 4.344315
-5.051895 2.761795 4.345108
-5.041733 2.773209 4.352554
-5.053604 2.760513 4.370499
-5.050980 2.761307 4.367081
-5.040543 2.771866 4.363968
-5.043106 2.771713 4.366165
-5.032181 2.783127 4.362564
-5.034927 2.783127 4.347488
-5.019699 2.810349 4.372177
-5.024704 2.793411 4.351761
-5.030075 2.786850 4.353256
-5.021103 2.807846 4.353165
-5.018112 2.810196 4.347580
-5.024002 2.798233 4.356857
-5.021500 2.803848 4.356888
-5.025558 2.796402 4.363052
-5.020981 2.810196 4.365128
-5.013168 2.841934 4.332169
-5.017258 2.824509 4.339066
-5.019150 2.825150 4.324020
-5.016495 2.823715 4.313370
-5.014267 2.824966 4.320755
-5.014572 2.827103 4.321884
-5.011765 2.843521 4.320206
-5.016373 2.873581 4.340164
-5.014297 2.847763 4.322952
-5.012405 2.852280 4.318527
-5.014694 2.872635 4.316055
-5.010757 2.859970 4.319717
-5.017197 2.857132 4.334579
-5.013962 2.841415 4.363937
-5.021133 2.826248 4.348404
-5.015396 2.825241 4.351822
-5.015182 2.827225 4.345749
-5.017532 2.841263 4.351608
-5.013535 2.843674 4.344833
-5.021530 2.826462 4.371536
-5.017868 2.825150 4.364670
-5.014877 2.827316 4.369125
-5.013474 2.860031 4.368484
-5.018265 2.857742 4.358231
-5.013901 2.852524 4.349716
-5.015579 2.849075 4.349136
-5.012192 2.860123 4.344101
-5.013474 2.843765 4.368332
-5.243423 2.947006 4.335342
-5.240067 2.953659 4.277206
-5.243637 2.947800 4.270065
-5.240921 2.949875 4.256393
-5.240982 2.953049 4.255569
-5.231186 2.965347 4.260422
-5.233322 2.960861 4.261795
-5.222580 2.971420 4.277023
-5.222702 2.971909 4.255264
-5.219467 2.971268 4.269363
-5.200302 2.985489 4.270401
-5.211746 2.979660 4.251328
-5.198990 2.982681 4.262741
-5.211807 2.980026 4.272354
-5.188400 2.991348 4.268265
-5.238602 2.954636 4.299667
-5.243484 2.947006 4.292160
-5.242325 2.946487 4.283432
-5.233383 2.961105 4.283005
-5.243362 2.946213 4.308853
-5.233200 2.960464 4.305069
-5.222305 2.970383 4.299362
-5.220718 2.969193 4.295670
-5.200027 2.984451 4.292740
-5.211105 2.977188 4.296249
-5.200272 2.980545 4.289108
-5.188004 2.989731 4.291031
-5.175705 2.994705 4.268265
-5.162888 2.997055 4.269089
-5.179825 2.991714 4.257523
-5.159927 2.994858 4.255569
-5.141708 2.994553 4.280685
-5.140549 2.995987 4.254807
-5.149979 2.997910 4.271164
-5.137741 2.999985 4.272171
-5.182632 2.984848 4.311661
-5.175217 2.992905 4.291214
-5.181229 2.988327 4.284500
-5.162216 2.994675 4.292557
-5.161301 2.991867 4.282333
-5.162521 2.990097 4.308487
-5.143143 2.990799 4.307938
-5.149551 2.996384 4.293900
-5.137009 2.997421 4.295792
-5.244675 2.943924 4.335495
-5.239487 2.953903 4.319260
-5.243423 2.946945 4.313736
-5.222122 2.966080 4.322678
-5.233047 2.959946 4.327103
-5.221817 2.968521 4.322525
-5.210587 2.975296 4.341049
-5.210892 2.976517 4.318375
-5.199661 2.983078 4.315414
-5.201492 2.978775 4.315262
-5.199417 2.982101 4.337875
-5.202866 2.975845 4.342239
-5.239853 2.953415 4.360550
-5.243515 2.947342 4.356796
-5.223465 2.963150 4.349686
-5.232956 2.959488 4.349136
-5.221725 2.968216 4.344406
-5.245865 2.942581 4.361649
-5.221298 2.966690 4.367508
-5.232773 2.958847 4.371475
-5.204239 2.972794 4.369370
-5.210312 2.974319 4.363602
-5.198929 2.980392 4.361069
-5.186905 2.985764 4.337570
-5.174088 2.988724 4.337875
-5.187393 2.987564 4.314407
-5.174911 2.991745 4.313705
-5.161636 2.992538 4.315872
-5.183853 2.983170 4.337875
-5.161484 2.991959 4.338028
-5.164017 2.985672 4.336227
-5.148758 2.993546 4.339493
-5.149124 2.994827 4.316757
-5.136612 2.995987 4.318558
-5.144333 2.989182 4.334061
-5.136002 2.993698 4.342178
-5.125076 2.991226 4.332748
-5.186569 2.984482 4.360397
-5.185104 2.980972 4.364456
-5.165237 2.983902 4.362564
-5.173752 2.987534 4.360641
-5.160995 2.990158 4.361282
-5.148148 2.991318 4.363144
-5.126266 2.989609 4.358963
-5.145767 2.985428 4.361526
-5.135666 2.992508 4.364914
-5.096085 2.993698 4.329269
-5.012161 2.898972 4.269547
-5.007187 2.891983 4.271072
-5.028976 2.876022 4.261520
-5.003616 2.880051 4.252518
-5.017105 2.892166 4.254166
-5.013779 2.905869 4.260178
-5.007339 2.905197 4.252701
-5.010788 2.886520 4.273575
-5.005295 2.875443 4.269669
-5.027512 2.930527 4.278000
-5.018173 2.928360 4.255844
-5.015976 2.925308 4.253922
-5.014969 2.911026 4.276535
-5.013504 2.909256 4.275345
-5.020828 2.925583 4.280319
-5.016525 2.905136 4.305069
-5.008438 2.875656 4.294968
-5.007858 2.880966 4.281845
-5.006912 2.880142 4.284286
-5.010300 2.892166 4.296371
-5.013107 2.905045 4.285477
-5.013779 2.888229 4.298660
-5.016678 2.903610 4.298477
-5.031387 2.932785 4.303909
-5.024399 2.933487 4.306198
-5.018326 2.908524 4.286545
-5.025223 2.928146 4.289200
-5.016769 2.909470 4.300797
-5.023514 2.925797 4.305374
-5.122421 2.996841 4.279251
-5.103561 2.995499 4.279892
-5.121231 2.998642 4.253220
-5.102280 2.998062 4.253403
-5.082870 2.993240 4.274368
-5.066147 2.984055 4.261063
-5.084641 2.991806 4.256821
-5.069107 2.991867 4.250839
-5.083176 2.995926 4.265884
-5.068130 2.988480 4.275070
-5.123734 2.994278 4.305801
-5.097519 2.998734 4.281906
-5.124100 2.998886 4.297409
-5.111160 2.999252 4.299942
-5.104782 2.993301 4.306259
-5.096634 2.995712 4.305984
-5.087021 2.988205 4.309067
-5.067429 2.981430 4.287613
-5.082382 2.993301 4.289566
-5.085709 2.991013 4.282333
-5.064529 2.976791 4.302567
-5.066910 2.984268 4.300095
-5.089493 2.993637 4.301987
-5.048965 2.967392 4.270340
-5.045029 2.957962 4.276718
-5.034225 2.952774 4.261032
-5.034500 2.946793 4.275040
-5.040634 2.959122 4.270187
-5.026749 2.941391 4.278000
-5.027969 2.941849 4.261826
-5.030838 2.946091 4.257065
-5.056961 2.976181 4.280899
-5.052139 2.975876 4.254532
-5.058182 2.976944 4.269424
-5.049789 2.973984 4.269028
-5.053940 2.963181 4.306900
-5.038925 2.952774 4.293442
-5.031479 2.942093 4.287369
-5.032242 2.942154 4.284409
-5.045181 2.959396 4.296494
-5.033707 2.937668 4.312149
-5.047470 2.966080 4.297165
-5.050247 2.964401 4.297134
-5.041153 2.953537 4.305893
-5.062485 2.976547 4.307877
-5.018021 2.899979 4.333267
-5.015091 2.875595 4.335526
-5.016006 2.889511 4.323166
-5.011429 2.883896 4.315598
-5.010025 2.875778 4.319412
-5.009689 2.880295 4.315933
-5.013077 2.892380 4.321579
-5.015610 2.905197 4.317032
-5.035019 2.934464 4.339249
-5.038742 2.937088 4.332901
-5.027390 2.926071 4.331345
-5.020065 2.909714 4.326340
-5.022690 2.911026 4.312851
-5.026382 2.928452 4.320175
-5.028061 2.914169 4.340195
-5.023422 2.910446 4.329483
-5.022964 2.893539 4.374741
-5.015366 2.887314 4.349686
-5.013260 2.880356 4.347977
-5.011673 2.875961 4.343918
-5.020920 2.905136 4.349777
-5.019455 2.891495 4.348862
-5.016037 2.892563 4.347000
-5.019211 2.875229 4.365402
-5.017899 2.878464 4.363174
-5.012924 2.876114 4.368301
-5.019547 2.892776 4.372849
-5.019424 2.895981 4.360947
-5.036575 2.929123 4.367661
-5.031296 2.928391 4.352829
-5.031540 2.916183 4.366013
-5.030350 2.917404 4.360733
-5.022568 2.909897 4.351486
-5.030197 2.926285 4.356705
-5.106216 2.989426 4.333664
-5.123459 2.996658 4.320877
-5.110580 2.997086 4.323349
-5.080338 2.986069 4.338882
-5.065384 2.978989 4.326187
-5.068619 2.979507 4.313889
-5.081589 2.990463 4.313461
-5.070175 2.974106 4.342209
-5.069138 2.976913 4.335648
-5.088333 2.985367 4.335892
-5.122604 2.993607 4.366867
-5.122971 2.994858 4.344040
-5.109756 2.994308 4.347427
-5.095352 2.991226 4.353134
-5.108963 2.991348 4.371750
-5.107376 2.988083 4.359726
-5.089279 2.983749 4.362106
-5.063736 2.973404 4.352676
-5.078934 2.981216 4.364792
-5.071396 2.972275 4.368576
-5.076096 2.977341 4.363785
-5.056534 2.964706 4.331833
-5.039413 2.942612 4.339371
-5.043930 2.952744 4.326065
-5.034714 2.942337 4.312881
-5.051712 2.960068 4.324814
-5.048416 2.959671 4.322006
-5.045425 2.959000 4.324844
-5.043503 2.942886 4.365616
-5.047806 2.952805 4.358353
-5.042526 2.949081 4.355026
-5.053024 2.957016 4.351852
-5.053085 2.959946 4.348526
-5.045456 2.940994 4.361496
-5.243271 2.772110 4.459366
-5.237869 2.776169 4.402267
-5.243698 2.776962 4.395309
-5.220505 2.763412 4.388199
-5.226852 2.765335 4.375534
-5.236374 2.777298 4.383041
-5.228897 2.769974 4.384995
-5.229019 2.764816 4.399094
-5.230392 2.768845 4.404221
-5.232132 2.769882 4.394302
-5.214340 2.752640 4.402939
-5.212082 2.753220 4.379440
-5.201492 2.751816 4.376389
-5.211716 2.756943 4.391830
-5.203262 2.750534 4.395279
-5.245224 2.782974 4.400131
-5.249252 2.793106 4.381638
-5.243698 2.784103 4.380875
-5.249649 2.779678 4.436996
-5.232620 2.763290 4.421677
-5.222336 2.762009 4.407028
-5.245712 2.776535 4.418991
-5.239792 2.774734 4.421097
-5.235428 2.755112 4.433670
-5.227280 2.762558 4.422379
-5.224075 2.760727 4.426102
-5.232712 2.767136 4.422562
-5.215347 2.754257 4.429733
-5.213577 2.755539 4.410660
-5.217209 2.751602 4.426071
-5.247482 2.781265 4.418442
-5.238235 2.761307 4.468124
-5.236893 2.764053 4.459976
-5.235397 2.762314 4.444901
-5.234787 2.765610 4.441269
-5.222092 2.754929 4.450272
-5.226181 2.759201 4.444809
-5.220291 2.750443 4.449112
-5.248032 2.775864 4.442520
-5.240982 2.773788 4.440903
-5.227829 2.757980 4.464188
-5.231216 2.751236 4.455551
-5.218918 2.751602 4.468063
-5.216934 2.753067 4.449112
-5.246506 2.769638 4.498398
-5.237503 2.763535 4.480759
-5.229202 2.756882 4.483963
-5.245285 2.770615 4.478317
-5.239578 2.761978 4.499741
-5.241470 2.760025 4.491104
-5.220718 2.750259 4.487350
-5.026657 2.813370 4.461990
-5.072495 2.751602 4.401016
-5.062943 2.751755 4.394424
-5.066727 2.755508 4.386826
-5.062912 2.751724 4.417374
-5.041397 2.772964 4.402542
-5.040909 2.772324 4.396011
-5.051651 2.761673 4.390488
-5.053574 2.762924 4.376541
-5.053940 2.759781 4.377304
-5.037369 2.777390 4.383621
-5.041031 2.772537 4.377029
-5.041855 2.772568 4.387924
-5.054123 2.760025 4.402664
-5.054123 2.760605 4.394577
-5.031540 2.788406 4.404892
-5.032883 2.783524 4.385971
-5.035141 2.781906 4.378860
-5.020645 2.810471 4.396439
-5.026108 2.793533 4.376297
-5.031052 2.787827 4.379257
-5.022415 2.810989 4.389206
-5.021713 2.804092 4.382187
-5.026932 2.797165 4.387070
-5.025436 2.798508 4.388138
-5.021744 2.807114 4.384872
-5.027817 2.793686 4.401077
-5.037430 2.777634 4.431168
-5.053360 2.760727 4.417801
-5.051010 2.761307 4.412857
-5.053879 2.761795 4.408005
-5.035202 2.780502 4.410172
-5.041214 2.772232 4.410294
-5.036911 2.777481 4.407028
-5.051193 2.761429 4.436050
-5.053970 2.759903 4.427780
-5.041611 2.772446 4.433640
-5.041550 2.773148 4.427933
-5.040939 2.772751 4.426834
-5.032761 2.789627 4.431259
-5.033646 2.783951 4.409531
-5.033890 2.784073 4.432785
-5.025955 2.808365 4.436539
-5.023636 2.807938 4.417557
-5.027634 2.797562 4.410599
-5.024155 2.811966 4.413620
-5.025131 2.807510 4.410477
-5.026077 2.798843 4.419205
-5.022903 2.810623 4.421677
-5.027817 2.793777 4.424850
-5.028519 2.798050 4.434372
-5.020706 2.843063 4.400070
-5.015305 2.841568 4.396225
-5.017075 2.825485 4.383194
-5.019363 2.842300 4.375992
-5.022049 2.826767 4.394852
-5.016830 2.827469 4.394028
-5.019455 2.826797 4.391281
-5.014450 2.860214 4.392746
-5.019669 2.858536 4.382278
-5.016556 2.850113 4.375168
-5.015335 2.852798 4.380966
-5.017593 2.851181 4.401321
-5.014603 2.843918 4.392715
-5.018234 2.843704 4.429764
-5.018692 2.827652 4.418991
-5.022873 2.827225 4.418503
-5.019699 2.825638 4.415054
-5.020859 2.828201 4.417740
-5.023788 2.860886 4.431808
-5.017899 2.844101 4.418594
-5.017471 2.853012 4.412613
-5.016891 2.860367 4.418076
-5.021286 2.859451 4.406601
-5.022018 2.855606 4.430618
-5.022873 2.844315 4.424942
-5.042038 2.773666 4.453751
-5.038345 2.777725 4.455643
-5.053635 2.759628 4.452805
-5.062119 2.751297 4.439713
-5.053818 2.760849 4.441971
-5.053757 2.760178 4.439255
-5.053085 2.760941 4.465378
-5.051254 2.761459 4.459183
-5.061691 2.751053 4.462418
-5.042770 2.773087 4.457779
-5.041489 2.773117 4.457962
-5.032608 2.789505 4.456467
-5.037552 2.781876 4.443253
-5.034592 2.784470 4.456467
-5.025436 2.807877 4.461441
-5.029587 2.793930 4.449875
-5.024887 2.807968 4.449844
-5.026932 2.799179 4.450424
-5.023300 2.810745 4.445755
-5.029617 2.798660 4.458420
-5.044083 2.773239 4.490036
-5.054916 2.760941 4.479416
-5.054886 2.759995 4.471451
-5.051163 2.761398 4.482315
-5.042435 2.774063 4.479507
-5.042831 2.773117 4.481003
-5.038223 2.777847 4.479507
-5.053726 2.761063 4.489822
-5.062088 2.751266 4.485977
-5.032059 2.794174 4.499435
-5.034927 2.791855 4.484055
-5.038284 2.781296 4.475204
-5.031387 2.794052 4.474960
-5.036087 2.785294 4.480972
-5.031662 2.799789 4.483444
-5.026688 2.811020 4.495895
-5.027145 2.809280 4.482986
-5.024460 2.810867 4.470444
-5.029984 2.799271 4.482620
-5.029861 2.812302 4.490952
-5.025742 2.828842 4.444077
-5.022690 2.830032 4.444778
-5.021286 2.825882 4.446548
-5.025589 2.812759 4.437912
-5.019913 2.827805 4.443588
-5.020828 2.860703 4.468369
-5.023544 2.844681 4.448593
-5.020035 2.844070 4.443802
-5.020645 2.853134 4.444778
-5.018692 2.860519 4.443069
-5.021317 2.844223 4.468552
-5.023636 2.857285 4.457504
-5.020309 2.844803 4.462753
-5.025925 2.862106 4.456833
-5.026688 2.834122 4.499435
-5.024643 2.825974 4.478836
-5.021835 2.827927 4.468765
-5.025162 2.832565 4.472488
-5.028122 2.830185 4.469345
-5.023788 2.828079 4.494064
-5.027878 2.814041 4.486282
-5.030258 2.831406 4.494522
-5.023911 2.860886 4.494431
-5.023361 2.853256 4.476791
-5.027206 2.846756 4.475021
-5.028763 2.863693 4.482559
-5.024124 2.848007 4.497086
-5.025162 2.858841 4.484390
-5.024094 2.844406 4.494370
-5.232193 2.956772 4.461319
-5.225967 2.959366 4.402756
