-1.995132 3.696609 2.841660
-1.955276 3.726669 2.837845
-1.953598 3.727402 2.816940
-1.955887 3.726028 2.819656
-1.952988 3.728653 2.822525
-1.959915 3.725052 2.837845
-1.950974 3.729691 2.842911
-1.990189 3.703506 2.861588
-1.990860 3.695816 2.846695
-1.977280 3.711075 2.849625
-1.973068 3.711624 2.845871
-1.991776 3.696365 2.872086
-1.996048 3.695724 2.862869
-1.995651 3.697006 2.863022
-1.973618 3.711624 2.871506
-1.979141 3.710342 2.870468
-1.955704 3.724045 2.871658
-1.956070 3.725479 2.845474
-1.958633 3.723007 2.869858
-1.955215 3.725632 2.859573
-1.949203 3.730331 2.863480
-1.892868 3.747604 2.823318
-1.920670 3.739761 2.832504
-1.933640 3.732803 2.822311
-1.909958 3.739548 2.825333
-1.919388 3.740799 2.817398
-1.919388 3.739792 2.832321
-1.925156 3.738663 2.873215
-1.934616 3.733475 2.847641
-1.923813 3.739456 2.852036
-1.923996 3.741043 2.847549
-1.917801 3.742020 2.852280
-1.910538 3.739548 2.850937
-1.935135 3.733353 2.873306
-1.916000 3.742691 2.872787
-1.891708 3.747391 2.844162
-1.886337 3.743973 2.854721
-1.768661 3.747452 2.829727
-1.874100 3.747849 2.776566
-1.859848 3.749344 2.807236
-1.859329 3.749405 2.781601
-1.873367 3.747086 2.797531
-1.771317 3.741806 2.775986
-1.805313 3.748306 2.780167
-1.785599 3.747208 2.754745
-1.803360 3.746658 2.768112
-1.784653 3.746689 2.775436
-1.764938 3.744522 2.750381
-1.802567 3.744553 2.794601
-1.771591 3.741379 2.801865
-1.763962 3.742233 2.792343
-1.762039 3.746445 2.799881
-1.834122 3.749710 2.838211
-1.870255 3.747818 2.838577
-1.871536 3.747787 2.817856
-1.851852 3.749680 2.819138
-1.857040 3.749435 2.838669
-1.859116 3.747330 2.833694
-1.833237 3.749252 2.812729
-1.860092 3.748856 2.859116
-1.860275 3.748245 2.858963
-1.758347 3.746811 2.831406
-1.801498 3.748245 2.841934
-1.802292 3.749008 2.820999
-1.803940 3.745743 2.819778
-1.783615 3.744522 2.817490
-1.781631 3.745560 2.837631
-1.771622 3.740524 2.827957
-1.762985 3.741837 2.813065
-1.805222 3.745956 2.871170
-1.805435 3.747147 2.844894
-1.764023 3.744125 2.863144
-1.772110 3.740402 2.853806
-1.759750 3.742844 2.853775
-1.927933 3.734970 2.959579
-1.985580 3.707565 2.900314
-1.974625 3.712296 2.896896
-1.997513 3.694931 2.883896
-1.990341 3.702713 2.881485
-1.999313 3.694229 2.904800
-1.993240 3.697769 2.897202
-1.990463 3.702103 2.893082
-1.982040 3.709763 2.890854
-1.961868 3.722733 2.900436
-1.955917 3.724716 2.880997
-1.947647 3.730759 2.884201
-1.957169 3.723892 2.902237
-1.955978 3.723557 2.897537
-1.945511 3.731888 2.904617
-1.987686 3.708633 2.931778
-1.985092 3.709244 2.911209
-1.981308 3.711807 2.919418
-1.993851 3.697800 2.922897
-1.993973 3.701920 2.923569
-1.975998 3.713516 2.922073
-1.974289 3.719925 2.936752
-1.963669 3.721878 2.931503
-1.958725 3.723099 2.923355
-1.955978 3.722702 2.923630
-1.944992 3.730789 2.926102
-1.887619 3.749588 2.884750
-1.928482 3.738113 2.893509
-1.926407 3.740433 2.878433
-1.911270 3.739792 2.876480
-1.935989 3.733810 2.898819
-1.911484 3.739212 2.902420
-1.887161 3.744308 2.880234
-1.930099 3.736313 2.936569
-1.930130 3.737350 2.914627
-1.927536 3.739334 2.909775
-1.912399 3.744156 2.913895
-1.935013 3.731400 2.925552
-1.911758 3.743210 2.935226
-1.912003 3.739151 2.928177
-1.887619 3.743332 2.932175
-1.887192 3.743515 2.906326
-1.887527 3.747787 2.906357
-1.988113 3.707413 2.953476
-1.974472 3.717819 2.958817
-1.993942 3.697098 2.948959
-1.976700 3.713730 2.947739
-1.994583 3.700607 2.955032
-1.968582 3.722244 2.961624
-1.957108 3.723587 2.949020
-1.962143 3.722610 2.943619
-1.943100 3.731613 2.946701
-1.963821 3.721848 2.964767
-1.942947 3.729904 2.968521
-1.992325 3.706070 2.995316
-1.994705 3.697403 2.974625
-1.989029 3.706558 2.974930
-1.977371 3.713882 2.973465
-1.996231 3.698898 2.999832
-1.996017 3.699600 2.986252
-1.978043 3.714035 2.999222
-1.972153 3.722092 2.992172
-1.970871 3.720993 2.978439
-1.968155 3.721512 2.984665
-1.957443 3.723190 2.974991
-1.942703 3.728409 2.990341
-1.911392 3.737289 2.954788
-1.929245 3.738449 2.940964
-1.934891 3.730392 2.951767
-1.909683 3.740524 2.999466
-1.935684 3.730667 2.977463
-1.929367 3.734146 2.980942
-1.916611 3.732437 2.982193
-1.928787 3.736740 2.972946
-1.911270 3.736282 2.981064
-1.883469 3.746170 2.990829
-1.884689 3.746262 2.969803
-1.875015 3.744858 2.984451
-1.887924 3.741989 2.984451
-1.779495 3.737381 2.965775
-1.869919 3.748245 2.898514
-1.861526 3.749283 2.884232
-1.866806 3.749069 2.879501
-1.865677 3.748642 2.878525
-1.861465 3.747421 2.936600
-1.870651 3.747360 2.920181
-1.861832 3.748856 2.910172
-1.874771 3.749863 2.925095
-1.841660 3.748581 2.936539
-1.842453 3.749344 2.915329
-1.835007 3.748428 2.916031
-1.819504 3.749802 2.909225
-1.819107 3.748489 2.930649
-1.780289 3.741928 2.901291
-1.798721 3.746719 2.904739
-1.798508 3.748947 2.882980
-1.781448 3.742050 2.880508
-1.804977 3.744705 2.897507
-1.760605 3.737778 2.897415
-1.771011 3.737839 2.880661
-1.760178 3.740311 2.875534
-1.762131 3.741898 2.895767
-1.799240 3.744095 2.926712
-1.804489 3.743088 2.924057
-1.770218 3.734970 2.933701
-1.770828 3.736740 2.906998
-1.759872 3.736984 2.918503
-1.780869 3.739120 2.923325
-1.765060 3.741440 2.926926
-1.841324 3.747147 2.958054
-1.874191 3.745804 2.962662
-1.872421 3.746597 2.941391
-1.863510 3.748184 2.942398
-1.862686 3.747574 2.963577
-1.874863 3.748337 2.956985
-1.861252 3.746201 2.962967
-1.834641 3.746994 2.942490
-1.818771 3.747086 2.952133
-1.874313 3.746597 2.989090
-1.860672 3.744461 2.989639
-1.862320 3.746201 2.985184
-1.834030 3.744308 2.995468
-1.841721 3.744736 2.980118
-1.834061 3.745255 2.969131
-1.819504 3.744064 2.974411
-1.818497 3.743668 2.995529
-1.758835 3.734726 2.961136
-1.803421 3.740585 2.951035
-1.799881 3.741196 2.948868
-1.761856 3.738693 2.960098
-1.780472 3.737839 2.944717
-1.759964 3.734940 2.940201
-1.769882 3.733566 2.960281
-1.798782 3.739029 2.991623
-1.801285 3.736557 2.978745
-1.798721 3.741043 2.969772
-1.779312 3.735764 2.987411
-1.758621 3.733139 2.982712
-1.769943 3.732803 2.986649
-1.760574 3.736679 2.992691
-1.597794 3.515915 2.962540
-1.596268 3.520584 2.840073
-1.593216 3.519608 2.779587
-1.594162 3.503250 2.774399
-1.596054 3.502121 2.754135
-1.593674 3.518570 2.765549
-1.579514 3.511368 2.756668
-1.593613 3.518417 2.750778
-1.594955 3.545700 2.768875
-1.595016 3.545853 2.754288
-1.598068 3.558914 2.755081
-1.595932 3.536301 2.765793
-1.594681 3.520065 2.809799
-1.593765 3.518784 2.795181
-1.594254 3.519882 2.810867
-1.599777 3.562302 2.801529
-1.596268 3.533798 2.787582
-1.594406 3.544418 2.812271
-1.594193 3.543991 2.797073
-1.596115 3.532059 2.809067
-1.590500 3.553421 2.783218
-1.606094 3.587753 2.775070
-1.600235 3.563492 2.780350
-1.601242 3.563858 2.759567
-1.608444 3.585983 2.755234
-1.615463 3.606796 2.772079
-1.617050 3.606247 2.751755
-1.603470 3.595596 2.760269
-1.605545 3.586716 2.796158
-1.596390 3.573441 2.787308
-1.602859 3.587936 2.783768
-1.624924 3.622574 2.811813
-1.610550 3.599777 2.791885
-1.595261 3.522079 2.842453
-1.596695 3.529160 2.831070
-1.596756 3.502487 2.814926
-1.595230 3.522018 2.827469
-1.598373 3.506088 2.832687
-1.593887 3.543289 2.841232
-1.594620 3.544907 2.827560
-1.598923 3.561691 2.822495
-1.601242 3.559982 2.815659
-1.594498 3.520370 2.871109
-1.598709 3.506760 2.848190
-1.596268 3.527939 2.852432
-1.594894 3.521286 2.856796
-1.598648 3.506668 2.863113
-1.594986 3.519241 2.869675
-1.596451 3.556351 2.844498
-1.593643 3.553940 2.873734
-1.593277 3.541977 2.855179
-1.592361 3.539902 2.868576
-1.586533 3.541641 2.867325
-1.604599 3.584366 2.838516
-1.602921 3.588089 2.828629
-1.624191 3.621780 2.832809
-1.611008 3.599564 2.822006
-1.614395 3.604660 2.814224
-1.613724 3.603775 2.835281
-1.569992 3.606186 2.824020
-1.594772 3.564377 2.862869
-1.601547 3.584976 2.856216
-1.603714 3.589798 2.845016
-1.622147 3.621078 2.874527
-1.612534 3.603653 2.856064
-1.595169 3.597427 2.853592
-1.608292 3.597275 2.851395
-1.623245 3.621323 2.853683
-1.648422 3.650314 2.830734
-1.625412 3.625626 2.769333
-1.630753 3.649918 2.763992
-1.642075 3.657516 2.773544
-1.652359 3.681473 2.760605
-1.628494 3.687180 2.753281
-1.648209 3.652573 2.809189
-1.635483 3.640579 2.788498
-1.636276 3.637405 2.810471
-1.671371 3.682968 2.806442
-1.657944 3.670883 2.785629
-1.670853 3.685654 2.784744
-1.657944 3.668991 2.807022
-1.647964 3.660965 2.805069
-1.701004 3.709091 2.764938
-1.730118 3.728470 2.766861
-1.734604 3.729019 2.761124
-1.710617 3.725479 2.762894
-1.713669 3.717056 2.807510
-1.714188 3.718185 2.786514
-1.700607 3.707870 2.785965
-1.698532 3.709091 2.805954
-1.745010 3.736801 2.809921
-1.736130 3.730453 2.786301
-1.725266 3.733994 2.784958
-1.745407 3.738083 2.788834
-1.737503 3.731613 2.811569
-1.728470 3.727219 2.808426
-1.626694 3.688095 2.773300
-1.683609 3.694046 2.780869
-1.686386 3.696548 2.764786
-1.681595 3.691940 2.755875
-1.682693 3.691849 2.807693
-1.684311 3.697922 2.784683
-1.636948 3.634476 2.832382
-1.657791 3.667313 2.828323
-1.669907 3.683334 2.826859
-1.653458 3.664108 2.836533
-1.645950 3.650314 2.872086
-1.635727 3.634415 2.853073
-1.647568 3.649704 2.851669
-1.634079 3.635025 2.873489
-1.667862 3.682693 2.868362
-1.657120 3.666458 2.849319
-1.669571 3.681931 2.848099
-1.655563 3.666916 2.869766
-1.649734 3.661148 2.865891
-1.697006 3.709549 2.826309
-1.737869 3.731247 2.837509
-1.739731 3.742844 2.827835
-1.700546 3.735123 2.820114
-1.711746 3.714310 2.870529
-1.713242 3.713974 2.850052
-1.698807 3.704910 2.848953
-1.697922 3.704330 2.869858
-1.742081 3.735519 2.872269
-1.742050 3.737442 2.850784
-1.738083 3.730728 2.863602
-1.684036 3.692947 2.833176
-1.685989 3.694992 2.858322
-1.577774 3.629105 2.798599
-1.620499 3.631485 2.787399
-1.599167 3.630722 2.782486
-1.594162 3.519363 2.961777
-1.594894 3.518631 2.899582
-1.594742 3.520584 2.901596
-1.598709 3.506821 2.878311
-1.594528 3.520401 2.886246
-1.598709 3.506760 2.893387
-1.595810 3.524612 2.895615
-1.594070 3.553757 2.903854
-1.596176 3.560226 2.885513
-1.592514 3.540207 2.899094
-1.592575 3.540390 2.884079
-1.595627 3.518600 2.929733
-1.598923 3.507248 2.908951
-1.598404 3.518509 2.919266
-1.595291 3.521866 2.917862
-1.599442 3.508347 2.925095
-1.595322 3.521927 2.933182
-1.595322 3.557663 2.928421
-1.595718 3.558945 2.906906
-1.591995 3.551895 2.933334
-1.592026 3.539169 2.913467
-1.592484 3.540207 2.929611
-1.601761 3.582993 2.901474
-1.600632 3.582901 2.900070
-1.602493 3.583786 2.880325
-1.621323 3.620499 2.895523
-1.611374 3.603561 2.876846
-1.604965 3.594559 2.880630
-1.610611 3.602859 2.897934
-1.601181 3.581894 2.922806
-1.597946 3.576889 2.910446
-1.604416 3.593704 2.910568
-1.594040 3.568161 2.933945
-1.596420 3.573502 2.922989
-1.616653 3.623978 2.935562
-1.609756 3.602249 2.919052
-1.620041 3.620529 2.916306
-1.594955 3.517654 2.959549
-1.598648 3.506638 2.954300
-1.599747 3.514297 2.942123
-1.599808 3.509171 2.941086
-1.594650 3.520401 2.947250
-1.590286 3.561783 2.968460
-1.591751 3.538559 2.943588
-1.592026 3.560928 2.947861
-1.590469 3.560196 2.942734
-1.590622 3.536026 2.956833
-1.587814 3.554276 2.968674
-1.589981 3.559097 2.957230
-1.589615 3.549820 2.962814
-1.595383 3.522049 2.994980
-1.598343 3.505997 2.969162
-1.594406 3.519852 2.977646
-1.599960 3.509537 2.987656
-1.603317 3.504959 2.988571
-1.597366 3.518723 2.990219
-1.590622 3.549942 2.993118
-1.589798 3.534225 2.970779
-1.592361 3.539902 2.991043
-1.592514 3.556168 2.991989
-1.597794 3.583389 2.963943
-1.600235 3.590439 2.939621
-1.598526 3.584213 2.942673
-1.606522 3.620224 2.957932
-1.606613 3.605240 2.938553
-1.605576 3.604965 2.959518
-1.598373 3.588211 2.999435
-1.597397 3.588058 2.969009
-1.597244 3.582321 2.985397
-1.591904 3.563370 2.991837
-1.612961 3.623917 2.998245
-1.605453 3.603165 2.981277
-1.614792 3.623001 2.977737
-1.608566 3.624832 2.977249
-1.603226 3.612778 2.998520
-1.649918 3.682419 2.948166
-1.644180 3.651169 2.892441
-1.632492 3.635635 2.893967
-1.666733 3.682480 2.889145
-1.644913 3.657425 2.894913
-1.654099 3.667709 2.890182
-1.626602 3.640976 2.933121
-1.630539 3.636765 2.914230
-1.641586 3.653275 2.912216
-1.636185 3.651138 2.923019
-1.662766 3.684799 2.929550
-1.645767 3.676773 2.927567
-1.651688 3.669479 2.910110
-1.636948 3.658615 2.930588
-1.634811 3.661057 2.931015
-1.710892 3.713699 2.891495
-1.696701 3.704269 2.890549
-1.688705 3.698105 2.883011
-1.741379 3.734695 2.893326
-1.738907 3.731125 2.889328
-1.708267 3.713882 2.932846
-1.691055 3.700729 2.907974
-1.710098 3.712997 2.912521
-1.695328 3.704483 2.911148
-1.692673 3.702255 2.933426
-1.694565 3.703751 2.932236
-1.740982 3.731430 2.936264
-1.739273 3.730270 2.915604
-1.741013 3.733353 2.914627
-1.724411 3.723862 2.913071
-1.724472 3.721878 2.934738
-1.652725 3.702255 2.900955
-1.676468 3.700424 2.886490
-1.676895 3.695908 2.929977
-1.679611 3.693680 2.910263
-1.641556 3.681412 2.946213
-1.660019 3.687057 2.949326
-1.633469 3.662064 2.949814
-1.635330 3.655289 2.994644
-1.657333 3.687363 2.990799
-1.681870 3.684402 2.976883
-1.645340 3.671585 2.992386
-1.634842 3.658005 2.972519
-1.645370 3.674881 2.977646
-1.645432 3.673477 2.970688
-1.707321 3.713425 2.953812
-1.694717 3.704453 2.958633
-1.693253 3.703812 2.952957
-1.739029 3.728134 2.968491
-1.738632 3.728409 2.942368
-1.740005 3.731064 2.957230
-1.722977 3.722183 2.955368
-1.705948 3.711624 2.996323
-1.692825 3.702530 2.974380
-1.706772 3.712296 2.975174
-1.691544 3.702591 2.995224
-1.694962 3.703873 2.985031
-1.737656 3.730728 2.999069
-1.739609 3.729721 2.978683
-1.722458 3.721054 2.976700
-1.738937 3.727127 2.995041
-1.720871 3.721542 2.997330
-1.675583 3.695999 2.950699
-1.658127 3.688065 2.969620
-1.613480 3.626999 2.955032
-1.623245 3.644333 2.952438
-1.616318 3.642288 2.944870
-1.616531 3.637589 2.948349
-1.611191 3.630753 2.951004
-1.609421 3.626724 2.994431
-1.619339 3.638962 2.979294
-1.623672 3.641739 2.974472
-1.889725 3.778702 2.877335
-1.881943 3.759659 2.859390
-1.805008 3.778610 2.813644
-1.834183 3.752396 2.760269
-1.862808 3.752945 2.770187
-1.859451 3.750473 2.755661
-1.851547 3.752670 2.753983
-1.852493 3.751816 2.775284
-1.848465 3.753616 2.768631
-1.825943 3.753464 2.763077
-1.863022 3.751511 2.801804
-1.848007 3.752457 2.789749
-1.848038 3.750534 2.811172
-1.851852 3.750687 2.797348
-1.821640 3.756027 2.803085
-1.834061 3.751419 2.786270
-1.825607 3.752029 2.784256
-1.771255 3.751450 2.765121
-1.805038 3.750504 2.758682
-1.753708 3.759384 2.764359
-1.791641 3.766617 2.792679
-1.779526 3.752487 2.793442
-1.842972 3.756058 2.829391
-1.864304 3.750473 2.833115
-1.817154 3.758865 2.843033
-1.867477 3.750137 2.863876
-1.863266 3.756149 2.855576
-1.844650 3.751785 2.851974
-1.843735 3.751236 2.872910
-1.835068 3.750290 2.863663
-1.778183 3.780899 2.847977
-1.806412 3.772812 2.857437
-1.764999 3.768448 2.848007
-1.795700 3.786728 2.871750
-1.829330 3.770432 2.884995
-1.835526 3.750076 2.889511
-1.864365 3.750778 2.899490
-1.873001 3.750717 2.893845
-1.870255 3.770950 2.916611
-1.861313 3.753372 2.919174
-1.707352 3.755386 2.837021
-1.736771 3.752945 2.761948
-1.284653 3.520523 2.769577
-1.394485 3.517075 2.737686
-1.471176 3.552902 2.525772
-1.472244 3.555527 2.541489
-1.483749 3.583267 2.519547
-1.477768 3.568832 2.523209
-1.498062 3.591995 2.514481
-1.466751 3.567581 2.533585
-1.392105 3.615158 2.502884
-1.370865 3.587845 2.522751
-1.494095 3.676895 2.537521
-1.498550 3.672104 2.534286
-1.492905 3.658340 2.538773
-1.490341 3.704514 2.523331
-1.486008 3.721024 2.517929
-1.470993 3.732254 2.507706
-1.492203 3.736588 2.514359
-1.490189 3.737076 2.510910
-1.473465 3.743820 2.514267
-1.481369 3.736343 2.511734
-1.463028 3.744888 2.512497
-1.466873 3.721756 2.506271
-1.446762 3.730545 2.500473
-1.496475 3.692917 2.531998
-1.439468 3.738205 2.545456
-1.387955 3.526505 2.742325
-1.464645 3.511795 2.709824
-1.498764 3.518692 2.709305
-1.476486 3.515579 2.715561
-1.489029 3.521255 2.708298
-1.479813 3.527084 2.707809
-1.483109 3.556107 2.700455
-1.487808 3.542587 2.692978
-1.472733 3.556656 2.698044
-1.458389 3.536728 2.709641
-1.437576 3.522629 2.738510
-1.454086 3.511612 2.721207
-1.448654 3.506821 2.728104
-1.446274 3.517715 2.723129
-1.387741 3.500076 2.738907
-1.422501 3.510269 2.726181
-1.412582 3.513443 2.724533
-1.381241 3.561508 2.749527
-1.460648 3.581711 2.724258
-1.467026 3.594864 2.721268
-1.343033 3.500504 2.741653
-1.364883 3.506668 2.742538
-1.374954 3.507919 2.733688
-1.348373 3.552017 2.747360
-1.347122 3.589188 2.745346
-1.357834 3.581070 2.742050
-1.367386 3.575119 2.744736
-1.372055 3.563065 2.748184
-1.006454 3.679337 2.560715
-1.004013 3.706070 2.549698
-1.015488 3.748459 2.536880
-1.010635 3.730576 2.538651
-1.499466 3.866501 2.562698
-1.395859 3.802628 2.525314
-1.446976 3.772842 2.523819
-1.493820 3.767776 2.518723
-1.499557 3.767166 2.514999
-1.476059 3.775650 2.517502
-1.489883 3.785568 2.528091
-1.498947 3.794022 2.519577
-1.383408 3.791214 2.521988
-1.406509 3.799728 2.525345
-1.441452 3.834946 2.510269
-1.491684 3.873795 2.522110
-1.490646 3.854813 2.519058
-1.489273 3.872269 2.517532
-1.499710 3.867111 2.520096
-1.399002 3.867386 2.510880
-1.422440 3.867294 2.503616
-1.413467 3.847977 2.512589
-1.412674 3.871872 2.504166
-1.357925 3.778458 2.523148
-1.343094 3.820328 2.530075
-1.392899 3.880173 2.523666
-1.456223 3.905991 2.516006
-1.469467 3.905533 2.521011
-1.489670 3.884140 2.526993
-1.484299 3.884201 2.519424
-1.479752 3.880783 2.520065
-1.471298 3.880356 2.521408
-1.477737 3.897385 2.518173
-1.473343 3.891464 2.516068
-1.441605 3.889206 2.520126
-1.446091 3.894577 2.514694
-1.440689 3.933304 2.528824
-1.440811 3.923843 2.514816
-1.464188 3.909134 2.523666
-1.460373 3.911148 2.522263
-1.451248 3.915176 2.522598
-1.441605 3.919388 2.522964
-1.488205 3.895035 2.533401
-1.471603 3.926407 2.533524
-1.411179 3.895645 2.519974
-1.425888 3.937241 2.529831
-1.414139 3.920670 2.518967
-1.435867 3.935440 2.516525
-1.418808 3.934677 2.516617
-1.400253 3.928787 2.519821
-1.402145 3.921341 2.507462
-1.377884 3.921158 2.502426
-1.391312 3.935318 2.507431
-1.377029 3.927536 2.500168
-1.464035 3.954941 2.528183
-1.438370 3.964096 2.528152
-1.450790 3.944412 2.524673
-1.499100 3.953720 2.540085
-1.438156 3.960220 2.532120
-1.471970 3.972763 2.544449
-1.427017 3.940384 2.517502
-1.418961 3.948288 2.520340
-1.424088 3.962570 2.515060
-1.428085 3.987564 2.527603
-1.416122 3.972153 2.508286
-1.410385 3.989304 2.512955
-1.416885 3.975449 2.520859
-1.403732 3.993881 2.505630
-1.368576 3.947922 2.503342
-1.359848 3.941055 2.504440
-1.021408 3.770370 2.523788
-1.018631 3.760086 2.530807
-1.035049 3.784012 2.506729
-1.066391 3.870468 2.502609
-1.083633 3.850876 2.503708
-1.056046 3.861862 2.513992
-1.054489 3.855057 2.511581
-1.009933 3.924179 2.518051
-1.005875 3.908524 2.522079
-1.023483 3.935379 2.512772
-1.011948 3.901627 2.531784
-1.017197 3.962479 2.515823
-1.057053 3.961655 2.505814
-1.050858 3.958298 2.502396
-1.040695 3.960648 2.502213
-1.037766 3.959885 2.502029
-1.002090 3.956284 2.515854
-1.026840 3.948318 2.506882
-1.026443 3.947983 2.502823
-1.026596 3.956924 2.509109
-1.031021 3.964401 2.502945
-1.021347 3.968552 2.503922
-1.008804 3.960068 2.511124
-1.046280 3.991043 2.501419
-1.001022 3.969772 2.515335
-1.303116 3.515457 2.770767
-1.257736 3.531815 2.751480
-1.339401 3.587051 2.755997
-1.231583 3.538284 2.764236
-1.218765 3.532089 2.761337
-0.635696 3.671616 2.653732
-0.650131 3.671890 2.657883
-0.654404 3.690903 2.641220
-0.682144 3.715866 2.619644
-0.699142 3.727707 2.612015
-0.726974 3.745010 2.602921
-0.732590 3.725052 2.604294
-0.730820 3.739853 2.595627
-0.717911 3.749954 2.605057
-0.705368 3.736526 2.608475
-0.684464 3.719467 2.611496
-0.652145 3.706955 2.638016
-0.649063 3.689468 2.639633
-0.664932 3.717972 2.627274
-0.660080 3.698257 2.632950
-0.661606 3.688126 2.635757
-0.663162 3.715500 2.631119
-0.671310 3.709366 2.627945
-0.758072 3.811050 2.587387
-0.761459 3.792191 2.586411
-0.841721 3.868301 2.557755
-0.849380 3.857895 2.552231
-0.827042 3.846695 2.556137
-0.756119 3.796860 2.584824
-0.808090 3.805038 2.583054
-0.789322 3.811417 2.570572
-0.759079 3.784225 2.579178
-0.767624 3.802170 2.575729
-0.815109 3.838150 2.563095
-0.816208 3.832993 2.566696
-0.859177 3.856247 2.566635
-0.846115 3.850815 2.567886
-0.828598 3.846878 2.565262
-0.780930 3.817490 2.573380
-0.802872 3.823715 2.566605
-0.802261 3.824936 2.566971
-0.801163 3.817429 2.565140
-0.788284 3.814499 2.566208
-0.875320 3.975784 2.572586
-0.883499 3.919601 2.553207
-0.907181 3.932907 2.550583
-0.963120 3.960953 2.524979
-0.987625 3.961624 2.522995
-0.998367 3.962723 2.511124
-0.998367 3.960495 2.512222
-0.992447 3.959976 2.513199
-0.974564 3.966537 2.524307
-0.977951 3.964188 2.523117
-0.968246 3.966537 2.523087
-0.990402 3.972702 2.515884
-0.952896 3.990707 2.515671
-0.967026 3.981094 2.519150
-0.956772 3.962814 2.533371
-0.946060 3.963730 2.532364
-0.937607 3.995926 2.560074
-0.961990 3.984360 2.532883
-0.963120 3.999313 2.542465
-0.963272 3.984909 2.535538
-0.953201 3.993576 2.537155
-0.903793 3.963181 2.554459
-0.912460 3.955887 2.551224
-0.924362 3.961349 2.542038
-0.935776 3.965500 2.535019
-0.934402 3.959427 2.542282
-0.912552 3.956253 2.537247
-0.904099 3.954361 2.551865
-0.898209 3.963974 2.546158
-0.897964 3.937637 2.552170
-0.875137 3.946060 2.553207
-0.918350 3.980331 2.555954
-0.937119 3.970993 2.535477
-0.912552 3.972672 2.546799
-0.894791 3.969650 2.557205
-0.887985 3.980728 2.557999
-0.885605 3.974899 2.559158
-0.880508 3.972580 2.565506
-0.853653 3.923080 2.565445
-0.868607 3.898544 2.552200
-0.853897 3.878525 2.551743
-0.866348 3.935104 2.560440
-0.874039 3.922928 2.553940
-0.874283 3.926376 2.550797
-0.846786 3.938248 2.554581
-0.835709 3.984482 2.587021
-0.848038 3.993240 2.579727
-0.867355 3.983078 2.571701
-0.865585 3.977921 2.572586
-0.855789 3.980453 2.572830
-0.852646 3.976913 2.570328
-0.816879 3.993271 2.590073
-0.822922 3.973709 2.593002
-0.825790 3.987686 2.587753
-0.819901 3.998001 2.594528
-0.807175 3.998276 2.591965
-0.806442 3.995224 2.602188
-0.798965 3.999649 2.608292
-0.795639 3.995407 2.603134
-0.794235 3.998581 2.603439
-0.775650 3.995804 2.608536
-0.645676 3.901199 2.668991
-0.748856 3.779953 2.587387
-0.740921 3.767532 2.591660
-0.744461 3.767868 2.585098
-0.738754 3.763596 2.590164
-0.743942 3.782791 2.588058
-0.735092 3.786911 2.589645
-0.729385 3.757523 2.597519
-0.702682 3.756668 2.603989
-0.646530 3.906326 2.686996
-0.690750 3.926468 2.661819
-0.658371 3.917404 2.681168
-0.656631 3.911362 2.680283
-0.685104 3.928787 2.661942
-0.680099 3.928177 2.661728
-0.668716 3.923264 2.671677
-0.717484 3.964584 2.646317
-0.704514 3.947311 2.648087
-0.693008 3.939438 2.656113
-0.743240 3.996414 2.634659
-0.732193 3.980942 2.637009
-0.729324 3.973648 2.639084
-0.719009 3.973007 2.637436
-0.735153 3.988815 2.638748
-0.731461 3.985367 2.632339
-0.718643 3.972977 2.636490
-0.687241 3.960220 2.652481
-1.906174 3.319016 3.962845
-1.988388 3.255386 3.444412
-1.897873 3.327682 3.205460
-1.898911 3.329483 3.078354
-1.958206 3.355881 3.025284
-1.975754 3.366745 3.023758
-1.977707 3.370285 3.013565
-1.976517 3.368027 3.009232
-1.962967 3.356522 3.019821
-1.957748 3.355057 3.008896
-1.955917 3.354599 3.011703
-1.940994 3.346115 3.011978
-1.940811 3.345840 3.027359
-1.975540 3.366348 3.054916
-1.978470 3.370590 3.042770
-1.975723 3.366623 3.039383
-1.958237 3.355942 3.056808
-1.961746 3.354996 3.042709
-1.960373 3.358597 3.033554
-1.956650 3.354904 3.040848
-1.958267 3.355972 3.041061
-1.941055 3.346237 3.043411
-1.940689 3.345596 3.058578
-1.890854 3.330154 3.023575
-1.926071 3.343063 3.028275
-1.929581 3.342392 3.011307
-1.927353 3.341721 3.003677
-1.913223 3.335587 3.009598
-1.927048 3.341171 3.018784
-1.913925 3.336777 3.026321
-1.911270 3.335251 3.020859
-1.896286 3.325302 3.030533
-1.902298 3.327621 3.005264
-1.877151 3.325516 3.012589
-1.885513 3.325882 3.007797
-1.903427 3.331955 3.011368
-1.898392 3.328629 3.014664
-1.885727 3.326248 3.023727
-1.926804 3.340744 3.049789
-1.930099 3.343338 3.040665
-1.926559 3.340286 3.033676
-1.913406 3.335892 3.041183
-1.912857 3.334946 3.056076
-1.911758 3.334946 3.051498
-1.899307 3.330154 3.047409
-1.886246 3.327194 3.040237
-1.877823 3.326004 3.041794
-1.903732 3.333664 3.040970
-1.899338 3.330276 3.031815
-1.897324 3.324509 3.052444
-1.886337 3.327347 3.056076
-1.889938 3.331009 3.058426
-1.956192 3.351791 3.090195
-1.975021 3.365463 3.085861
-1.985458 3.372787 3.076584
-1.980179 3.367508 3.070938
-1.974472 3.364548 3.069107
-1.957626 3.354874 3.087570
-1.957779 3.355118 3.071915
-1.958817 3.353378 3.066483
-1.959427 3.358902 3.068405
-1.956985 3.356522 3.070480
-1.940506 3.345291 3.074142
-1.940384 3.345078 3.089859
-1.974930 3.365311 3.117722
-1.975296 3.365921 3.102249
-1.980331 3.369797 3.100815
-1.978806 3.368362 3.111130
-1.957718 3.355026 3.119705
-1.958115 3.355850 3.102493
-1.958145 3.355392 3.099289
-1.957993 3.355515 3.104141
-1.940353 3.345016 3.105759
-1.953537 3.350174 3.113968
-1.940079 3.344528 3.121323
-1.888931 3.330276 3.092972
-1.925797 3.339005 3.079819
-1.930893 3.343430 3.069809
-1.926224 3.339737 3.064651
-1.924881 3.341263 3.062546
-1.912827 3.334854 3.071762
-1.912369 3.334091 3.086929
-1.912888 3.335526 3.082382
-1.886337 3.327347 3.087692
-1.885941 3.326614 3.071182
-1.878403 3.326706 3.071091
-1.904800 3.332901 3.069809
-1.899399 3.330368 3.063339
-1.925613 3.338699 3.111404
-1.932266 3.341660 3.098373
-1.925369 3.338242 3.095016
-1.923935 3.341507 3.097366
-1.912064 3.333572 3.102371
-1.911514 3.332596 3.117416
-1.912918 3.334946 3.112961
-1.899338 3.330246 3.110855
-1.886398 3.327469 3.103714
-1.878830 3.328079 3.100662
-1.905746 3.332382 3.098801
-1.899277 3.330124 3.094803
-1.898026 3.327957 3.124710
-1.886276 3.327225 3.119461
-1.768265 3.331161 3.091782
-1.838242 3.319839 3.016464
-1.860306 3.319992 3.025101
-1.861404 3.321945 3.011307
-1.873306 3.323532 3.001450
-1.850906 3.320114 3.014084
-1.849167 3.319901 3.005173
-1.873398 3.323715 3.017197
-1.856827 3.319717 3.019455
-1.848862 3.319290 3.020187
-1.827774 3.320602 3.028549
-1.837906 3.319260 3.000412
-1.830460 3.320114 3.004959
-1.828110 3.321213 3.013535
-1.816605 3.320297 3.008499
-1.817520 3.321945 3.025558
-1.822678 3.321335 3.018112
-1.821884 3.321335 3.017685
-1.861313 3.321793 3.058090
-1.860580 3.320419 3.041153
-1.873611 3.324081 3.033096
-1.851364 3.321243 3.043503
-1.849380 3.320236 3.036667
-1.873581 3.324020 3.048752
-1.855942 3.321030 3.054428
-1.849533 3.320511 3.052597
-1.828171 3.321335 3.060562
-1.828262 3.321487 3.044998
-1.838150 3.319687 3.031937
-1.830978 3.319870 3.035385
-1.822708 3.321365 3.046799
-1.817642 3.322189 3.041397
-1.838303 3.319992 3.047836
-1.817886 3.322647 3.057480
-1.821701 3.321487 3.052750
-1.767502 3.329727 3.027634
-1.806778 3.322647 3.021927
-1.806595 3.322311 3.006088
-1.796005 3.323685 3.003036
-1.786301 3.325455 3.000595
-1.783859 3.325607 3.027847
-1.793167 3.325974 3.022232
-1.796280 3.324203 3.019028
-1.791763 3.326584 3.017715
-1.786453 3.325729 3.016403
-1.763321 3.332840 3.027481
-1.776657 3.326736 3.013382
-1.767319 3.329391 3.011765
-1.758316 3.332382 3.010513
-1.776962 3.327347 3.029495
-1.758469 3.332657 3.026291
-1.760208 3.334213 3.017868
-1.790909 3.328171 3.052719
-1.807175 3.323380 3.038193
-1.796707 3.324997 3.035324
-1.786667 3.326126 3.032303
-1.807327 3.323624 3.054092
-1.785141 3.325882 3.058426
-1.793869 3.326370 3.051468
-1.796524 3.324631 3.050644
-1.786880 3.326523 3.048325
-1.777420 3.328201 3.061600
-1.776779 3.327011 3.044815
-1.767746 3.330215 3.043686
-1.750046 3.337265 3.042038
-1.759048 3.333755 3.042923
-1.768021 3.330734 3.059830
-1.750504 3.338120 3.058487
-1.759384 3.336014 3.052933
-1.764542 3.331650 3.056320
-1.758987 3.333633 3.058487
-1.828201 3.321396 3.092209
-1.861832 3.322678 3.090561
-1.860764 3.320755 3.072922
-1.872910 3.322830 3.063400
-1.852158 3.321335 3.072617
-1.849564 3.320602 3.068405
-1.873795 3.324387 3.080643
-1.855026 3.321701 3.089218
-1.850052 3.321457 3.085007
-1.838791 3.320877 3.080154
-1.828232 3.321457 3.076431
-1.838242 3.319870 3.063461
-1.833420 3.320816 3.066330
-1.822708 3.323898 3.076706
-1.818130 3.323105 3.073685
-1.820908 3.323410 3.087875
-1.817917 3.322708 3.089127
-1.860794 3.320847 3.120682
-1.861282 3.321732 3.105545
-1.873978 3.324753 3.096817
-1.852798 3.321915 3.101974
-1.849838 3.321091 3.100540
-1.874008 3.324753 3.112778
-1.854080 3.322311 3.124100
-1.850571 3.322372 3.117691
-1.839188 3.321548 3.112595
-1.828476 3.321884 3.108566
-1.838943 3.321152 3.096268
-1.833633 3.320389 3.096786
-1.823959 3.322586 3.105484
-1.817978 3.322800 3.105087
-1.818344 3.323471 3.121658
-1.819992 3.324448 3.122849
-1.758469 3.336502 3.087723
-1.789932 3.328537 3.087479
-1.807266 3.323563 3.069778
-1.796555 3.324692 3.066452
-1.787003 3.326767 3.064224
-1.807785 3.324448 3.086411
-1.796982 3.325485 3.082932
-1.786697 3.326279 3.089096
-1.794510 3.326889 3.080826
-1.787308 3.327316 3.080551
-1.750168 3.337479 3.089432
-1.776932 3.327255 3.076492
-1.768234 3.331100 3.075912
-1.750412 3.337936 3.074081
-1.759018 3.333694 3.074265
-1.777237 3.327866 3.092880
-1.758743 3.333206 3.089615
-1.765060 3.332504 3.085800
-1.789078 3.329483 3.122421
-1.807968 3.324844 3.102615
-1.797318 3.326126 3.099411
-1.787125 3.326981 3.096054
-1.807724 3.324356 3.118118
-1.797195 3.325851 3.115067
-1.788406 3.326797 3.119888
-1.795303 3.327011 3.110062
-1.787064 3.326828 3.111832
-1.768112 3.330887 3.123337
-1.777390 3.328171 3.109024
-1.768173 3.330978 3.107498
-1.750198 3.337540 3.105392
-1.758682 3.333084 3.105392
-1.765640 3.333298 3.115280
-1.757401 3.336044 3.122391
-1.759262 3.334152 3.122299
-1.997299 3.378128 3.091354
-1.995987 3.382187 3.026260
-1.996964 3.383804 3.012009
-1.999680 3.385666 3.015366
-1.999802 3.382767 3.001175
-1.996445 3.384384 3.006363
-1.990036 3.377975 3.010727
-1.994553 3.379715 3.055618
-1.995285 3.382828 3.040817
-1.998856 3.380508 3.046005
-1.995529 3.381424 3.041336
-1.988266 3.375565 3.043442
-1.993851 3.378555 3.086349
-1.993881 3.378952 3.074783
-1.993088 3.377243 3.069229
-1.999008 3.379501 3.068192
-1.993240 3.377518 3.117416
-1.992783 3.376755 3.100662
-1.996964 3.376999 3.113907
-1.992874 3.378799 3.109604
-1.886185 3.327072 3.216537
-1.939560 3.343643 3.152725
-1.991653 3.374832 3.147232
-1.991165 3.373978 3.130264
-1.974594 3.364731 3.133286
-1.981247 3.369492 3.129929
-1.973526 3.362900 3.147720
-1.972916 3.364273 3.145493
-1.957047 3.353836 3.150833
-1.956924 3.354050 3.136887
-1.958664 3.356430 3.128799
-1.956833 3.353470 3.134354
-1.952042 3.348831 3.137253
-1.939835 3.344101 3.137009
-1.938736 3.342270 3.183853
-1.939163 3.342941 3.168259
-1.991531 3.374619 3.179550
-1.996506 3.374832 3.159073
-1.990494 3.372849 3.161606
-1.982071 3.369522 3.159195
-1.973190 3.362350 3.163437
-1.990463 3.374680 3.178452
-1.973068 3.362106 3.179459
-1.970840 3.361740 3.178635
-1.960220 3.356735 3.187424
-1.956467 3.352890 3.166153
-1.960068 3.354416 3.157394
-1.956284 3.352554 3.182114
-1.956039 3.354874 3.171951
-1.952225 3.346786 3.182358
-1.898239 3.328293 3.141129
-1.910995 3.331711 3.148727
-1.923843 3.335587 3.140579
-1.932541 3.343491 3.128128
-1.922867 3.340652 3.131973
-1.925125 3.337845 3.126602
-1.911057 3.331772 3.132706
-1.906998 3.331039 3.127579
-1.909531 3.332321 3.142685
-1.897415 3.326859 3.155899
-1.886093 3.326920 3.135208
-1.879868 3.327347 3.129623
-1.887833 3.329361 3.127487
-1.885483 3.325821 3.150284
-1.934891 3.340988 3.185837
-1.934250 3.340408 3.156387
-1.923965 3.335831 3.156967
-1.921616 3.337936 3.166122
-1.908157 3.329880 3.156418
-1.910629 3.331070 3.164291
-1.923477 3.334976 3.172379
-1.909042 3.329636 3.185593
-1.909500 3.329086 3.178665
-1.908401 3.331070 3.172989
-1.897629 3.327255 3.172440
-1.885635 3.326096 3.166702
-1.881058 3.326096 3.158463
-1.886703 3.328171 3.162003
-1.884781 3.324570 3.181473
-1.939316 3.343246 3.201157
-1.989426 3.374252 3.213333
-1.991684 3.374863 3.196152
-1.973343 3.362595 3.196304
-1.982834 3.369705 3.188583
-1.992538 3.371933 3.206253
-1.990555 3.372940 3.210739
-1.983688 3.369675 3.217911
-1.972977 3.361984 3.212112
-1.961349 3.355667 3.216446
-1.956924 3.353622 3.199478
-1.963394 3.356979 3.213730
-1.954941 3.353867 3.206650
-1.956375 3.352737 3.215042
-1.939651 3.343796 3.218094
-1.949692 3.345200 3.206375
-1.938522 3.341873 3.249252
-1.939743 3.342056 3.234268
-1.938889 3.342484 3.233292
-1.984451 3.369888 3.247391
-1.991501 3.370682 3.229507
-1.990158 3.372299 3.226608
-1.972672 3.361465 3.228104
-1.988297 3.373123 3.248062
-1.990250 3.372452 3.243332
-1.972855 3.361740 3.244919
-1.962509 3.354538 3.245438
-1.956070 3.352188 3.231003
-1.960678 3.354172 3.247238
-1.953873 3.353348 3.241440
-1.955978 3.352036 3.247391
-1.882645 3.326340 3.217148
-1.935043 3.343307 3.215897
-1.923325 3.334732 3.188400
-1.920609 3.337997 3.201004
-1.910507 3.330826 3.196609
-1.924942 3.337479 3.207413
-1.908951 3.332687 3.215897
-1.916519 3.335464 3.205856
-1.911545 3.332626 3.214706
-1.896957 3.326065 3.187576
-1.885635 3.326981 3.196548
-1.881821 3.326279 3.187820
-1.884842 3.324661 3.197861
-1.936020 3.342850 3.245132
-1.924545 3.336807 3.223190
-1.910965 3.331650 3.230209
-1.923508 3.335037 3.237930
-1.911026 3.331741 3.246841
-1.916031 3.334579 3.236435
-1.919785 3.339615 3.236313
-1.909500 3.333603 3.245529
-1.897720 3.327377 3.238052
-1.897751 3.327469 3.221634
-1.884689 3.327835 3.231613
-1.885483 3.325790 3.231766
-1.882980 3.327957 3.247025
-1.885635 3.326096 3.248550
-1.767197 3.329147 3.218735
-1.839371 3.321915 3.144943
-1.860672 3.320602 3.152603
-1.861069 3.321335 3.137161
-1.874069 3.324875 3.128891
-1.850357 3.322006 3.133347
-1.853043 3.323776 3.131760
-1.873611 3.324081 3.144211
-1.849380 3.320236 3.147751
-1.829056 3.322922 3.141556
-1.839554 3.322189 3.129166
-1.836075 3.321335 3.127823
-1.829208 3.323227 3.125778
-1.824661 3.322952 3.134842
-1.818161 3.323135 3.137344
-1.818375 3.323563 3.153854
-1.859970 3.319321 3.183762
-1.861618 3.322281 3.170334
-1.873306 3.323563 3.159836
-1.850113 3.321579 3.165146
-1.854324 3.322342 3.160507
-1.853073 3.321915 3.158768
-1.873154 3.323257 3.175766
-1.850113 3.321579 3.181381
-1.839706 3.322464 3.177811
-1.839767 3.322586 3.161728
-1.837479 3.321640 3.158646
-1.829361 3.323471 3.158188
-1.825302 3.323471 3.164261
-1.819077 3.324997 3.157730
-1.818527 3.323776 3.170212
-1.829544 3.323837 3.174698
-1.818375 3.323502 3.186172
-1.767838 3.330368 3.154953
-1.807816 3.324509 3.150314
-1.807968 3.324844 3.134567
-1.797592 3.326614 3.131760
-1.796097 3.327103 3.139359
-1.787064 3.326859 3.127792
-1.797256 3.325974 3.147202
-1.789017 3.326584 3.150375
-1.787186 3.327103 3.144058
-1.766495 3.333084 3.144516
-1.768112 3.330856 3.139328
-1.777481 3.328323 3.125137
-1.750320 3.337784 3.137527
-1.759171 3.334000 3.138168
-1.777237 3.327835 3.140671
-1.758774 3.333237 3.153519
-1.750870 3.337753 3.144882
-1.807602 3.324142 3.182297
-1.807755 3.324417 3.166367
-1.797256 3.326035 3.163376
-1.796738 3.327560 3.168808
-1.787338 3.327347 3.160416
-1.788071 3.329361 3.157150
-1.797043 3.325363 3.178970
-1.790054 3.326675 3.181046
-1.787094 3.326889 3.176132
-1.767899 3.330490 3.187424
-1.767868 3.330399 3.171127
-1.777512 3.328354 3.157272
-1.758469 3.332657 3.169113
-1.756363 3.335251 3.156937
-1.777481 3.328293 3.173355
-1.767380 3.332901 3.173782
-1.758621 3.332962 3.185593
-1.750900 3.337234 3.175156
-1.839157 3.321487 3.209427
-1.861221 3.321335 3.218399
-1.860367 3.319839 3.200577
-1.872726 3.322495 3.191299
-1.850174 3.321671 3.197739
-1.851913 3.320145 3.193130
-1.855057 3.322525 3.189865
-1.873581 3.324051 3.209122
-1.856339 3.321030 3.218735
-1.850052 3.321426 3.213882
-1.829025 3.322617 3.206131
-1.839371 3.321915 3.193497
-1.837387 3.321030 3.189133
-1.829605 3.323959 3.191055
-1.818069 3.322952 3.201950
-1.825943 3.324051 3.193741
-1.818008 3.324417 3.192368
-1.817856 3.322586 3.217911
-1.873611 3.324081 3.242050
-1.860855 3.320724 3.234238
-1.873611 3.324051 3.225540
-1.850998 3.321121 3.228226
-1.849564 3.320572 3.229446
-1.856857 3.322067 3.248428
-1.850418 3.322098 3.247421
-1.839096 3.321365 3.242172
-1.839340 3.321823 3.226151
-1.838760 3.321274 3.219986
-1.829117 3.322830 3.222702
-1.817337 3.321609 3.233414
-1.827103 3.322891 3.222733
-1.816879 3.322830 3.226852
-1.828964 3.322525 3.238846
-1.757828 3.331406 3.216721
-1.806870 3.322769 3.213577
-1.807388 3.323746 3.198196
-1.798203 3.325455 3.197464
-1.796799 3.324905 3.194778
-1.786728 3.326248 3.191757
-1.787064 3.329056 3.191879
-1.796310 3.323990 3.210220
-1.786880 3.326492 3.208298
-1.788071 3.324905 3.210922
-1.776840 3.327103 3.204727
-1.777115 3.327591 3.188919
-1.768845 3.330856 3.202530
-1.767471 3.329666 3.202896
-1.758194 3.332138 3.201096
-1.755386 3.335617 3.191849
-1.807266 3.323532 3.247208
-1.806839 3.322739 3.229965
-1.799210 3.324844 3.226639
-1.796524 3.324387 3.227005
-1.786240 3.325333 3.223557
-1.785843 3.326584 3.226151
-1.796158 3.323715 3.242783
-1.789139 3.324997 3.241653
-1.786209 3.325272 3.239914
-1.767227 3.329208 3.235245
-1.776840 3.327103 3.221085
-1.770462 3.328262 3.231094
-1.757339 3.330490 3.232224
-1.754257 3.334061 3.226303
-1.776779 3.326981 3.237381
-1.757645 3.331070 3.249252
-1.991653 3.376602 3.143967
-1.684158 3.373581 3.203690
-1.683395 3.372055 3.089767
-1.749771 3.336685 3.025925
-1.740860 3.339859 3.024857
-1.749802 3.336777 3.010452
-1.741013 3.340164 3.009567
-1.731796 3.343704 3.008713
-1.748154 3.338272 3.023239
-1.732407 3.344864 3.025284
-1.723129 3.347824 3.008469
-1.730057 3.344315 3.005142
-1.723465 3.348434 3.024551
-1.725479 3.348404 3.019363
-1.698227 3.359940 3.023575
-1.706497 3.355301 3.007706
-1.714127 3.350449 3.007034
-1.694199 3.362808 3.014236
-1.698074 3.359604 3.007736
-1.690231 3.364548 3.008438
-1.706436 3.355148 3.023117
-1.714096 3.350449 3.022568
-1.713638 3.351517 3.018906
-1.690170 3.364395 3.023849
-1.694504 3.364090 3.021347
-1.741470 3.341019 3.057175
-1.740860 3.339859 3.040482
-1.747726 3.337448 3.053299
-1.732224 3.344559 3.056290
-1.732376 3.344803 3.040848
-1.730576 3.345322 3.034653
-1.723465 3.348465 3.040146
-1.723465 3.348495 3.055832
-1.724442 3.347672 3.053848
-1.698746 3.360947 3.055740
-1.706497 3.355301 3.038834
-1.714523 3.351212 3.038834
-1.698380 3.360214 3.039413
-1.694839 3.363297 3.043655
-1.690384 3.364822 3.039841
-1.706619 3.355545 3.054733
-1.714462 3.351120 3.054398
-1.715347 3.352066 3.049454
-1.693710 3.366074 3.056534
-1.690414 3.364944 3.055588
-1.682266 3.369766 3.024857
-1.686447 3.368362 3.016312
-1.682663 3.370590 3.010086
-1.683243 3.371750 3.057907
-1.686691 3.367966 3.046463
-1.682510 3.370255 3.040909
-1.741165 3.340439 3.088181
-1.748886 3.337601 3.083786
-1.741043 3.340225 3.072189
-1.732101 3.343094 3.063217
-1.732742 3.343582 3.092606
-1.732010 3.344131 3.087418
-1.732376 3.344833 3.072250
-1.723495 3.348526 3.071609
-1.722946 3.347427 3.086411
-1.723404 3.346939 3.088394
-1.692825 3.367569 3.091629
-1.706802 3.355881 3.070755
-1.713852 3.349930 3.069046
-1.688522 3.368576 3.077042
-1.698929 3.361282 3.071762
-1.695694 3.363205 3.072922
-1.690659 3.365402 3.071732
-1.706497 3.355270 3.085953
-1.716354 3.352097 3.079880
-1.714676 3.351517 3.086288
-1.698502 3.360458 3.086807
-1.691025 3.366104 3.088181
-1.749954 3.337051 3.120834
-1.740860 3.339828 3.103470
-1.741013 3.340164 3.119705
-1.749283 3.337296 3.114151
-1.733719 3.343063 3.121750
-1.731705 3.343521 3.118607
-1.722733 3.345993 3.122940
-1.732071 3.344223 3.103348
-1.723068 3.347672 3.102463
-1.722794 3.347153 3.117905
-1.698898 3.361221 3.119278
-1.706436 3.355148 3.101700
-1.714523 3.351273 3.101913
-1.689011 3.368362 3.107346
-1.698563 3.360550 3.102737
-1.696457 3.363388 3.102341
-1.691055 3.366196 3.104111
-1.706741 3.355759 3.118179
-1.713638 3.349533 3.116196
-1.716537 3.351669 3.110092
-1.690994 3.366074 3.119949
-1.683517 3.372269 3.074142
-1.684372 3.373978 3.123337
-1.683762 3.372757 3.106277
-1.655655 3.402969 3.086533
-1.654251 3.396805 3.027939
-1.660568 3.391403 3.017136
-1.675034 3.377548 3.012314
-1.667648 3.384537 3.014694
-1.664078 3.388596 3.014999
-1.660812 3.391861 3.002029
-1.673843 3.375137 3.025711
-1.667801 3.384842 3.030563
-1.663712 3.387589 3.025162
-1.646652 3.405655 3.022507
-1.651871 3.401627 3.000046
-1.653427 3.398422 3.004166
-1.653061 3.397659 3.018997
-1.629837 3.437363 3.023941
-1.641098 3.415512 3.012100
-1.645981 3.410690 3.014725
-1.647415 3.407242 3.008377
-1.631241 3.437057 3.015610
-1.635696 3.427109 3.003036
-1.641098 3.415512 3.027695
-1.636032 3.427841 3.019211
-1.663315 3.394791 3.061569
-1.674881 3.377243 3.043228
-1.666122 3.389389 3.045609
-1.660965 3.392197 3.033432
-1.675613 3.378738 3.060257
-1.668381 3.386032 3.047256
-1.661819 3.393936 3.050644
-1.652695 3.404099 3.059586
-1.653061 3.397629 3.034561
-1.653915 3.399368 3.051773
-1.629837 3.437302 3.055222
-1.641769 3.416946 3.044571
-1.645493 3.409866 3.044662
-1.647720 3.407852 3.040085
-1.631302 3.436569 3.045670
-1.635696 3.427109 3.034195
-1.633835 3.430496 3.033340
-1.642380 3.418167 3.061386
-1.648422 3.409286 3.057053
-1.636246 3.428268 3.050858
-1.630264 3.438248 3.009140
-1.630600 3.438950 3.040970
-1.654831 3.401260 3.069199
-1.662979 3.396286 3.084274
-1.676559 3.380661 3.077744
-1.667099 3.389481 3.075974
-1.669571 3.388412 3.065109
-1.662796 3.395920 3.068130
-1.676498 3.380508 3.093430
-1.669846 3.389023 3.081406
-1.637222 3.430344 3.084274
-1.642868 3.419205 3.078079
-1.650497 3.412521 3.076065
-1.649216 3.410965 3.074295
-1.631943 3.436447 3.075943
-1.636520 3.428848 3.067123
-1.633102 3.433578 3.068954
-1.652328 3.407700 3.090134
-1.649338 3.411179 3.090317
-1.663101 3.396530 3.116257
-1.669571 3.390488 3.106766
-1.670425 3.390182 3.098312
-1.663895 3.398209 3.101883
-1.662491 3.397049 3.096939
-1.676651 3.380783 3.109573
-1.669662 3.388657 3.112839
-1.655685 3.403061 3.118423
-1.655472 3.402573 3.102066
-1.637985 3.431625 3.117294
-1.650497 3.411972 3.106186
-1.643204 3.419907 3.094559
-1.650040 3.412674 3.107559
-1.633377 3.436844 3.106430
-1.638107 3.431900 3.101578
-1.650406 3.413406 3.124222
-1.643417 3.420334 3.110886
-1.652634 3.409317 3.120132
-1.631485 3.440811 3.089920
-1.630508 3.438736 3.072250
-1.632156 3.441910 3.122849
-1.632675 3.441086 3.105606
-1.625748 3.451675 3.095901
-1.632095 3.442093 3.107010
-1.626083 3.452316 3.112442
-1.619247 3.460373 3.084183
-1.612381 3.468399 3.024704
-1.617264 3.462601 3.016495
-1.624466 3.448898 3.014786
-1.618454 3.458694 3.004227
-1.624283 3.448563 3.030075
-1.618301 3.458389 3.019516
-1.603317 3.494461 3.024734
-1.613541 3.470932 3.011307
-1.608292 3.481339 3.001419
-1.602859 3.493484 3.008286
-1.605209 3.484940 3.009232
-1.607346 3.479263 3.030838
-1.607559 3.479752 3.015640
-1.604538 3.487320 3.017502
-1.612228 3.468094 3.055801
-1.624222 3.448441 3.045639
-1.617355 3.462173 3.046585
-1.618698 3.459213 3.035873
-1.623520 3.446945 3.060043
-1.617966 3.457626 3.050156
-1.601730 3.490982 3.053116
-1.612808 3.469284 3.041153
-1.606949 3.478378 3.045761
-1.602646 3.493027 3.039169
-1.604507 3.499069 3.033615
-1.604446 3.488327 3.044968
-1.607071 3.478653 3.061752
-1.604752 3.486923 3.047653
-1.624802 3.449600 3.078201
-1.617874 3.461960 3.076828
-1.612289 3.468185 3.071671
-1.617844 3.457382 3.065689
-1.602768 3.493271 3.086777
-1.604172 3.495529 3.077805
-1.602310 3.492233 3.069992
-1.605423 3.486801 3.077896
-1.613937 3.471756 3.090683
-1.607468 3.479538 3.078323
-1.603653 3.490738 3.080521
-1.619644 3.461258 3.116806
-1.621414 3.463730 3.107895
-1.620132 3.462296 3.101791
-1.602859 3.493454 3.118851
-1.610336 3.483505 3.104782
-1.614182 3.472244 3.107040
-1.608536 3.481827 3.096207
-1.603378 3.494583 3.103836
-1.606155 3.486771 3.108261
-1.613907 3.471695 3.122543
-1.608871 3.482559 3.112839
-1.605972 3.488602 3.123795
-1.602951 3.494400 3.116440
-1.684494 3.374222 3.188004
-1.749832 3.336838 3.152695
-1.740738 3.339615 3.151230
-1.740524 3.339188 3.134781
-1.731369 3.342880 3.134018
-1.734695 3.342575 3.150925
-1.731522 3.343185 3.150314
-1.723007 3.347580 3.150345
-1.723099 3.347763 3.134476
-1.691635 3.367325 3.153152
-1.706894 3.356094 3.134476
-1.715805 3.350693 3.140121
-1.714249 3.350693 3.133255
-1.689377 3.368027 3.137619
-1.697617 3.362289 3.131363
-1.691849 3.367630 3.126450
-1.698532 3.360519 3.134628
-1.691086 3.366196 3.136063
-1.706375 3.355057 3.149582
-1.714310 3.350845 3.149460
-1.698685 3.360794 3.150925
-1.749435 3.336075 3.184311
-1.749741 3.336655 3.168655
-1.740250 3.338669 3.166489
-1.731522 3.343216 3.166458
-1.740677 3.339462 3.183426
-1.736191 3.340439 3.179642
-1.731827 3.343796 3.183212
-1.722794 3.347122 3.166031
-1.721939 3.348160 3.158249
-1.722153 3.345871 3.181015
-1.699234 3.361893 3.184280
-1.706711 3.355698 3.166306
-1.717575 3.351242 3.170883
-1.713913 3.350052 3.164810
-1.690506 3.368210 3.168137
-1.698624 3.361679 3.160629
-1.691025 3.369339 3.161697
-1.699295 3.361984 3.168167
-1.691330 3.366714 3.168716
-1.706497 3.355270 3.182083
-1.714157 3.350510 3.181412
-1.691483 3.367020 3.185226
-1.684006 3.373276 3.154739
-1.684158 3.373550 3.138931
-1.684372 3.373978 3.171555
-1.740067 3.338333 3.214890
-1.748581 3.334457 3.215347
-1.740616 3.339401 3.199600
-1.749222 3.335678 3.200180
-1.731277 3.342697 3.198441
-1.737045 3.340347 3.209061
-1.749283 3.335648 3.205093
-1.730789 3.341751 3.213852
-1.721664 3.344955 3.212692
-1.722031 3.345688 3.197067
-1.721146 3.350479 3.193619
-1.698776 3.360733 3.215836
-1.706528 3.355331 3.198380
-1.716385 3.349960 3.200821
-1.714066 3.350388 3.197556
-1.691757 3.367569 3.201981
-1.699478 3.361526 3.190018
-1.698685 3.360794 3.199509
-1.690872 3.367905 3.198502
-1.690170 3.371414 3.197067
-1.706497 3.355270 3.214645
-1.713852 3.349899 3.213425
-1.691483 3.367020 3.217819
-1.739395 3.337051 3.246506
-1.739273 3.336807 3.229813
-1.748215 3.333755 3.231064
-1.730392 3.340988 3.229477
-1.749069 3.335403 3.249130
-1.748062 3.334335 3.235123
-1.738754 3.337509 3.237595
-1.730759 3.341690 3.246628
-1.722031 3.345688 3.246262
-1.719833 3.346878 3.227646
-1.721146 3.343948 3.228134
-1.698746 3.360672 3.248642
-1.706100 3.354507 3.230301
-1.715134 3.348587 3.230820
-1.713455 3.349136 3.229050
-1.689133 3.370682 3.231827
-1.700882 3.359756 3.218979
-1.698380 3.359940 3.231461
-1.691299 3.366623 3.233841
-1.691757 3.367905 3.229050
-1.706223 3.354752 3.246994
-1.713028 3.348312 3.244705
-1.702713 3.356583 3.247482
-1.690628 3.365311 3.249069
-1.683853 3.372910 3.235794
-1.684586 3.374405 3.220810
-1.665756 3.401993 3.218399
-1.664383 3.399185 3.150772
-1.670853 3.391037 3.147079
-1.676590 3.380692 3.125412
-1.670273 3.390396 3.137131
-1.670212 3.389755 3.129837
-1.656876 3.405472 3.136673
-1.661636 3.398758 3.132187
-1.663773 3.397934 3.133530
-1.676804 3.381149 3.141861
-1.657455 3.406693 3.153854
-1.645798 3.425278 3.147446
-1.652115 3.412491 3.136765
-1.644974 3.423569 3.129807
-1.638565 3.432816 3.134415
-1.651382 3.415756 3.151718
-1.651535 3.415756 3.142410
-1.639664 3.435165 3.152634
-1.664749 3.399918 3.183792
-1.677078 3.381668 3.158463
-1.671066 3.390366 3.167557
-1.664474 3.399368 3.167099
-1.670883 3.391098 3.163223
-1.661148 3.405563 3.168747
-1.677383 3.382309 3.175217
-1.671127 3.391586 3.179855
-1.658218 3.408218 3.171463
-1.648453 3.427383 3.185043
-1.655777 3.414261 3.167984
-1.652603 3.417984 3.160568
-1.646835 3.427444 3.165543
-1.639847 3.435562 3.169144
-1.653336 3.419449 3.178116
-1.647507 3.428818 3.183060
-1.626297 3.452805 3.144943
-1.632034 3.445541 3.141647
-1.635269 3.437546 3.137100
-1.625626 3.451401 3.127609
-1.632919 3.443527 3.140366
-1.626846 3.453964 3.178360
-1.637924 3.438705 3.168045
-1.632980 3.443680 3.156631
-1.626602 3.453445 3.161667
-1.640945 3.437851 3.187485
-1.633774 3.445328 3.174301
-1.631180 3.447403 3.177139
-1.671249 3.391830 3.212692
-1.677536 3.382584 3.207993
-1.677170 3.381851 3.191025
-1.671860 3.390335 3.198013
-1.665176 3.400803 3.200912
-1.671494 3.392349 3.196854
-1.660263 3.406784 3.203995
-1.659958 3.416367 3.199417
-1.658676 3.409164 3.188553
-1.658707 3.409225 3.204910
-1.648026 3.429916 3.216721
-1.653885 3.420334 3.195236
-1.647720 3.429245 3.199753
