4.981430 1.883987 3.777237
4.976944 1.885727 3.779556
4.997940 1.877457 3.778793
4.961929 1.891037 3.786179
4.945206 1.904648 3.783920
4.948868 1.901047 3.800156
4.955826 1.894882 3.807755
4.961014 1.890701 3.805618
4.998764 1.879471 3.806778
4.976547 1.883865 3.805862
4.981369 1.883957 3.797348
4.897903 1.957657 3.792374
4.892929 1.964005 3.759293
4.906204 1.941666 3.762192
4.900436 1.953079 3.761398
4.899948 1.952896 3.781052
4.900497 1.944626 3.766739
4.892380 1.963760 3.778885
4.897263 1.957230 3.767532
4.882156 1.989120 3.758896
4.887894 1.976273 3.759232
4.881088 1.994278 3.750076
4.886063 1.975601 3.777298
4.889450 1.976883 3.780472
4.884689 1.990158 3.780869
4.883560 1.993332 3.775894
4.891129 1.965866 3.784439
4.900711 1.944687 3.793930
4.905350 1.941299 3.781570
4.905014 1.941177 3.801407
4.899094 1.952560 3.800491
4.892044 1.963638 3.798721
4.882858 1.989395 3.799545
4.887253 1.975998 3.798843
4.884354 1.969437 3.801834
4.882004 1.995407 3.799393
4.913712 1.931229 3.845078
4.935959 1.905228 3.836655
4.913071 1.931992 3.826584
4.937119 1.910599 3.814926
4.912949 1.930954 3.824234
4.917953 1.922684 3.814316
4.934799 1.909714 3.833389
4.926102 1.920212 3.830276
4.917923 1.921951 3.841263
4.936295 1.910263 3.854843
4.926163 1.920242 3.850601
4.917831 1.921158 3.868149
4.935959 1.910141 3.874985
4.936844 1.907516 3.864914
4.924515 1.919601 3.869675
4.909927 1.928452 3.869247
4.913040 1.930954 3.864883
4.979294 1.883163 3.856613
4.950241 1.901566 3.821396
4.960159 1.890366 3.825211
4.948959 1.906082 3.828079
4.948135 1.900742 3.840073
4.955917 1.894577 3.834793
4.999527 1.876480 3.827866
4.981339 1.883926 3.817520
4.979935 1.883408 3.836746
4.976669 1.883804 3.832962
4.988907 1.881058 3.830246
4.999344 1.880905 3.834549
4.962967 1.891434 3.847702
4.945053 1.902054 3.870621
4.948837 1.901016 3.860947
4.962631 1.891312 3.867783
4.956284 1.895157 3.862259
4.991714 1.881821 3.874344
4.977768 1.886703 3.861465
4.999496 1.880783 3.861740
4.900406 1.942581 3.847458
4.898117 1.958450 3.817062
4.900253 1.942703 3.820267
4.898636 1.952377 3.820297
4.887131 1.961716 3.826889
4.892715 1.963913 3.819412
4.905746 1.941452 3.842422
4.899979 1.952896 3.841599
4.896500 1.960617 3.840652
4.891006 1.963211 3.838303
4.907120 1.942001 3.823227
4.880142 1.997757 3.822739
4.886032 1.975510 3.818069
4.881790 1.988968 3.818893
4.887405 1.976059 3.839371
4.886246 1.974899 3.831497
4.883163 1.989517 3.840195
4.891983 1.963608 3.859390
4.900650 1.942825 3.874893
4.905106 1.941208 3.862228
4.899704 1.952774 3.861679
4.886795 1.960220 3.870163
4.895493 1.962357 3.864639
4.880539 1.988449 3.858444
4.885208 1.970993 3.857132
4.886307 1.975601 3.858810
4.882065 1.997238 3.848404
4.880753 1.999191 3.872177
4.992172 1.880875 3.917923
4.913803 1.930008 3.913498
4.913193 1.931046 3.885422
4.923447 1.919174 3.889267
4.918167 1.921646 3.895676
4.936935 1.907120 3.892044
4.937454 1.910721 3.896622
4.914108 1.931381 3.906662
4.936569 1.910385 3.916458
4.924667 1.919662 3.910751
4.937363 1.908035 3.919785
4.936508 1.910355 3.937027
4.925369 1.919937 3.931900
4.918564 1.922348 3.923416
4.913925 1.931320 3.927078
4.999222 1.878830 3.915482
4.956650 1.895889 3.889877
4.949112 1.901138 3.881607
4.963699 1.891708 3.889114
4.947830 1.900620 3.901077
4.999557 1.876480 3.889145
4.976883 1.883316 3.887253
4.980576 1.883652 3.878067
4.999557 1.880356 3.888840
4.980972 1.883804 3.898849
4.956314 1.894272 3.916489
4.945908 1.901413 3.914261
4.963577 1.891678 3.909561
4.951096 1.901901 3.924240
4.964615 1.892044 3.930984
4.978622 1.888290 3.916763
4.983170 1.884628 3.921188
4.893936 1.964157 3.915176
4.896042 1.962875 3.889664
4.905106 1.941208 3.882645
4.898819 1.952438 3.881393
4.892166 1.963699 3.879929
4.905594 1.941391 3.903488
4.900955 1.943222 3.902420
4.898056 1.952133 3.901230
4.892715 1.963913 3.900833
4.883102 1.989517 3.880875
4.886673 1.975082 3.886307
4.886856 1.975815 3.879623
4.886276 1.975601 3.899643
4.883224 1.989548 3.901413
4.893967 1.965408 3.913132
4.896530 1.951523 3.920547
4.905106 1.941208 3.923660
4.900986 1.942673 3.929611
4.892899 1.967117 3.937241
4.893814 1.964340 3.922226
4.882004 1.989059 3.920975
4.887894 1.976242 3.921463
4.885056 1.969254 3.911148
4.919052 1.922745 3.978500
4.936508 1.905716 3.946152
4.918869 1.922745 3.951035
4.915085 1.931778 3.948654
4.927048 1.920578 3.953903
4.916122 1.930435 3.957504
4.914688 1.931625 3.969040
4.936905 1.910507 3.978836
4.937424 1.908035 3.974655
4.926193 1.920242 3.973984
4.937241 1.910629 3.999985
4.926010 1.920181 3.994675
4.914993 1.931717 3.990097
4.978989 1.888321 3.971664
4.957291 1.896683 3.944992
4.951248 1.901932 3.945023
4.950577 1.901688 3.965225
4.949997 1.903091 3.958633
4.966537 1.892776 3.953201
4.999985 1.880722 3.943710
4.984238 1.885025 3.942703
4.978470 1.887283 3.943741
4.994583 1.881363 3.962021
4.986435 1.885849 3.965225
4.937698 1.910812 3.958694
4.966049 1.892624 3.973618
4.958054 1.898697 3.973343
4.952225 1.902145 3.987320
4.966354 1.892715 3.994705
4.987503 1.886276 3.986923
4.979050 1.888077 3.999069
4.906418 1.941727 3.986832
4.891434 1.963394 3.940933
4.906204 1.941635 3.945175
4.899124 1.952560 3.943253
4.885086 1.968735 3.938431
4.897171 1.951767 3.962387
4.901230 1.942886 3.957199
4.893204 1.964096 3.963058
4.895065 1.963730 3.958878
4.907150 1.942001 3.966660
4.883255 1.989548 3.942612
4.886246 1.975571 3.940750
4.887436 1.976059 3.962387
4.885605 1.969864 3.966476
4.891678 1.969040 3.961319
4.882797 1.989365 3.962936
4.892960 1.964005 3.983627
4.897751 1.952011 3.983627
4.901718 1.943863 3.985184
4.881851 1.988968 3.982925
4.887802 1.976212 3.983444
4.886520 1.972183 3.995102
4.892197 1.969559 3.986588
5.260452 1.986099 3.285446
5.261520 1.987045 3.286118
5.147293 1.870041 3.043137
5.100998 1.860947 3.046799
5.060623 1.859818 3.042068
5.017593 1.869308 3.004623
5.013809 1.866959 3.014145
5.017838 1.869400 3.022507
5.037186 1.863144 3.015182
5.038437 1.863022 3.014359
5.061600 1.863235 3.017563
5.014511 1.868668 3.040359
5.014603 1.868179 3.038315
5.015335 1.868454 3.056564
5.036911 1.861801 3.040359
5.039413 1.863388 3.032730
5.038101 1.862900 3.049759
5.105179 1.859024 3.042923
5.068314 1.859421 3.011581
5.065506 1.858383 3.027725
5.084000 1.859055 3.018448
5.102554 1.860123 3.000137
5.104111 1.857834 3.012161
5.099197 1.856064 3.027115
5.108109 1.858200 3.018295
5.103226 1.860245 3.022568
5.084030 1.858719 3.044022
5.065720 1.858475 3.045700
5.108688 1.862930 3.047806
5.103256 1.857529 3.047470
5.061325 1.860977 3.093948
5.015518 1.868515 3.074539
5.014938 1.869431 3.066360
5.013901 1.865768 3.090805
5.016129 1.868759 3.092819
5.060776 1.859848 3.067764
5.037827 1.864090 3.066879
5.039780 1.863510 3.068649
5.037094 1.861435 3.091690
5.036270 1.862228 3.084457
5.015793 1.868637 3.110580
5.014328 1.866653 3.116898
5.035568 1.861954 3.101974
5.037643 1.862717 3.121292
5.036819 1.860062 3.116989
5.061935 1.862381 3.120255
5.096878 1.862289 3.095291
5.083755 1.857346 3.069290
5.064407 1.857986 3.062820
5.064011 1.857834 3.080521
5.108109 1.860855 3.072830
5.104965 1.859360 3.065964
5.105942 1.858505 3.067032
5.100876 1.861282 3.069839
5.108749 1.858902 3.086655
5.107193 1.858963 3.085831
5.085068 1.860916 3.096329
5.065353 1.858322 3.099350
5.067856 1.859238 3.118942
5.086197 1.863846 3.123215
5.108719 1.862137 3.099106
5.102432 1.857224 3.100998
5.107407 1.857803 3.123398
5.109329 1.859726 3.123367
5.103409 1.860184 3.113052
5.102005 1.861618 3.115219
5.151260 1.867264 3.039291
5.136276 1.871170 3.053177
5.150955 1.867050 3.016708
5.133774 1.864273 3.025009
5.150101 1.869217 3.018631
5.162003 1.873642 3.005051
5.151230 1.868088 3.108047
5.145432 1.870682 3.067154
5.134781 1.866409 3.077316
5.149521 1.867874 3.063217
5.143723 1.871292 3.091171
5.150375 1.867966 3.085617
5.162186 1.872940 3.082199
5.136093 1.869858 3.104385
5.145676 1.871201 3.112961
5.123398 1.907059 3.037399
5.001205 1.877151 3.015244
5.200729 1.893448 3.035263
5.162857 1.875778 3.031540
5.179581 1.881088 3.002396
5.179916 1.879745 3.023544
5.182144 1.880844 3.023514
5.177963 1.880386 3.047501
5.163284 1.876633 3.057632
5.178146 1.881912 3.048721
5.201797 1.894608 3.035934
5.204300 1.892502 3.010361
5.188705 1.883347 3.010757
5.201889 1.894302 3.013168
5.222855 1.905441 3.000687
5.222244 1.905838 3.023727
5.248306 1.934647 3.011215
5.220291 1.907303 3.003586
5.246597 1.935745 3.013535
5.220230 1.907578 3.026260
5.222153 1.910324 3.022507
5.234299 1.920242 3.018021
5.234055 1.921890 3.019547
5.188797 1.883194 3.036514
5.200668 1.895126 3.059402
5.203537 1.893173 3.056290
5.249802 1.934616 3.032913
5.232193 1.920944 3.042007
5.232620 1.922440 3.043106
5.245010 1.936325 3.037155
5.218918 1.908157 3.049789
5.220047 1.906570 3.047745
5.222183 1.909958 3.048294
5.246933 1.935501 3.057419
5.245071 1.936630 3.059830
5.175278 1.883041 3.096268
5.174698 1.882858 3.073685
5.182083 1.879868 3.067795
5.180038 1.880539 3.091965
5.177963 1.882828 3.117599
5.164200 1.878403 3.110031
5.180496 1.880722 3.114639
5.202255 1.893997 3.102829
5.191208 1.889786 3.064651
5.192642 1.893509 3.091873
5.199203 1.895676 3.083176
5.203232 1.893509 3.079300
5.216843 1.908829 3.073868
5.234879 1.922256 3.064438
5.225204 1.918320 3.077164
5.220718 1.906693 3.070114
5.231613 1.921371 3.065109
5.220810 1.906967 3.092911
5.231766 1.921585 3.087845
5.233749 1.922775 3.087936
5.246048 1.935928 3.080734
5.243454 1.937241 3.083633
5.196457 1.896500 3.107773
5.190903 1.888046 3.115891
5.212601 1.910263 3.122391
5.245346 1.936386 3.104019
5.224319 1.915298 3.102097
5.219162 1.908646 3.095291
5.220444 1.907303 3.116074
5.230057 1.922226 3.111801
5.233414 1.923141 3.111069
5.243057 1.937576 3.106735
5.113876 1.861374 3.162613
5.061813 1.861160 3.171585
5.015762 1.868607 3.128555
5.015518 1.868576 3.138840
5.015366 1.869370 3.143692
5.016129 1.868729 3.146866
5.035782 1.862015 3.138199
5.061234 1.848648 3.141373
5.036942 1.860001 3.142776
5.061813 1.861588 3.145828
5.018204 1.869522 3.166306
5.015274 1.868576 3.169296
5.018784 1.869675 3.182358
5.016861 1.869003 3.183640
5.038620 1.864670 3.170334
5.040512 1.863785 3.159286
5.039261 1.863297 3.176712
5.097519 1.863022 3.164444
5.068192 1.859360 3.137283
5.067978 1.859299 3.155319
5.085953 1.862564 3.148636
5.106064 1.859970 3.134506
5.103775 1.861526 3.137283
5.108719 1.859512 3.141159
5.109482 1.863541 3.151352
5.086960 1.865189 3.175491
5.072769 1.861038 3.176529
5.101181 1.860947 3.160782
5.103653 1.860764 3.182510
5.123093 1.864731 3.186661
5.109451 1.862991 3.177109
5.040359 1.863724 3.232315
5.015640 1.869156 3.195419
5.016983 1.869064 3.201981
5.038223 1.863022 3.195694
5.037491 1.862656 3.193832
5.043930 1.865036 3.216232
5.016037 1.869980 3.221695
5.018753 1.869705 3.221390
5.017166 1.867294 3.225113
5.016373 1.870499 3.247910
5.018692 1.869675 3.239700
5.039047 1.865067 3.222427
5.039810 1.866837 3.249100
5.110916 1.866470 3.230423
5.086563 1.863541 3.200821
5.063217 1.864975 3.198898
5.070908 1.860367 3.193649
5.079514 1.860367 3.187546
5.072617 1.860977 3.213089
5.097305 1.863327 3.187851
5.095963 1.863876 3.212112
5.100204 1.861710 3.208054
5.110458 1.865616 3.204056
5.123337 1.864822 3.205215
5.087296 1.864609 3.231979
5.073990 1.861496 3.232376
5.063400 1.864944 3.224899
5.085434 1.859726 3.225449
5.092117 1.864944 3.238052
5.100571 1.861893 3.231277
5.141342 1.872604 3.161942
5.147202 1.869705 3.180008
5.147568 1.869095 3.133438
5.137039 1.872116 3.131088
5.143570 1.871872 3.137344
5.136124 1.868973 3.155899
5.148972 1.869095 3.155685
5.137466 1.872543 3.183182
5.140182 1.873123 3.185898
5.147720 1.870163 3.226334
5.147018 1.870041 3.203415
5.139267 1.873581 3.209824
5.140213 1.873672 3.232620
5.127487 1.866318 3.226303
5.131943 1.867966 3.247665
5.138138 1.873672 3.235703
5.000412 1.876846 3.230850
5.192123 1.890701 3.168900
5.172226 1.884506 3.167435
5.164352 1.878555 3.136002
5.175095 1.882065 3.141068
5.172989 1.884079 3.143814
5.179489 1.881485 3.161453
5.164352 1.878036 3.161819
5.176804 1.882309 3.186295
5.199478 1.895401 3.173721
5.200912 1.894516 3.126633
5.197586 1.896591 3.130112
5.199753 1.895065 3.150436
5.192917 1.893417 3.143814
5.195755 1.897202 3.154312
5.213486 1.910385 3.144852
5.244614 1.936813 3.127426
5.219162 1.907852 3.139877
5.224258 1.914719 3.127945
5.231369 1.923843 3.135330
5.231888 1.922165 3.133652
5.244156 1.937180 3.150742
5.196732 1.897324 3.176834
5.216476 1.908676 3.164658
5.214218 1.910507 3.167465
5.217514 1.908737 3.187180
5.228989 1.923019 3.158524
5.226822 1.921707 3.156540
5.231735 1.924057 3.158127
5.225784 1.918411 3.181503
5.228775 1.923355 3.181778
5.230423 1.924606 3.182083
5.242081 1.937912 3.175156
5.240433 1.938431 3.131363
5.238235 1.939163 3.155777
5.249557 1.952957 3.149155
5.239670 1.939163 3.177963
5.174515 1.883286 3.234421
5.138748 1.875870 3.210434
5.173325 1.884567 3.189957
5.164383 1.877762 3.187759
5.165695 1.881149 3.215103
5.172318 1.885056 3.213852
5.175491 1.882797 3.210434
5.167343 1.885452 3.242813
5.169601 1.885880 3.238998
5.195114 1.898209 3.224380
5.194077 1.896011 3.196915
5.193893 1.898178 3.201859
5.197891 1.895981 3.197952
5.212357 1.911179 3.191818
5.212326 1.911453 3.215103
5.216690 1.909195 3.210892
5.229691 1.929153 3.211624
5.227921 1.923782 3.205521
5.228470 1.925308 3.206558
5.194717 1.897446 3.223618
5.197281 1.896378 3.221603
5.194229 1.895584 3.249100
5.194839 1.897141 3.246567
5.210281 1.912155 3.239731
5.215317 1.909744 3.235092
5.229019 1.923843 3.228073
5.227219 1.925827 3.230637
5.229385 1.927841 3.237411
5.249008 1.954880 3.220261
5.249435 1.954483 3.196762
5.238754 1.939621 3.201736
5.242508 1.938095 3.198013
5.249222 1.953568 3.195602
5.248642 1.953964 3.219193
5.237869 1.940109 3.225571
5.243057 1.938278 3.220901
5.238846 1.940201 3.248245
5.242722 1.938644 3.244431
5.246048 1.954819 3.244186
5.248489 1.955276 3.243912
5.254898 1.951340 3.032852
5.261551 1.966782 3.052048
5.264359 1.966904 3.051529
5.262375 1.966049 3.006241
5.254257 1.950272 3.009354
5.256516 1.950729 3.009232
5.264481 1.966293 3.006149
5.255844 1.950211 3.030991
5.262833 1.966202 3.028549
5.266464 1.966171 3.027512
5.275009 1.996567 3.002121
5.269272 1.980789 3.003769
5.270554 1.981644 3.004257
5.276077 1.997696 3.002731
5.269180 1.981094 3.026413
5.268600 1.982346 3.028061
5.272964 1.998703 3.027267
5.274490 1.996964 3.025009
5.251205 1.951462 3.056564
5.253372 1.951950 3.056503
5.272446 1.997726 3.048965
5.267532 1.981674 3.050095
5.268631 1.982620 3.050705
5.275925 1.998306 3.048080
5.250198 1.953201 3.104111
5.261673 1.967026 3.074722
5.263474 1.967361 3.074814
5.251236 1.951736 3.079330
5.254837 1.951920 3.078354
5.272537 1.997971 3.071609
5.265244 1.982468 3.074326
5.268082 1.983017 3.073807
5.274612 1.998886 3.071640
5.257523 1.968185 3.100174
5.253036 1.951645 3.101059
5.258682 1.968674 3.100693
5.251724 1.952194 3.124802
5.261124 1.967697 3.120804
5.261581 1.968338 3.121719
5.269089 1.999008 3.096634
5.266769 1.982437 3.096176
5.266373 1.983688 3.097702
5.271744 1.999802 3.096268
5.265518 1.982986 3.119858
5.267380 1.983749 3.119949
5.269241 1.999252 3.119431
5.251236 1.952866 3.171158
5.251999 1.953690 3.171951
5.251816 1.953110 3.126022
5.250656 1.953659 3.149734
5.259476 1.968369 3.144821
5.267654 1.999680 3.143387
5.259628 1.969040 3.145981
5.262772 1.983871 3.144547
5.267288 1.984055 3.142960
5.270279 1.999405 3.164719
5.257706 1.969742 3.170242
5.256485 1.969284 3.169785
5.264420 1.983780 3.166519
5.264786 1.984909 3.167587
5.261703 1.985245 3.237869
5.262589 1.984482 3.190842
5.258957 1.969803 3.192581
5.258041 1.969223 3.191910
5.263565 1.985428 3.191544
5.256790 1.970535 3.217209
5.256516 1.969833 3.216080
5.261398 1.985031 3.214798
5.261612 1.986160 3.215958
5.263412 1.986069 3.238083
5.257584 1.970657 3.239944
5.256577 1.970108 3.239334
5.142075 1.871628 3.291397
5.110123 1.863266 3.281418
5.043686 1.864944 3.289902
5.018478 1.869614 3.257980
5.018387 1.869583 3.276382
5.016037 1.868881 3.273361
5.027908 1.873703 3.270035
5.040359 1.863724 3.250748
5.039688 1.865952 3.274826
5.045486 1.865616 3.272537
5.017532 1.869247 3.294357
5.016800 1.870743 3.300156
5.045914 1.865768 3.309952
5.039963 1.866379 3.301102
5.111862 1.867905 3.309372
5.089249 1.865768 3.263443
5.062881 1.862961 3.250198
5.073105 1.861160 3.250259
5.087662 1.865982 3.253830
5.063644 1.864853 3.276993
5.076248 1.862320 3.270828
5.088058 1.863968 3.275314
5.087418 1.864731 3.279465
5.111496 1.867722 3.256973
5.100601 1.862198 3.254776
5.097977 1.862961 3.280075
5.087296 1.866409 3.288315
5.077896 1.862930 3.290482
5.063919 1.865158 3.303238
5.080856 1.863998 3.311050
5.088181 1.866562 3.306351
5.095108 1.863785 3.305618
5.047592 1.866379 3.348465
5.016556 1.869522 3.325851
5.019547 1.870010 3.314255
5.026291 1.871323 3.312820
5.021439 1.870712 3.334152
5.040451 1.867294 3.327652
5.046066 1.865829 3.328720
5.021286 1.870651 3.352768
5.017532 1.872025 3.353043
5.029251 1.872238 3.356461
5.022964 1.871262 3.372665
5.040787 1.867905 3.354111
5.047256 1.866257 3.367020
5.112564 1.869064 3.362320
5.084396 1.867264 3.313950
5.064377 1.866104 3.329788
5.082932 1.867813 3.338699
5.079910 1.863663 3.329147
5.088425 1.866867 3.332657
5.090164 1.865036 3.332596
5.096786 1.868881 3.320084
5.112778 1.870255 3.336502
5.090927 1.865158 3.355942
5.064896 1.867142 3.356430
5.083450 1.864944 3.350266
5.086288 1.865982 3.370987
5.081741 1.868362 3.363388
5.089401 1.869339 3.359879
5.105728 1.873947 3.364975
5.140488 1.871048 3.309128
5.140610 1.872391 3.301529
5.135880 1.874802 3.258865
5.137497 1.871292 3.261002
5.140060 1.871933 3.254745
5.135330 1.869186 3.268417
5.142166 1.871811 3.276871
5.136642 1.873764 3.351608
5.139908 1.872818 3.325668
5.196304 1.897446 3.292557
5.167160 1.884048 3.294693
5.173264 1.883804 3.258682
5.170883 1.885910 3.261612
5.167252 1.884872 3.268784
5.174911 1.883774 3.281113
5.140640 1.880142 3.290451
5.135208 1.875198 3.282883
5.135239 1.875504 3.306473
5.164993 1.887344 3.288986
5.170761 1.884872 3.307419
5.167038 1.887222 3.311264
5.193863 1.893692 3.300949
5.190964 1.899307 3.250443
5.196732 1.902359 3.277908
5.194412 1.897537 3.270279
5.192429 1.899307 3.272964
5.216080 1.909866 3.257980
5.212387 1.912033 3.261795
5.229294 1.927170 3.263504
5.227066 1.924545 3.252731
5.227737 1.926010 3.253647
5.226303 1.925003 3.276627
5.226822 1.926498 3.277664
5.191391 1.899796 3.297165
5.210770 1.912643 3.286331
5.213699 1.910660 3.283005
5.210526 1.912979 3.310043
5.212296 1.911209 3.307449
5.232346 1.935623 3.293015
5.223801 1.927414 3.303177
5.223648 1.925827 3.301895
5.246628 1.956253 3.291946
5.246689 1.954941 3.267136
5.241776 1.939102 3.268417
5.239182 1.940445 3.271439
5.248215 1.955643 3.267441
5.246994 1.955215 3.290390
5.240280 1.939713 3.292892
5.236435 1.941269 3.296738
5.186508 1.901382 3.347702
5.139572 1.876572 3.315353
5.132248 1.876358 3.332169
5.167953 1.886002 3.321732
5.170212 1.885269 3.331406
5.165573 1.887802 3.335922
5.141861 1.882828 3.344040
5.131210 1.876877 3.356674
5.139999 1.876999 3.368149
5.169876 1.885605 3.355392
5.168655 1.887589 3.348679
5.165207 1.888199 3.359909
5.198135 1.905197 3.358078
5.191513 1.900070 3.320694
5.193558 1.898239 3.317978
5.198166 1.905746 3.331833
5.209854 1.913406 3.334122
5.212540 1.911453 3.330917
5.222397 1.926376 3.326309
5.225418 1.927383 3.325699
5.188461 1.899582 3.345016
5.190353 1.900894 3.368942
5.192184 1.899124 3.366318
5.208725 1.913956 3.358566
5.210892 1.912094 3.355698
5.221725 1.926804 3.350418
5.222794 1.928207 3.351151
5.223679 1.926682 3.372879
5.234024 1.939560 3.347427
5.245956 1.956711 3.315964
5.233261 1.942215 3.322372
5.233170 1.937515 3.320145
5.237198 1.940628 3.318466
5.246109 1.955673 3.314499
5.238297 1.940689 3.341385
5.244034 1.956375 3.339493
5.242447 1.957748 3.341904
5.233261 1.942551 3.346054
5.235428 1.942368 3.368301
5.237991 1.941055 3.365280
5.243484 1.956802 3.363571
5.242905 1.957932 3.365311
5.113449 1.870804 3.415756
5.049789 1.867172 3.406479
5.016129 1.867203 3.377426
5.018234 1.873306 3.406082
5.025620 1.872269 3.393265
5.027420 1.869736 3.399307
5.048813 1.866837 3.386917
5.041946 1.870956 3.381516
5.022537 1.871109 3.410080
5.017960 1.871933 3.431900
5.022385 1.871048 3.428909
5.041733 1.869797 3.407425
5.042435 1.871445 3.434433
5.052963 1.868362 3.427628
5.108017 1.874374 3.408707
5.082596 1.868454 3.386795
5.064835 1.866531 3.382492
5.089767 1.869949 3.386429
5.091507 1.865341 3.379501
5.090134 1.865891 3.404434
5.088272 1.866714 3.391220
5.112869 1.869583 3.388870
5.091354 1.874313 3.414505
5.065262 1.867325 3.409134
5.087265 1.866348 3.409531
5.078506 1.869553 3.413559
5.066879 1.871719 3.437241
5.086990 1.866806 3.430618
5.092300 1.868179 3.431931
5.049240 1.866989 3.482376
5.024124 1.871689 3.449142
5.028458 1.869247 3.442673
5.023636 1.871506 3.467880
5.050339 1.867386 3.444870
5.040543 1.865311 3.458389
5.050095 1.867294 3.463791
5.019119 1.874466 3.485794
5.025345 1.872147 3.488205
5.037186 1.874191 3.487534
5.042160 1.869644 3.486618
5.114243 1.872330 3.469254
5.090622 1.871567 3.439865
5.077072 1.870132 3.438675
5.066513 1.870193 3.463089
5.075455 1.870712 3.463974
5.091293 1.873154 3.466965
5.085953 1.867264 3.455521
5.109390 1.874130 3.452316
5.094070 1.868851 3.452286
5.083878 1.867935 3.481155
5.066727 1.870316 3.489639
5.076797 1.870773 3.487381
5.090530 1.870438 3.492386
5.095016 1.869186 3.472092
5.094711 1.869064 3.491135
5.135178 1.874313 3.376419
5.133377 1.874954 3.401566
5.000443 1.876846 3.417068
5.001663 1.877304 3.436874
5.001114 1.877090 3.379807
5.001358 1.877182 3.398819
5.000656 1.876907 3.474258
5.019974 1.877579 3.460556
5.003250 1.877884 3.456955
5.000870 1.876999 3.493515
5.114334 1.876389 3.496658
5.115158 1.875443 3.444016
5.115829 1.876511 3.497513
5.189590 1.900192 3.415817
5.186142 1.902359 3.419571
5.129196 1.877548 3.381882
5.141220 1.880173 3.395737
5.163742 1.888565 3.384720
5.168869 1.887802 3.375137
5.168777 1.886124 3.379959
5.169052 1.886368 3.403671
5.169937 1.890518 3.402664
5.128403 1.877975 3.406387
5.129013 1.878189 3.430008
5.130844 1.875748 3.427292
5.142899 1.884689 3.423965
5.162918 1.888992 3.409225
5.161819 1.889511 3.433975
5.165329 1.887375 3.430161
5.172775 1.898361 3.432236
5.220016 1.929672 3.424515
5.191696 1.899490 3.390457
5.189957 1.901260 3.393051
5.207626 1.914444 3.383072
5.199661 1.909286 3.386093
5.206955 1.913162 3.382156
5.208237 1.913193 3.405136
5.221359 1.928787 3.375839
5.220047 1.927719 3.399124
5.222397 1.928879 3.398972
5.207077 1.914871 3.407364
5.200760 1.912949 3.413986
5.204361 1.915695 3.433151
5.207809 1.913559 3.429367
5.220657 1.927872 3.422653
5.242874 1.958511 3.412979
5.241898 1.958420 3.389755
5.236160 1.945297 3.376175
5.244400 1.956894 3.386703
5.234055 1.942947 3.393021
5.233871 1.942215 3.391830
5.236923 1.947098 3.403488
5.249466 1.973373 3.385422
5.244186 1.957260 3.410751
5.233322 1.943436 3.417435
5.236588 1.941910 3.413864
5.241684 1.958054 3.436356
5.241470 1.959671 3.435013
5.248917 1.973801 3.409622
5.249313 1.974503 3.410690
5.249741 1.973923 3.432999
5.249802 1.974686 3.434280
5.171951 1.895157 3.484116
5.142441 1.882828 3.449722
5.132828 1.875626 3.450058
5.125137 1.879227 3.456802
5.186966 1.902451 3.443039
5.160660 1.890030 3.458847
5.166306 1.887497 3.453629
5.170578 1.891525 3.456070
5.185104 1.903122 3.468399
5.142624 1.882919 3.476334
5.128494 1.878860 3.478714
5.132706 1.875961 3.474350
5.132950 1.876175 3.498459
5.162186 1.890030 3.482040
5.166000 1.887833 3.477982
5.184952 1.903458 3.492691
5.188217 1.901352 3.489029
5.189499 1.900528 3.439865
5.187820 1.901138 3.465134
5.200333 1.911270 3.439957
5.199417 1.908157 3.465317
5.203537 1.914719 3.456314
5.206131 1.915665 3.455978
5.220352 1.928238 3.446823
5.220871 1.929794 3.447952
5.208328 1.914047 3.477158
5.203690 1.916458 3.481796
5.202621 1.916977 3.495529
5.218735 1.929153 3.496201
5.219437 1.928726 3.471542
5.218857 1.930496 3.473373
5.219315 1.930710 3.497238
5.239700 1.960098 3.487228
5.241867 1.959030 3.437637
5.232956 1.942978 3.440292
5.233505 1.943680 3.441269
5.232559 1.944138 3.465958
5.235306 1.942764 3.462723
5.240860 1.957504 3.460953
5.244614 1.957748 3.458389
5.242355 1.959244 3.461288
5.248459 1.974472 3.457901
5.249191 1.975143 3.458725
5.241287 1.958725 3.484787
5.233536 1.943436 3.488052
5.229904 1.945023 3.491928
5.241806 1.959915 3.488663
5.248703 1.974716 3.481796
5.253708 1.971298 3.288010
5.255783 1.971634 3.287949
5.258286 1.986862 3.310440
5.261398 1.985580 3.261429
5.256454 1.970444 3.262772
5.257706 1.970932 3.263199
5.263046 1.986435 3.261673
5.261307 1.987411 3.309769
5.252762 1.971817 3.312149
5.258041 1.987289 3.357834
5.253922 1.972305 3.312668
5.250809 1.972488 3.337051
5.254929 1.972397 3.335587
5.258255 1.986923 3.334000
5.258896 1.988205 3.334946
5.257919 1.988724 3.359268
5.251083 1.972702 3.360580
5.253311 1.973038 3.360336
5.256271 1.988266 3.406601
5.252945 1.989273 3.432785
5.256119 1.987991 3.382889
5.251541 1.973709 3.385330
5.258011 1.989029 3.382950
5.259598 1.988968 3.405716
5.256821 1.989883 3.431534
5.255081 1.989395 3.479416
5.255051 1.989090 3.455338
5.254898 1.990585 3.456833
5.256516 1.990555 3.479813
5.250168 1.975204 3.482132
5.252151 1.995255 3.778641
5.105331 1.872971 3.537186
5.099625 1.870865 3.552689
5.052689 1.868240 3.542648
5.025101 1.872055 3.507248
5.026230 1.872482 3.527298
5.051773 1.867905 3.503372
5.041245 1.866409 3.511856
5.031326 1.868820 3.529678
5.053177 1.868423 3.523605
5.025192 1.872086 3.545914
5.017960 1.869858 3.537003
5.042618 1.870071 3.539902
5.068253 1.873001 3.542068
5.081863 1.868637 3.506882
5.074356 1.871536 3.513443
5.068069 1.873886 3.517624
5.084976 1.868332 3.529251
5.091782 1.873703 3.520279
5.096786 1.869827 3.511887
5.068130 1.873611 3.544113
5.081345 1.869308 3.556198
5.091995 1.873886 3.546982
5.052444 1.868149 3.600937
5.019058 1.872818 3.564835
5.026871 1.872726 3.566513
5.019516 1.873703 3.591873
5.024796 1.871933 3.584488
5.057541 1.870041 3.565475
5.033340 1.868393 3.573288
5.042862 1.870316 3.566605
5.042496 1.868790 3.592667
5.057175 1.869888 3.584732
5.025101 1.872055 3.604233
5.019180 1.872177 3.617935
5.026016 1.872391 3.624466
5.055008 1.869095 3.622391
5.042618 1.868637 3.619339
5.044113 1.874802 3.618759
5.103409 1.872238 3.594437
5.070023 1.872971 3.565475
5.067551 1.871353 3.569839
5.073929 1.872513 3.587418
5.079666 1.869919 3.581985
5.104568 1.872696 3.575668
5.085861 1.869064 3.602432
5.091812 1.872452 3.599808
5.067978 1.871719 3.623489
5.075577 1.872513 3.611038
5.108597 1.874161 3.617783
5.115982 1.876144 3.550613
5.001694 1.877304 3.532547
5.020126 1.877121 3.513382
5.001999 1.877426 3.513535
5.001175 1.877121 3.551498
5.115738 1.875778 3.523819
5.002487 1.877609 3.610825
5.000961 1.877029 3.570755
5.001724 1.877304 3.590744
5.117142 1.878647 3.605118
5.093216 1.876999 3.574936
5.116226 1.876419 3.577438
5.117783 1.876358 3.584244
5.069046 1.875443 3.598251
5.188705 1.902145 3.561722
5.184372 1.903976 3.541733
5.141678 1.879684 3.501633
5.126877 1.879471 3.504135
5.126816 1.879776 3.528549
5.132431 1.876602 3.523148
5.143753 1.885391 3.530563
5.186508 1.901993 3.514450
5.161758 1.890427 3.506577
5.165543 1.888199 3.502518
5.171646 1.893753 3.510208
5.163315 1.888962 3.528427
5.186111 1.903519 3.516159
5.128281 1.884995 3.542801
5.130600 1.877243 3.548904
5.129532 1.879562 3.551163
5.145126 1.888901 3.558731
5.172897 1.896988 3.538223
5.158463 1.891373 3.533188
5.186996 1.902206 3.538467
5.165451 1.888840 3.551346
5.160782 1.891220 3.556046
5.218277 1.931534 3.546585
5.207657 1.914474 3.501846
5.203262 1.916824 3.506302
5.206497 1.914993 3.526932
5.203323 1.918655 3.522934
5.203812 1.917038 3.530228
5.218124 1.929581 3.520859
5.218979 1.931076 3.521744
5.218582 1.929794 3.544907
5.203934 1.919998 3.550278
5.204697 1.917130 3.554001
5.204666 1.915665 3.552567
5.240463 1.955185 3.540543
5.242081 1.959915 3.509811
5.231461 1.944992 3.515060
5.233505 1.943741 3.512283
5.241776 1.958908 3.508621
5.244827 1.968155 3.518814
5.247879 1.976028 3.507889
5.247635 1.975235 3.506699
5.247910 1.975479 3.530807
5.240341 1.959518 3.533859
5.231979 1.945175 3.539017
5.233902 1.943954 3.536301
5.238693 1.960922 3.536423
5.232346 1.944595 3.561783
5.240524 1.959793 3.558151
5.239029 1.961166 3.560562
5.248642 1.976151 3.531631
5.249344 1.975479 3.554123
5.159195 1.892136 3.606308
5.132614 1.877151 3.572006
5.130020 1.879776 3.575333
5.145859 1.890671 3.586227
5.172958 1.896683 3.564865
5.167160 1.888779 3.574661
5.182419 1.904678 3.567520
5.161148 1.891464 3.580307
5.173233 1.897110 3.591873
5.183182 1.904800 3.591507
5.127335 1.880600 3.601822
5.131973 1.877579 3.597061
5.131332 1.877975 3.622208
5.144058 1.884842 3.610641
5.166306 1.889236 3.599808
5.166245 1.889572 3.624527
5.173996 1.898880 3.619461
5.186966 1.904343 3.613449
5.188919 1.902695 3.610641
5.189316 1.902298 3.585770
5.216263 1.930557 3.570908
5.207321 1.915451 3.575150
5.203201 1.917740 3.579514
5.205612 1.924423 3.578964
5.219284 1.931625 3.570267
5.219925 1.930099 3.592850
5.203323 1.917404 3.602982
5.203201 1.918076 3.604080
5.206253 1.915939 3.600449
5.206375 1.916245 3.624985
5.217850 1.932541 3.620407
5.220444 1.931686 3.593948
5.219620 1.930466 3.617661
5.238907 1.960739 3.608261
5.244247 1.965652 3.571732
5.229141 1.945877 3.565384
5.228775 1.946274 3.590103
5.232895 1.944778 3.585861
5.239853 1.960251 3.583023
5.241623 1.960922 3.583176
5.245743 1.976547 3.581131
5.249130 1.976669 3.580063
5.242996 1.960922 3.606766
5.231522 1.945999 3.612717
5.230881 1.945480 3.611801
5.246933 1.976608 3.604782
5.248489 1.977097 3.605026
5.246658 1.972122 3.601364
5.101730 1.871628 3.672318
5.053146 1.868393 3.660477
5.019333 1.872177 3.644699
5.026901 1.872726 3.644791
5.053055 1.868362 3.640671
5.043381 1.870499 3.646896
5.019211 1.871201 3.671127
5.028214 1.873215 3.665482
5.026382 1.872513 3.683945
5.041794 1.871872 3.661667
5.043381 1.869888 3.673508
5.057907 1.870163 3.683762
5.076828 1.872849 3.659866
5.083817 1.869736 3.628647
5.076492 1.872635 3.635208
5.091934 1.872238 3.626480
5.067795 1.870712 3.649857
5.087753 1.869278 3.650711
5.092484 1.873428 3.653824
5.105423 1.873001 3.635269
5.101730 1.871628 3.652451
5.078934 1.872757 3.683365
5.067673 1.869858 3.676376
5.090897 1.868973 3.673447
5.052902 1.868301 3.719986
5.019821 1.872543 3.698593
5.026474 1.872543 3.703903
5.054367 1.868851 3.701096
5.043198 1.868973 3.699997
5.041214 1.870255 3.704941
5.020706 1.874802 3.726486
5.023727 1.871536 3.721817
5.023270 1.871353 3.741440
5.044266 1.871719 3.728104
5.042068 1.869644 3.748550
5.053055 1.868362 3.740128
5.099289 1.870743 3.730484
5.089951 1.869461 3.699142
5.067123 1.868637 3.702744
5.082260 1.872421 3.706100
5.092545 1.872665 3.707352
5.100754 1.871262 3.691513
5.102493 1.871902 3.712784
5.119461 1.873886 3.715164
5.085251 1.872177 3.729111
5.068863 1.873337 3.731735
5.093002 1.873550 3.734756
5.095139 1.868729 3.720535
5.097855 1.868515 3.743790
5.097275 1.869980 3.749130
5.117233 1.877945 3.658554
5.003891 1.878128 3.670822
5.001724 1.877304 3.629868
5.004990 1.878525 3.651901
5.116776 1.876114 3.684677
5.116837 1.877274 3.631363
5.093460 1.875900 3.681778
5.124130 1.878372 3.672562
5.001328 1.877151 3.728531
5.001328 1.877151 3.688736
5.001144 1.877090 3.708481
5.001205 1.877090 3.748428
5.117783 1.878220 3.739609
5.117386 1.877579 3.712296
5.189774 1.903122 3.659470
5.184402 1.905472 3.664749
5.145248 1.887955 3.638809
5.127457 1.880875 3.626480
5.126022 1.880936 3.629379
5.128586 1.880936 3.650497
5.134079 1.877762 3.645065
5.186569 1.904739 3.638443
5.160172 1.892258 3.630264
5.165634 1.889999 3.649704
5.160080 1.892563 3.655167
5.174301 1.899307 3.646591
5.144424 1.885086 3.664536
5.136795 1.877518 3.667984
5.127487 1.881454 3.676163
5.164749 1.891953 3.676651
5.167282 1.889969 3.673386
5.177505 1.908310 3.677353
5.189621 1.903458 3.684433
5.189804 1.902817 3.634720
5.203323 1.918320 3.628616
5.204300 1.919754 3.630905
5.202927 1.915329 3.656113
5.202560 1.918777 3.653854
5.206314 1.916550 3.649704
5.218307 1.931046 3.643265
5.220627 1.932266 3.643143
5.206192 1.924301 3.686905
5.203812 1.917343 3.676315
5.204422 1.918716 3.677353
5.218826 1.931229 3.667648
5.221054 1.932480 3.667557
5.239395 1.961258 3.657211
5.240433 1.961777 3.633163
5.234299 1.945084 3.634018
5.230331 1.946548 3.638199
5.240921 1.960617 3.631424
5.249069 1.978653 3.631149
5.246536 1.976974 3.629654
5.248398 1.977432 3.629715
5.245743 1.977463 3.654922
5.249435 1.977524 3.653641
5.241562 1.961838 3.657089
5.229477 1.947037 3.663559
5.235977 1.945053 3.657516
5.234055 1.945724 3.683731
5.241501 1.961105 3.680496
5.239120 1.962692 3.683640
5.249741 1.992996 3.678909
5.246536 1.977585 3.679153
5.248428 1.978043 3.679184
5.173477 1.895645 3.726151
5.144211 1.884018 3.691055
5.130630 1.881149 3.698898
5.134293 1.878281 3.694717
5.138779 1.877731 3.716507
5.143845 1.882492 3.717422
5.175980 1.903336 3.702316
5.166489 1.890427 3.698868
5.183792 1.905899 3.690109
5.161423 1.892929 3.703995
5.184586 1.906052 3.714462
5.132950 1.880997 3.722275
5.137009 1.878372 3.742905
5.134354 1.881027 3.746414
5.145889 1.888046 3.746872
5.163010 1.892899 3.727890
5.166275 1.890762 3.724014
5.169815 1.890335 3.746567
5.183243 1.906631 3.740494
5.191147 1.903763 3.733292
5.190079 1.903671 3.709030
5.206985 1.917038 3.698929
5.203140 1.919296 3.703201
5.205551 1.922104 3.713150
5.219162 1.933182 3.693771
5.219101 1.931503 3.692307
5.218796 1.931839 3.717453
5.216324 1.934097 3.720749
5.203262 1.919571 3.728073
5.207596 1.917191 3.723465
5.206497 1.917496 3.749283
5.208115 1.929062 3.743301
5.218918 1.932144 3.742416
5.219009 1.933823 3.743851
5.236588 1.962784 3.733932
5.229263 1.947403 3.688522
5.229538 1.947647 3.713242
5.233047 1.946274 3.709335
5.237991 1.962173 3.707932
5.239548 1.962906 3.708237
5.244400 1.978378 3.705551
5.245712 1.978958 3.706009
5.238602 1.963425 3.733902
5.230759 1.947678 3.737350
5.231308 1.946945 3.735580
5.244644 1.978653 3.730331
5.246201 1.979172 3.730576
5.252487 1.990860 3.553970
5.253555 1.992111 3.554642
5.250259 1.976120 3.554855
5.252792 1.990189 3.505173
5.256607 1.990860 3.503922
5.251266 1.990829 3.530472
5.255295 1.991409 3.529068
5.252548 1.991440 3.602829
5.251877 1.991287 3.578812
5.253708 1.992416 3.578964
5.252914 1.992874 3.604050
5.254105 1.993546 3.677231
5.251572 1.991989 3.628128
5.252090 1.993362 3.629227
5.251053 1.993912 3.654648
5.250351 1.992538 3.653702
5.251480 1.994736 3.728928
5.253799 1.992416 3.700851
5.252365 1.994217 3.703384
5.250076 1.993515 3.728500
5.116348 1.873123 3.791641
5.098831 1.868942 3.793625
5.041214 1.867844 3.791855
5.023026 1.871262 3.761337
5.020218 1.872391 3.779495
5.053909 1.868698 3.760849
5.042923 1.867111 3.753128
5.053848 1.868668 3.780991
5.023483 1.871445 3.781815
5.019730 1.870377 3.805710
5.023148 1.871292 3.801773
5.044022 1.869919 3.781387
5.044388 1.870529 3.808792
5.050156 1.867294 3.798447
5.089615 1.867172 3.783859
5.093399 1.874313 3.762131
5.068466 1.871719 3.758041
5.086380 1.872238 3.753525
5.093735 1.868698 3.766708
5.116806 1.874924 3.765274
5.106430 1.867172 3.762894
5.094894 1.870895 3.772690
5.092026 1.869705 3.787247
5.069534 1.874405 3.786301
5.068558 1.870987 3.811966
5.089920 1.872177 3.801651
5.052719 1.868240 3.861526
5.022629 1.871109 3.821671
5.023148 1.871292 3.842392
5.020218 1.871353 3.833298
5.050888 1.867569 3.819290
5.043381 1.867020 3.834427
5.042435 1.867447 3.835617
5.049576 1.867081 3.838669
5.022659 1.871140 3.862473
5.020645 1.872086 3.860825
5.043808 1.867752 3.861954
5.103104 1.872116 3.855179
5.088638 1.872726 3.828049
5.092331 1.870102 3.814590
5.068069 1.869034 3.838333
5.096207 1.869736 3.820999
5.101639 1.871597 3.813156
5.105820 1.873123 3.836716
5.092728 1.872238 3.850632
5.067307 1.866257 3.864304
5.096603 1.869980 3.846237
5.099625 1.869705 3.869644
5.093796 1.873550 3.870590
5.117264 1.874283 3.873917
5.020920 1.875046 3.753586
5.000931 1.876999 3.869705
5.117630 1.875870 3.847275
5.117813 1.876938 3.820511
5.094467 1.876083 3.844406
5.187668 1.905045 3.786118
5.175186 1.899216 3.809280
5.130447 1.880386 3.761124
5.139084 1.878281 3.766586
5.134109 1.881393 3.771805
5.144608 1.883835 3.772202
5.176193 1.903091 3.756485
5.164963 1.892807 3.751602
5.163712 1.893387 3.777695
5.169052 1.890823 3.772324
5.173599 1.895096 3.780258
5.184372 1.906723 3.764816
5.137680 1.878860 3.792923
5.130692 1.882370 3.799606
5.129898 1.878769 3.804672
5.144974 1.884476 3.799698
5.163071 1.893814 3.803452
5.169968 1.890915 3.796890
5.186600 1.906601 3.788406
5.190628 1.904770 3.809250
5.189835 1.904312 3.759323
5.205826 1.919357 3.751328
5.206467 1.917801 3.774460
5.205490 1.919754 3.776718
5.206863 1.925034 3.768814
5.217850 1.932663 3.768295
5.221054 1.933731 3.767502
5.206375 1.923172 3.795334
5.218369 1.932846 3.793106
5.217911 1.934677 3.794998
5.202835 1.920609 3.803909
5.205338 1.918350 3.800522
5.237320 1.963211 3.783585
5.237869 1.963882 3.759476
5.233414 1.946793 3.759109
5.230484 1.948074 3.762680
5.238663 1.962631 3.757462
5.247849 1.995865 3.756668
5.246719 1.978500 3.753891
5.245682 1.979568 3.756058
5.249374 1.994003 3.754074
5.244186 1.979324 3.780869
5.247940 1.994614 3.780258
5.239182 1.963943 3.783707
5.228561 1.948776 3.789291
5.231216 1.947586 3.785934
5.230911 1.947922 3.811386
5.235458 1.963913 3.810257
5.238663 1.964340 3.809311
5.243790 1.980301 3.782578
5.242935 1.979904 3.807022
5.246506 1.980057 3.805801
5.249100 1.996231 3.806137
5.249222 1.994675 3.804520
5.163254 1.894424 3.854233
5.130936 1.882645 3.824844
5.138229 1.879044 3.817886
5.146683 1.888992 3.828903
5.164749 1.892258 3.826096
5.162247 1.894302 3.829483
5.175888 1.900894 3.837357
5.182022 1.907791 3.817093
5.146042 1.886673 3.855209
5.135513 1.879898 3.845352
5.132889 1.882553 3.848923
5.146866 1.889511 3.852097
5.136154 1.880051 3.870468
5.167038 1.892136 3.849899
5.174942 1.898483 3.863632
5.181686 1.908493 3.868301
5.187973 1.905930 3.862106
5.189072 1.905411 3.835800
5.206253 1.922348 3.822311
5.206497 1.918411 3.824997
5.215591 1.935471 3.822006
5.216904 1.933456 3.819504
5.187851 1.906967 3.838211
5.201645 1.921158 3.830154
5.214645 1.934250 3.846573
5.203629 1.921066 3.854141
5.205978 1.921097 3.849197
5.204605 1.919113 3.851822
5.216049 1.935715 3.847092
5.213852 1.936478 3.874252
5.214493 1.934586 3.872208
5.235947 1.964432 3.860672
5.226730 1.949478 3.815872
5.231186 1.948196 3.836533
5.228622 1.949387 3.839859
5.234756 1.965500 3.837601
5.236069 1.964096 3.835159
5.246811 1.995499 3.831680
5.244705 1.979874 3.831039
5.245499 1.980576 3.831894
5.234390 1.965897 3.863297
5.229477 1.948837 3.863266
5.226852 1.950089 3.866653
5.249527 1.995224 3.855057
5.243179 1.980515 3.857620
5.246048 1.980789 3.856949
5.247269 1.997269 3.858292
5.099991 1.870987 3.914688
5.045090 1.870743 3.917953
5.021500 1.874313 3.889084
5.024246 1.871719 3.884201
5.022446 1.871048 3.903366
5.048141 1.870285 3.880447
5.044540 1.869522 3.890060
5.051590 1.867813 3.881180
5.055038 1.869095 3.904434
5.020950 1.871994 3.915390
5.025558 1.872208 3.926437
5.053177 1.868393 3.923691
5.056107 1.874680 3.925827
5.102707 1.869705 3.918869
5.085922 1.865829 3.883255
5.088760 1.873337 3.879196
5.069962 1.873795 3.895004
5.104477 1.872635 3.876785
5.095779 1.872269 3.899765
5.093948 1.873459 3.897934
5.102951 1.869370 3.892868
5.069107 1.870682 3.920975
5.095291 1.869247 3.931839
5.097000 1.872360 3.924667
5.053848 1.871811 3.968948
5.026047 1.872391 3.947556
5.021439 1.872940 3.943222
5.051468 1.867783 3.943130
5.045120 1.870346 3.945175
5.052292 1.868088 3.964584
5.021927 1.874039 3.971176
5.027786 1.873032 3.969772
5.022232 1.874405 3.998856
5.024673 1.871872 3.988205
5.045303 1.870346 3.972610
5.044357 1.866928 3.998611
5.053268 1.868423 3.986252
5.093796 1.871567 3.979446
5.087601 1.866440 3.946701
5.069504 1.871353 3.948715
5.088272 1.866684 3.968124
5.095901 1.872879 3.951401
5.103745 1.869858 3.943954
5.117874 1.874771 3.956406
5.069962 1.872269 3.976639
5.099167 1.872604 3.974960
5.104477 1.870010 3.969376
5.096970 1.869858 3.995895
5.103867 1.870407 3.995895
5.119156 1.879013 3.930832
5.000290 1.876755 3.910263
5.002609 1.877609 3.932755
5.094742 1.875412 3.926193
5.117661 1.875076 3.901596
5.000717 1.882462 3.971970
5.002579 1.877609 3.953476
5.000778 1.876938 3.972855
5.003860 1.878098 3.996231
5.000473 1.881119 3.998886
5.118637 1.876572 3.984756
5.094772 1.875107 3.953537
5.211197 1.935318 3.910507
5.177750 1.905807 3.921829
5.147049 1.889267 3.883743
5.131729 1.883102 3.875381
5.134384 1.882889 3.899094
5.139511 1.879715 3.893631
5.138260 1.882187 3.893997
5.162125 1.894943 3.880630
5.165939 1.892654 3.876236
5.163559 1.894974 3.905258
5.167923 1.892563 3.900436
5.176102 1.901474 3.892410
5.187454 1.906326 3.888077
5.183945 1.908340 3.892197
5.147598 1.890305 3.911636
5.139145 1.880112 3.919662
5.135544 1.883011 3.924026
5.162613 1.895462 3.931717
5.166946 1.893082 3.926895
5.183456 1.908768 3.918289
5.187149 1.906723 3.913956
5.211502 1.935837 3.925766
5.211411 1.936386 3.883408
5.203354 1.919693 3.878311
5.199844 1.922134 3.882492
5.203964 1.919876 3.903458
5.202591 1.921890 3.906052
5.214890 1.936569 3.899094
5.216385 1.934494 3.896378
5.213058 1.937302 3.926132
5.205093 1.919968 3.928329
5.202499 1.922226 3.931900
5.235550 1.965164 3.912155
5.237045 1.965652 3.886856
5.228989 1.949295 3.889175
5.233994 1.965164 3.887680
5.227493 1.950272 3.891769
5.245346 1.996445 3.883713
5.240677 1.981369 3.885025
5.243942 1.981552 3.884018
5.248489 1.997299 3.882889
5.234116 1.966599 3.914688
5.226120 1.950882 3.918442
5.228500 1.949692 3.915207
5.248459 1.997635 3.908524
5.243515 1.981949 3.909988
5.243423 1.981094 3.908585
5.244003 1.997055 3.910355
5.240158 1.982101 3.936783
5.243423 1.982315 3.935776
5.245224 1.998672 3.936691
5.245773 1.996994 3.934738
5.177780 1.904984 3.976639
5.142105 1.879837 3.943253
5.133347 1.883713 3.951492
5.143356 1.884567 3.938919
5.147324 1.889053 3.938583
5.147049 1.887772 3.965561
5.177353 1.904221 3.948685
5.166214 1.893539 3.953293
5.164566 1.895432 3.956100
5.183090 1.909164 3.944351
5.142593 1.880051 3.968826
5.135300 1.883682 3.975998
5.140121 1.880844 3.996719
5.146378 1.885361 3.992050
5.161819 1.896286 3.984146
5.165817 1.893906 3.979507
5.184525 1.909225 3.969162
5.184067 1.908279 3.993942
5.180801 1.910263 3.998001
5.210495 1.936691 3.978226
5.212997 1.935837 3.950394
5.187607 1.906937 3.939407
5.214554 1.937271 3.950821
5.211777 1.936569 3.938705
5.187546 1.907272 3.965286
5.202133 1.920883 3.956406
5.199142 1.923264 3.960281
5.211929 1.936569 3.966415
5.203720 1.920853 3.981094
5.200668 1.923264 3.985031
5.224319 1.951187 3.969986
5.233475 1.965927 3.939438
5.224472 1.951553 3.945450
5.225662 1.950607 3.943130
5.231277 1.967514 3.942612
5.233047 1.967484 3.967148
5.232712 1.966385 3.965897
5.245163 1.997421 3.961014
5.241104 1.983139 3.963303
5.240280 1.982376 3.962509
5.246628 1.998703 3.961441
5.213730 1.937759 3.977341
5.213120 1.939560 3.995499
5.225876 1.951584 3.970230
5.222885 1.952530 3.998520
5.226608 1.951035 3.994186
5.231613 1.968094 3.994156
5.231522 1.966965 3.992722
5.243393 1.999710 3.989822
5.238022 1.983170 3.990158
5.238541 1.984024 3.991226
5.242691 1.998306 3.988815
5.252029 1.995895 3.829300
4.886398 2.019028 3.289658
4.990616 2.251328 2.290451
4.990921 2.251846 2.312088
4.922165 2.020004 2.036819
4.922226 2.024246 2.038589
4.927994 2.007950 2.037125
4.923080 2.020401 2.006577
4.929428 2.008560 2.007095
4.928116 2.008011 2.021866
4.922409 2.023300 2.017288
4.922806 2.020279 2.021774
4.914993 2.052658 2.010635
4.917435 2.045578 2.008255
4.918106 2.038925 2.000687
4.919937 2.033218 2.007309
4.911636 2.058731 2.008133
4.918533 2.032639 2.022049
4.917007 2.045395 2.023361
4.912216 2.058975 2.023666
4.912216 2.055557 2.031021
4.918686 2.027664 2.058792
4.927811 2.007889 2.052383
4.921555 2.019760 2.051895
4.911148 2.058517 2.038559
4.913773 2.032791 2.032639
4.917526 2.032211 2.036942
4.917191 2.045486 2.038773
4.917191 2.032059 2.052139
4.914871 2.044510 2.053146
4.910690 2.058334 2.053726
4.911819 2.056625 2.052200
4.908005 2.083176 2.046646
4.907242 2.083969 2.009445
4.909592 2.072037 2.009384
4.909927 2.087296 2.011734
4.909317 2.080643 2.004593
4.910110 2.072250 2.024887
4.910172 2.080765 2.026108
4.909653 2.087173 2.026932
4.913406 2.118179 2.002182
4.908432 2.101242 2.013290
4.909378 2.106064 2.000076
4.909958 2.101883 2.029251
4.910141 2.106277 2.021500
4.911270 2.117233 2.016647
4.909164 2.086960 2.042099
4.909866 2.072159 2.040146
4.908096 2.080948 2.035294
4.908920 2.071762 2.055099
4.908463 2.086655 2.057175
4.906052 2.110062 2.041397
4.911667 2.117416 2.032150
4.907913 2.100998 2.043777
4.908493 2.101242 2.059402
4.911057 2.117142 2.047318
4.919052 2.018753 2.097031
4.921860 2.019882 2.067398
4.925705 2.007004 2.066879
4.923874 2.006271 2.081528
4.919540 2.018936 2.081802
4.918381 2.028641 2.080063
4.911057 2.057968 2.073257
4.917282 2.034164 2.075394
4.915604 2.031418 2.066849
4.914749 2.044449 2.068497
4.910294 2.058182 2.068954
4.916031 2.031601 2.082443
4.913528 2.043930 2.083389
4.909378 2.057785 2.083969
4.916489 2.030869 2.100845
4.924118 2.006363 2.097031
4.923447 2.006088 2.112198
4.912491 2.029434 2.117447
4.918381 2.018448 2.112198
4.914871 2.031113 2.112839
4.910934 2.058823 2.094559
4.916000 2.031570 2.097855
4.912033 2.043320 2.098190
4.908218 2.057297 2.098923
4.913254 2.034103 2.121170
4.913681 2.043991 2.114365
4.907944 2.057175 2.114273
4.908005 2.061813 2.114944
4.906723 2.085922 2.102768
4.902847 2.075851 2.077347
4.905838 2.086349 2.088486
4.907639 2.086288 2.072250
4.909134 2.071854 2.070602
4.907089 2.084610 2.067612
4.908859 2.071732 2.085892
4.906754 2.085922 2.087326
4.909531 2.116470 2.077530
4.910324 2.102036 2.075607
4.907974 2.109421 2.063248
4.911118 2.117172 2.062759
4.908524 2.101242 2.090286
4.909836 2.116623 2.093155
4.906998 2.110886 2.084183
4.906021 2.085617 2.117966
4.904007 2.075485 2.119949
4.909317 2.071915 2.101547
4.906509 2.070724 2.115829
4.906540 2.086563 2.110031
4.908401 2.110611 2.105942
4.908554 2.101273 2.105789
4.909225 2.101547 2.121628
4.909592 2.116501 2.124100
4.912094 2.117599 2.109634
4.918777 2.148209 2.039322
4.917801 2.149643 2.036545
4.918167 2.147934 2.008255
4.912186 2.130417 2.000259
4.915054 2.132797 2.004898
4.916245 2.150009 2.014877
4.911880 2.126572 2.017746
4.911636 2.129318 2.017715
4.914963 2.132767 2.020248
4.918320 2.148026 2.023697
4.923752 2.171890 2.012466
4.922775 2.165634 2.012497
4.926132 2.180618 2.004044
4.930710 2.184311 2.002579
4.922073 2.165329 2.027603
4.928329 2.183243 2.017044
4.925949 2.180161 2.019608
4.911850 2.129166 2.031845
4.912186 2.129684 2.039047
4.909714 2.134537 2.038620
4.915085 2.132828 2.035690
4.910965 2.131332 2.059830
4.913193 2.132004 2.050308
4.911728 2.129654 2.047104
4.911728 2.133133 2.060806
4.919296 2.148422 2.054977
4.919144 2.149399 2.058182
4.924393 2.172165 2.033798
4.922958 2.165695 2.043442
4.925919 2.182144 2.033951
4.928391 2.183273 2.032516
4.921585 2.165085 2.058334
4.923782 2.173355 2.054764
4.925583 2.177872 2.051743
4.928818 2.183456 2.048203
4.929642 2.191696 2.031326
4.931137 2.189865 2.010666
4.929977 2.192184 2.052567
4.940414 2.203842 2.039810
4.940567 2.203903 2.008896
4.939438 2.206558 2.009323
4.938461 2.203781 2.006699
4.942917 2.213608 2.001999
4.938217 2.201065 2.023514
4.941055 2.204117 2.024582
4.940201 2.206741 2.030685
4.963455 2.237564 2.008530
4.950363 2.222549 2.008652
4.950974 2.218765 2.013748
4.957352 2.226547 2.002487
4.963455 2.229660 2.007736
4.950851 2.218918 2.029007
4.950424 2.223221 2.029770
4.958481 2.227036 2.018478
4.963394 2.232407 2.021530
4.964706 2.237442 2.030045
4.976120 2.244339 2.014908
4.975998 2.245163 2.029709
4.945786 2.214432 2.045059
4.938095 2.201675 2.038559
4.937943 2.201401 2.054092
4.941360 2.204269 2.055740
4.940628 2.207169 2.051987
4.950577 2.218338 2.060074
4.958603 2.227097 2.034073
4.950760 2.219711 2.043930
4.963272 2.233170 2.036423
4.951889 2.222916 2.051376
4.958206 2.226913 2.049484
4.963150 2.232925 2.051895
