-2.178391 2.203995 2.340561
-2.179520 2.203964 2.328964
-2.182297 2.213943 2.328720
-2.181351 2.213943 2.340225
-2.180954 2.211197 2.337601
-2.184402 2.216782 2.339066
-2.186813 2.224319 2.316788
-2.186600 2.234543 2.317245
-2.186142 2.245590 2.317795
-2.183151 2.224594 2.340256
-2.184860 2.224442 2.328537
-2.182755 2.234848 2.340775
-2.185715 2.234543 2.328751
-2.185287 2.245590 2.329330
-2.184067 2.236221 2.340805
-2.184830 2.238022 2.339981
-2.183578 2.245743 2.341049
-2.172318 2.191788 2.352859
-2.173782 2.193069 2.352585
-2.177536 2.203995 2.352097
-2.180069 2.214035 2.351913
-2.178604 2.213211 2.355515
-2.174149 2.192917 2.363815
-2.175430 2.195358 2.360001
-2.171005 2.192337 2.370499
-2.178055 2.212601 2.372971
-2.176651 2.203995 2.363632
-2.181107 2.216782 2.360672
-2.179367 2.214005 2.363388
-2.181473 2.224686 2.352005
-2.181686 2.238235 2.358749
-2.181656 2.234879 2.352371
-2.182449 2.245773 2.352646
-2.180130 2.224777 2.363663
-2.180008 2.234970 2.364120
-2.181931 2.237961 2.361557
-2.179276 2.246109 2.364761
-2.127945 2.112930 2.380417
-2.156143 2.005844 2.380203
-2.133255 2.122391 2.397415
-2.098770 2.104874 2.390518
-2.006821 2.062119 2.395432
-2.010880 2.058090 2.411484
-2.099106 2.104935 2.378891
-2.113083 2.093704 2.394302
-2.065720 2.086258 2.386429
-2.062912 2.086411 2.398727
-2.072525 2.090958 2.395706
-2.112106 2.114761 2.387589
-2.122421 2.124252 2.385361
-2.117325 2.119064 2.381058
-2.095688 2.105057 2.402847
-2.095718 2.109085 2.402206
-2.112320 2.114639 2.399033
-2.124588 2.123917 2.396286
-2.112625 2.119339 2.402908
-2.084763 2.095047 2.382065
-2.092422 2.094803 2.377914
-2.091721 2.102676 2.381638
-2.081345 2.095169 2.406082
-2.080795 2.095352 2.394638
-2.087692 2.102768 2.403488
-2.068985 2.064255 2.427048
-2.065750 2.090744 2.434311
-2.093979 2.105118 2.414841
-2.117355 2.124496 2.421188
-2.110764 2.114700 2.410965
-2.119308 2.124374 2.409164
-2.110062 2.123703 2.433609
-2.115372 2.124588 2.433243
-2.098312 2.111404 2.432419
-2.108597 2.114822 2.423050
-2.108505 2.119461 2.424759
-2.104538 2.115158 2.435715
-2.089432 2.096207 2.413162
-2.077255 2.095505 2.418747
-2.068344 2.095383 2.414017
-2.082840 2.103958 2.432083
-2.091629 2.105301 2.427078
-2.085648 2.102493 2.425247
-2.066910 2.095963 2.431686
-2.077103 2.095413 2.430405
-2.054123 2.074814 2.375107
-2.059647 2.087723 2.382645
-2.057358 2.092484 2.381149
-2.062485 2.086655 2.375626
-2.036179 2.083878 2.378860
-2.037827 2.083176 2.376816
-2.057144 2.087509 2.404465
-2.057266 2.085312 2.394119
-2.053909 2.087387 2.396072
-2.031357 2.079056 2.394608
-2.035995 2.082809 2.396225
-2.022385 2.078079 2.377213
-2.023880 2.080612 2.389938
-2.017868 2.080429 2.379196
-2.016525 2.078445 2.375046
-2.031204 2.079178 2.382950
-2.016983 2.080307 2.396744
-2.059525 2.084427 2.414566
-2.053177 2.080856 2.413132
-2.059067 2.086685 2.411362
-2.052322 2.088181 2.413742
-2.050247 2.085251 2.434464
-2.058060 2.093735 2.428452
-2.058426 2.086655 2.423203
-2.054214 2.087387 2.426346
-2.058121 2.086563 2.434952
-2.035294 2.080612 2.422989
-2.016098 2.072861 2.411728
-2.024826 2.079453 2.419662
-2.028946 2.079178 2.406906
-2.023849 2.079483 2.431686
-2.022812 2.082413 2.422867
-2.013687 2.082108 2.432297
-2.058060 2.118973 2.413345
-2.114639 2.124557 2.445023
-2.065720 2.090714 2.446732
-2.095566 2.113907 2.450424
-2.102646 2.115250 2.447800
-2.105240 2.119431 2.446548
-2.111893 2.124771 2.457321
-2.097885 2.113022 2.466141
-2.102585 2.115158 2.459427
-2.093948 2.114761 2.468185
-2.103806 2.119003 2.468246
-2.081680 2.104202 2.449692
-2.081009 2.102707 2.447220
-2.089890 2.105362 2.439133
-2.091476 2.105087 2.450363
-2.091629 2.106735 2.446243
-2.074020 2.095627 2.442856
-2.079269 2.106186 2.467667
-2.085556 2.105576 2.463577
-2.063034 2.098557 2.467331
-2.070023 2.095932 2.455612
-2.070602 2.095779 2.467148
-2.073135 2.098221 2.468124
-2.110062 2.124771 2.481064
-2.110519 2.124802 2.469315
-2.098557 2.115372 2.483810
-2.101608 2.115128 2.471329
-2.102280 2.117447 2.483994
-2.097153 2.115433 2.495865
-2.101913 2.118668 2.490005
-2.102249 2.117416 2.496658
-2.107407 2.124924 2.493454
-2.083511 2.105698 2.475754
-2.069046 2.095810 2.479263
-2.076340 2.102951 2.469193
-2.080643 2.105789 2.499985
-2.082382 2.107559 2.491806
-2.081161 2.105820 2.488113
-2.067062 2.095901 2.491531
-2.073654 2.102768 2.491074
-2.077591 2.107162 2.485428
-2.091171 2.117264 2.486221
-2.043961 2.096939 2.450485
-2.049057 2.084030 2.445511
-2.053604 2.086807 2.448074
-2.057388 2.086533 2.446854
-2.054825 2.086716 2.459244
-2.055099 2.088852 2.460068
-2.036362 2.081680 2.461655
-2.024429 2.079300 2.443283
-2.001755 2.078323 2.451706
-2.001633 2.078201 2.439102
-2.015945 2.071457 2.455887
-2.011032 2.077499 2.456680
-2.022781 2.079269 2.467300
-2.019852 2.079636 2.456284
-2.021378 2.082809 2.455551
-2.001846 2.078445 2.464340
-2.054337 2.086563 2.482864
-2.051285 2.086319 2.473282
-2.055496 2.086533 2.470810
-2.049911 2.086807 2.470078
-2.037827 2.083206 2.476028
-2.051773 2.086685 2.495316
-2.053116 2.088181 2.488144
-2.046921 2.090195 2.484512
-2.054581 2.092667 2.493546
-2.038895 2.084274 2.489975
-2.044937 2.087112 2.492172
-2.018753 2.079544 2.480240
-2.026474 2.082291 2.481339
-2.001968 2.078568 2.477066
-2.013199 2.079727 2.471848
-2.017319 2.079575 2.492447
-2.019791 2.082901 2.488174
-2.025467 2.081223 2.492722
-2.002914 2.079514 2.490829
-2.013779 2.080307 2.485184
-2.013992 2.089584 2.488480
-2.003860 2.091354 2.486954
-2.051102 2.097672 2.489914
-2.061264 2.099716 2.485184
-2.175735 2.225143 2.387497
-2.157089 2.162918 2.389633
-2.131393 2.134232 2.383499
-2.134964 2.137863 2.380997
-2.141495 2.143387 2.381332
-2.153000 2.155991 2.380875
-2.153214 2.152969 2.378799
-2.139023 2.146561 2.383072
-2.140457 2.144424 2.380112
-2.133713 2.133804 2.405869
-2.132339 2.134018 2.394730
-2.135239 2.137131 2.402481
-2.146896 2.153488 2.403275
-2.148941 2.153366 2.391312
-2.140121 2.143326 2.404587
-2.139236 2.143539 2.393356
-2.138535 2.145889 2.400467
-2.159561 2.162735 2.377609
-2.162491 2.172379 2.388657
-2.164505 2.174545 2.381119
-2.164291 2.172256 2.376816
-2.168228 2.182388 2.376236
-2.161667 2.173630 2.385818
-2.168198 2.182297 2.387619
-2.159927 2.174698 2.403580
-2.161575 2.174484 2.402756
-2.162888 2.172226 2.399979
-2.165298 2.182541 2.399765
-2.151505 2.158981 2.384232
-2.148056 2.156296 2.402664
-2.149704 2.160110 2.401962
-2.156143 2.162949 2.401321
-2.128159 2.134293 2.418777
-2.141281 2.143112 2.415787
-2.146957 2.153397 2.414719
-2.137283 2.146317 2.418106
-2.126907 2.138107 2.424545
-2.143723 2.153641 2.427048
-2.145523 2.156143 2.424301
-2.134903 2.148300 2.436020
-2.135086 2.143661 2.428879
-2.157730 2.176407 2.421463
-2.158951 2.172592 2.412430
-2.166275 2.182327 2.410965
-2.160660 2.182816 2.435318
-2.158340 2.172562 2.424026
-2.157059 2.174728 2.424515
-2.163437 2.182571 2.423141
-2.148361 2.160721 2.419632
-2.152695 2.163254 2.413620
-2.150253 2.163406 2.425766
-2.154678 2.172897 2.436478
-2.178391 2.224899 2.375473
-2.172287 2.192947 2.387039
-2.174454 2.194839 2.381516
-2.172043 2.193069 2.375717
-2.169510 2.193039 2.388199
-2.173477 2.204208 2.387192
-2.175644 2.204056 2.375290
-2.177383 2.216873 2.382339
-2.177658 2.214127 2.375198
-2.175217 2.214340 2.387192
-2.167740 2.194199 2.405991
-2.171005 2.194870 2.403183
-2.171310 2.192978 2.398666
-2.173386 2.204117 2.398605
-2.175583 2.214798 2.390945
-2.176254 2.216415 2.403885
-2.174515 2.214310 2.398758
-2.175278 2.235397 2.388046
-2.178726 2.237961 2.383224
-2.178513 2.235092 2.375870
-2.178818 2.241043 2.376846
-2.177872 2.246201 2.376480
-2.177048 2.246201 2.388077
-2.175247 2.225113 2.399033
-2.176010 2.237839 2.404861
-2.175583 2.244278 2.395035
-2.174393 2.235428 2.399704
-2.175034 2.246384 2.400009
-2.167648 2.193314 2.411026
-2.173660 2.214310 2.410416
-2.173874 2.215866 2.408768
-2.170578 2.204361 2.410751
-2.166824 2.193192 2.434158
-2.166763 2.193344 2.422745
-2.168381 2.194717 2.424820
-2.167953 2.192520 2.423294
-2.167557 2.204544 2.434464
-2.168808 2.204483 2.422653
-2.171402 2.218002 2.426804
-2.171310 2.214523 2.422440
-2.171310 2.216782 2.425674
-2.169357 2.214645 2.434402
-2.174393 2.225113 2.410660
-2.174423 2.235336 2.411118
-2.174484 2.244431 2.412766
-2.173996 2.246414 2.411728
-2.170609 2.225388 2.434555
-2.171768 2.225327 2.422806
-2.171890 2.235672 2.423203
-2.170639 2.235733 2.434982
-2.171768 2.238052 2.426620
-2.169998 2.246841 2.424179
-2.169418 2.246811 2.435806
-2.171280 2.247696 2.431046
-2.159225 2.182877 2.447189
-2.125626 2.137680 2.446182
-2.126297 2.134293 2.442337
-2.132248 2.143814 2.452713
-2.133286 2.143814 2.440903
-2.140274 2.153946 2.439468
-2.138657 2.154007 2.451431
-2.125656 2.138474 2.458267
-2.130386 2.143906 2.464767
-2.132462 2.150314 2.453934
-2.138351 2.153946 2.463058
-2.156448 2.176865 2.439133
-2.156479 2.183121 2.459457
-2.145370 2.163773 2.450058
-2.141190 2.156296 2.446121
-2.146408 2.163773 2.438248
-2.144455 2.164810 2.437943
-2.153061 2.172958 2.448410
-2.153824 2.174698 2.446243
-2.143509 2.163895 2.462082
-2.143112 2.165390 2.455673
-2.137894 2.156296 2.467911
-2.150406 2.174698 2.468002
-2.150711 2.173172 2.460526
-2.153030 2.180344 2.457352
-2.128647 2.143997 2.476822
-2.131577 2.150192 2.471542
-2.136703 2.154037 2.475082
-2.131699 2.154404 2.499649
-2.126877 2.144119 2.488937
-2.134140 2.154221 2.487350
-2.129105 2.152298 2.489578
-2.143204 2.163895 2.473007
-2.143295 2.163834 2.473679
-2.153976 2.183212 2.483200
-2.148972 2.173264 2.472549
-2.151627 2.180954 2.475143
-2.155319 2.183151 2.471268
-2.141495 2.163925 2.485764
-2.137131 2.164322 2.498550
-2.133194 2.156601 2.489822
-2.139389 2.167862 2.491379
-2.145615 2.173477 2.496628
-2.146072 2.174911 2.489853
-2.147202 2.173386 2.484604
-2.150894 2.183456 2.495621
-2.148758 2.183640 2.493301
-2.168900 2.225510 2.446487
-2.163620 2.195023 2.446640
-2.161270 2.193771 2.447098
-2.163712 2.197189 2.441757
-2.165939 2.204636 2.446365
-2.167587 2.214798 2.446365
-2.167526 2.216873 2.447403
-2.158493 2.195419 2.468460
-2.160263 2.193832 2.458878
-2.160995 2.199692 2.459854
-2.163467 2.204849 2.458511
-2.165482 2.214951 2.458389
-2.168503 2.220779 2.444962
-2.169662 2.237778 2.448257
-2.168533 2.235916 2.447037
-2.168655 2.246811 2.447495
-2.165756 2.223312 2.463058
-2.166641 2.225693 2.458603
-2.166946 2.236038 2.458969
-2.166916 2.246933 2.459457
-2.158920 2.201279 2.477798
-2.158432 2.193954 2.470901
-2.158310 2.205276 2.482986
-2.161362 2.205002 2.470596
-2.163010 2.215164 2.470596
-2.164047 2.216934 2.469131
-2.161179 2.215286 2.482651
-2.156540 2.203232 2.495834
-2.162247 2.216629 2.490829
-2.157211 2.205338 2.494827
-2.158859 2.215500 2.494827
-2.156052 2.194138 2.483109
-2.153214 2.194351 2.495438
-2.155930 2.195236 2.490189
-2.162582 2.226028 2.482742
-2.163132 2.225693 2.481216
-2.163742 2.225998 2.470901
-2.163803 2.236221 2.482864
-2.164261 2.236282 2.471207
-2.165512 2.237961 2.470078
-2.164108 2.247208 2.471756
-2.162582 2.247299 2.483688
-2.161606 2.226059 2.494553
-2.160843 2.227554 2.499313
-2.161545 2.236435 2.495041
-2.162033 2.238052 2.491837
-2.159927 2.247574 2.496017
-2.124069 2.133804 2.416916
-2.122604 2.134506 2.434616
-2.124374 2.134598 2.431320
-2.087357 2.138992 2.420303
-2.121017 2.135422 2.452316
-2.107834 2.125473 2.451523
-2.121109 2.134659 2.466873
-2.124039 2.134445 2.454514
-2.121719 2.137772 2.468033
-2.116928 2.134995 2.479630
-2.118484 2.137558 2.470322
-2.106339 2.126175 2.469223
-2.117142 2.134903 2.491196
-2.116898 2.138046 2.489975
-2.116684 2.138687 2.488144
-2.104446 2.127457 2.487076
-2.085831 2.142654 2.495773
-2.050400 2.130051 2.456284
-2.104843 2.389572 2.274033
-2.163162 2.347153 2.259537
-2.190628 2.289017 2.262314
-2.196365 2.255447 2.259659
-2.198288 2.251785 2.254532
-2.197830 2.260147 2.254593
-2.196518 2.266281 2.260056
-2.193680 2.278091 2.261185
-2.194077 2.260269 2.276199
-2.195999 2.255386 2.270950
-2.194107 2.256454 2.272812
-2.193558 2.266586 2.271927
-2.192245 2.278183 2.272720
-2.191788 2.291092 2.259537
-2.194473 2.283096 2.255692
-2.194016 2.288620 2.250320
-2.187637 2.300644 2.263443
-2.190628 2.300308 2.251541
-2.188187 2.305923 2.256882
-2.190811 2.283188 2.277298
-2.188828 2.289169 2.273941
-2.190750 2.255905 2.294601
-2.191086 2.259476 2.290848
-2.192123 2.255844 2.283066
-2.188705 2.267075 2.295547
-2.191696 2.266769 2.283615
-2.188950 2.278580 2.284714
-2.188950 2.256058 2.306290
-2.190231 2.260422 2.297775
-2.187973 2.262589 2.308945
-2.184097 2.312119 2.264725
-2.187149 2.311752 2.252792
-2.184433 2.300430 2.278519
-2.185074 2.300919 2.275284
-2.183731 2.306229 2.278549
-2.181839 2.312332 2.276505
-2.186935 2.278763 2.296432
-2.186417 2.267288 2.307358
-2.185806 2.278793 2.307999
-2.186295 2.289444 2.285782
-2.182938 2.301132 2.287033
-2.181686 2.289902 2.309402
-2.186203 2.283554 2.298965
-2.184677 2.289566 2.297409
-2.176926 2.301804 2.311020
-2.179550 2.301529 2.299088
-2.178543 2.306686 2.300278
-2.179123 2.306778 2.297165
-2.156540 2.358810 2.250137
-2.180649 2.322586 2.254654
-2.174606 2.331589 2.258469
-2.171371 2.335526 2.257217
-2.176193 2.323074 2.278214
-2.179123 2.322708 2.266281
-2.170273 2.331894 2.280167
-2.168442 2.335892 2.269180
-2.166275 2.336105 2.280991
-2.160873 2.347427 2.271347
-2.154922 2.357742 2.260269
-2.152298 2.359390 2.262436
-2.137192 2.373032 2.254898
-2.148392 2.359909 2.274643
-2.127914 2.374313 2.279770
-2.132370 2.373703 2.267380
-2.172806 2.323471 2.290298
-2.177750 2.312851 2.288712
-2.163284 2.336472 2.293015
-2.175644 2.313065 2.300522
-2.169632 2.323868 2.302353
-2.159561 2.336960 2.305252
-2.163712 2.332687 2.302017
-2.154221 2.348251 2.295578
-2.156204 2.348038 2.283737
-2.148056 2.358627 2.282181
-2.144608 2.360428 2.286880
-2.149002 2.348953 2.308182
-2.141525 2.359451 2.304092
-2.135971 2.361588 2.311691
-2.140274 2.361008 2.299271
-2.182419 2.283676 2.320602
-2.186508 2.256271 2.318192
-2.186172 2.260605 2.319412
-2.183456 2.267380 2.327316
-2.185318 2.267349 2.318893
-2.182022 2.279251 2.320175
-2.184189 2.256424 2.341324
-2.184494 2.256454 2.329941
-2.183243 2.260574 2.341049
-2.181870 2.267624 2.342361
-2.184067 2.267441 2.330521
-2.180771 2.279343 2.331833
-2.180130 2.279312 2.343307
-2.179581 2.290115 2.321243
-2.173996 2.302139 2.323044
-2.177048 2.308395 2.315170
-2.173599 2.307114 2.322037
-2.181259 2.283218 2.342148
-2.176865 2.290390 2.333206
-2.172287 2.302292 2.334824
-2.181564 2.256668 2.353317
-2.180405 2.267746 2.354080
-2.181717 2.268478 2.345139
-2.177109 2.279648 2.355392
-2.179245 2.256882 2.365250
-2.180161 2.260544 2.362656
-2.174973 2.279831 2.367294
-2.177475 2.268021 2.366165
-2.177170 2.273666 2.363693
-2.173019 2.290756 2.356888
-2.176041 2.290390 2.344772
-2.167740 2.302750 2.358688
-2.171249 2.302353 2.346451
-2.169327 2.307358 2.343765
-2.172043 2.290787 2.368484
-2.175552 2.283768 2.363937
-2.166122 2.302872 2.370499
-2.164902 2.307663 2.365524
-2.146378 2.349289 2.320206
-2.169388 2.313797 2.324661
-2.163315 2.324600 2.326553
-2.171463 2.313583 2.312820
-2.166031 2.324295 2.314529
-2.158096 2.333298 2.323837
-2.168167 2.313858 2.336319
-2.160538 2.324936 2.338608
-2.155930 2.337418 2.317459
-2.149124 2.338272 2.341904
-2.153336 2.337723 2.329483
-2.134262 2.360428 2.326096
-2.132980 2.361954 2.323837
-2.142838 2.349747 2.332474
-2.129135 2.362473 2.336258
-2.164932 2.314224 2.348495
-2.158554 2.325119 2.350510
-2.158951 2.314926 2.372787
-2.161270 2.314682 2.360794
-2.147903 2.338333 2.353622
-2.151382 2.334091 2.345779
-2.154495 2.325607 2.362930
-2.147446 2.334305 2.367569
-2.144638 2.338730 2.365921
-2.140945 2.349930 2.344406
-2.138870 2.350143 2.356339
-2.128250 2.361130 2.348038
-2.134262 2.350754 2.368973
-2.125870 2.362747 2.360031
-2.123856 2.374893 2.292130
-2.124863 2.363022 2.348770
-2.120407 2.363541 2.372910
-2.122543 2.361740 2.370041
-2.102310 2.389877 2.286087
-2.093857 2.393692 2.285782
-2.119736 2.375443 2.304550
-2.095963 2.390793 2.299057
-2.084915 2.395096 2.307999
-2.091476 2.391464 2.311630
-2.058517 2.408981 2.261703
-2.044449 2.411118 2.288040
-2.051987 2.409622 2.309647
-2.046585 2.410660 2.299240
-2.063278 2.407578 2.318710
-2.114609 2.376205 2.317215
-2.112839 2.376358 2.329147
-2.108719 2.376938 2.341690
-2.087112 2.392075 2.324203
-2.082443 2.394943 2.329849
-2.086624 2.392044 2.335892
-2.064224 2.407303 2.330124
-2.109238 2.376694 2.353073
-2.107620 2.376877 2.365067
-2.078934 2.395035 2.351852
-2.082718 2.392563 2.348465
-2.082596 2.392471 2.360092
-2.060165 2.398788 2.374741
-2.132462 2.350937 2.380936
-2.172348 2.283798 2.385635
-2.176254 2.257095 2.388748
-2.176743 2.260574 2.384354
-2.177628 2.256973 2.377029
-2.173355 2.268387 2.389999
-2.174545 2.268326 2.378281
-2.173904 2.277054 2.381943
-2.172714 2.280045 2.379257
-2.173630 2.257309 2.400864
-2.173203 2.260666 2.406052
-2.172684 2.268387 2.401566
-2.172470 2.279984 2.390732
-2.170334 2.280197 2.402695
-2.169571 2.291031 2.380539
-2.162155 2.307571 2.387253
-2.164627 2.302994 2.382309
-2.169632 2.281815 2.400497
-2.167831 2.291183 2.392380
-2.166275 2.291306 2.404251
-2.160843 2.303360 2.406174
-2.162308 2.303238 2.394333
-2.171829 2.257492 2.412735
-2.167007 2.280563 2.415024
-2.171432 2.268478 2.413315
-2.169083 2.257645 2.436386
-2.169113 2.257736 2.424911
-2.169785 2.260696 2.427780
-2.166794 2.268997 2.426010
-2.163071 2.281021 2.427536
-2.161911 2.291611 2.419907
-2.162949 2.291672 2.416550
-2.168015 2.284042 2.407425
-2.157059 2.303787 2.418655
-2.157639 2.307877 2.409073
-2.163345 2.284409 2.429245
-2.159286 2.292099 2.429031
-2.154709 2.304031 2.430740
-2.152481 2.308334 2.430954
-2.127640 2.351486 2.405258
-2.157852 2.314987 2.384506
-2.149582 2.326157 2.387070
-2.151047 2.326065 2.375229
-2.143082 2.334610 2.389420
-2.142197 2.339035 2.378006
-2.140793 2.339096 2.389847
-2.148880 2.326157 2.398758
-2.156021 2.315170 2.396439
-2.139725 2.339188 2.401657
-2.131973 2.350906 2.392593
-2.151169 2.315659 2.420700
-2.154099 2.315353 2.408432
-2.147079 2.326370 2.410721
-2.141739 2.334152 2.411148
-2.137039 2.339493 2.413864
-2.147476 2.316116 2.433212
-2.142715 2.326889 2.423386
-2.140091 2.327194 2.435623
-2.137283 2.334488 2.433060
-2.133347 2.339951 2.426407
-2.161179 2.284164 2.450943
-2.168259 2.250687 2.449295
-2.167496 2.257767 2.448318
-2.168777 2.260208 2.449356
-2.164139 2.269180 2.449722
-2.166489 2.268936 2.437576
-2.163223 2.280899 2.438950
-2.161148 2.281082 2.451035
-2.164902 2.254074 2.467636
-2.164841 2.258011 2.460526
-2.161880 2.269363 2.461838
-2.157486 2.292160 2.452530
-2.156693 2.292374 2.441208
-2.159103 2.281265 2.463150
-2.149643 2.308273 2.452744
-2.151749 2.304367 2.443069
-2.155716 2.299179 2.439041
-2.155441 2.292374 2.464645
-2.148727 2.304611 2.466995
-2.151169 2.304398 2.457809
-2.150742 2.304428 2.454910
-2.163864 2.258041 2.472305
-2.165939 2.260086 2.471085
-2.160263 2.269485 2.473801
-2.159073 2.258499 2.496750
-2.162064 2.256790 2.485916
-2.161423 2.258286 2.484543
-2.161942 2.260300 2.492935
-2.156784 2.269760 2.497910
-2.158920 2.269547 2.485733
-2.157761 2.281357 2.475052
-2.157578 2.284256 2.472763
-2.152542 2.292679 2.477005
-2.146317 2.304855 2.479263
-2.145584 2.308487 2.474625
-2.154221 2.281631 2.499222
-2.154800 2.281662 2.487442
-2.150223 2.292892 2.489212
-2.154343 2.284256 2.494553
-2.142105 2.308548 2.496506
-2.146530 2.304703 2.490799
-2.146255 2.316177 2.445084
-2.137436 2.327469 2.447891
-2.128311 2.340530 2.450943
-2.131454 2.340164 2.438492
-2.142166 2.316696 2.457718
-2.135574 2.327682 2.460007
-2.125870 2.340805 2.463211
-2.133377 2.334671 2.454941
-2.141098 2.316757 2.469620
-2.139572 2.316879 2.481674
-2.134384 2.327744 2.471939
-2.133072 2.327805 2.483963
-2.128067 2.335190 2.477005
-2.137344 2.317123 2.493912
-2.131790 2.327927 2.495956
-2.128220 2.334396 2.498642
-2.119492 2.363571 2.384720
-2.115921 2.364059 2.397171
-2.120682 2.361435 2.391800
-2.123459 2.352036 2.417892
-2.114822 2.362076 2.413895
-2.114365 2.364182 2.409134
-2.121048 2.352280 2.430130
-2.109756 2.364792 2.421951
-2.108719 2.362778 2.435959
-2.106735 2.365158 2.434372
-2.118057 2.352676 2.442551
-2.104630 2.365372 2.446609
-2.112900 2.353256 2.467239
-2.115768 2.352921 2.454788
-2.105270 2.362869 2.457932
-2.102676 2.365585 2.458817
-2.124435 2.340897 2.475235
-2.119644 2.341415 2.499924
-2.121414 2.341263 2.487747
-2.111557 2.353348 2.479294
-2.098557 2.366043 2.483353
-2.098557 2.366135 2.471634
-2.102798 2.362686 2.479843
-2.108902 2.353653 2.491714
-2.095718 2.366379 2.495926
-2.103287 2.377487 2.377701
-2.095596 2.378525 2.402878
-2.097977 2.378220 2.390640
-2.068954 2.394638 2.375076
-2.094650 2.378555 2.414780
-2.063034 2.396622 2.418228
-2.089218 2.379318 2.427841
-2.058670 2.396255 2.389297
-2.061783 2.395584 2.400253
-2.057632 2.398636 2.396713
-2.055801 2.396469 2.413498
-2.085709 2.379654 2.452194
-2.087479 2.379501 2.439987
-2.082047 2.380142 2.464920
-2.080582 2.380264 2.477066
-2.080246 2.380203 2.488968
-2.044937 2.398056 2.439865
-2.050278 2.382523 2.762589
-2.159409 2.226242 2.506760
-2.094681 2.115585 2.508255
-2.097427 2.118881 2.511978
-2.096115 2.115311 2.519577
-2.080185 2.105362 2.514694
-2.079880 2.105759 2.511917
-2.071274 2.102524 2.512955
-2.066177 2.095901 2.503525
-2.076950 2.106644 2.502975
-2.090714 2.116531 2.503738
-2.092697 2.115036 2.501602
-2.078659 2.105820 2.524033
-2.063339 2.098557 2.526077
-2.063583 2.096054 2.516037
-2.075211 2.107712 2.520798
-2.090012 2.116135 2.521286
-2.069016 2.104324 2.545944
-2.065872 2.102890 2.535049
-2.073196 2.109116 2.538773
-2.074600 2.106125 2.536972
-2.086075 2.116165 2.545914
-2.089767 2.115860 2.533096
-2.093399 2.123093 2.536179
-2.090591 2.119583 2.534134
-2.086563 2.119583 2.539627
-2.071274 2.106369 2.561539
-2.073074 2.106155 2.549210
-2.084427 2.116226 2.558182
-2.086441 2.119705 2.556137
-2.085007 2.120407 2.557510
-2.071304 2.110367 2.556717
-2.059677 2.100510 2.502945
-2.054550 2.089615 2.502579
-2.037338 2.087906 2.514481
-2.041000 2.086411 2.505234
-2.044296 2.092422 2.502548
-2.044571 2.087265 2.509109
-2.042770 2.088242 2.520187
-2.043533 2.087296 2.521225
-2.043503 2.092209 2.520187
-2.016159 2.079575 2.504623
-2.016006 2.082626 2.500626
-2.026474 2.082260 2.506668
-2.003738 2.080399 2.504562
-2.009537 2.082321 2.502914
-2.018295 2.083115 2.520889
-2.026169 2.086746 2.520309
-2.002304 2.078873 2.528275
-2.008560 2.082352 2.520645
-2.013748 2.079727 2.517197
-2.005234 2.081924 2.519180
-2.012253 2.079758 2.529526
-2.013596 2.083206 2.525131
-2.050308 2.100357 2.527695
-2.054123 2.096664 2.527115
-2.059799 2.098984 2.520340
-2.060471 2.096268 2.528702
-2.032547 2.088150 2.536636
-2.042130 2.092697 2.537979
-2.039444 2.087570 2.534195
-2.034500 2.087875 2.559372
-2.036087 2.087784 2.547012
-2.040543 2.093552 2.555832
-2.025009 2.086990 2.538040
-2.003647 2.080307 2.542862
-2.007217 2.082809 2.538437
-2.008896 2.079971 2.542374
-2.015366 2.085281 2.542679
-2.023422 2.087784 2.555923
-2.017502 2.085922 2.554153
-2.016373 2.083023 2.552353
-2.026993 2.088516 2.558884
-2.006027 2.080154 2.555161
-2.008102 2.084915 2.561417
-2.005112 2.084305 2.556473
-2.057205 2.096481 2.541458
-2.056839 2.101669 2.538559
-2.031570 2.098709 2.545639
-2.052475 2.096329 2.559799
-2.057388 2.096359 2.553238
-2.055771 2.101791 2.556259
-2.061935 2.102982 2.557083
-2.070694 2.106308 2.573532
-2.084579 2.119370 2.577988
-2.083969 2.120468 2.575211
-2.083694 2.116196 2.570206
-2.085281 2.123245 2.568527
-2.070328 2.110336 2.574387
-2.069443 2.106369 2.585800
-2.083145 2.120255 2.592911
-2.084335 2.116043 2.581833
-2.069870 2.109634 2.591995
-2.070114 2.106094 2.609360
-2.069565 2.106247 2.597641
-2.081192 2.116135 2.606491
-2.082260 2.116135 2.594315
-2.082108 2.119156 2.599930
-2.084671 2.121078 2.605789
-2.068985 2.106094 2.621658
-2.071365 2.106705 2.614304
-2.081589 2.116043 2.618271
-2.082382 2.119949 2.610550
-2.082596 2.118301 2.621597
-2.069046 2.109390 2.609665
-2.054092 2.096634 2.577957
-2.032364 2.087936 2.571915
-2.039658 2.093338 2.573502
-2.032486 2.088486 2.591812
-2.032791 2.088791 2.579086
-2.022202 2.088120 2.573746
-2.018600 2.085159 2.568039
-2.017746 2.087051 2.569626
-2.004013 2.084427 2.574234
-2.012833 2.084885 2.562790
-2.002457 2.080368 2.568130
-2.020859 2.088577 2.591568
-2.030136 2.088058 2.584488
-2.024765 2.088242 2.580887
-2.016281 2.087326 2.587234
-2.002945 2.084549 2.592056
-2.006607 2.083359 2.585556
-2.055222 2.101212 2.573837
-2.055618 2.096420 2.565628
-2.052841 2.096634 2.590225
-2.060837 2.102493 2.578934
-2.051346 2.097946 2.592941
-2.053635 2.101669 2.591690
-2.038132 2.094101 2.591415
-2.020920 2.088303 2.603043
-2.027115 2.088150 2.609360
-2.030289 2.087967 2.596420
-2.019211 2.088058 2.596146
-2.020798 2.087448 2.597000
-2.008072 2.084885 2.600571
-2.012253 2.082291 2.599899
-2.021469 2.089706 2.623154
-2.019150 2.089523 2.609573
-2.021378 2.088028 2.610916
-2.025467 2.088211 2.621841
-2.014206 2.085556 2.619553
-2.001266 2.085464 2.610031
-2.050095 2.095718 2.607346
-2.053879 2.099991 2.609085
-2.050919 2.096542 2.595200
-2.059738 2.102005 2.600784
-2.049118 2.096817 2.602249
-2.052414 2.096573 2.602280
-2.036758 2.094650 2.609268
-2.050827 2.096481 2.621506
-2.054611 2.096268 2.613571
-2.057114 2.101791 2.622757
-2.160629 2.237625 2.513474
-2.129105 2.156723 2.511673
-2.129105 2.154617 2.512009
-2.126358 2.154800 2.507675
-2.125992 2.153946 2.525192
-2.128769 2.154526 2.523758
-2.135544 2.164383 2.510635
-2.137375 2.169388 2.509323
-2.141617 2.175156 2.511734
-2.142624 2.173691 2.509048
-2.145950 2.186295 2.511490
-2.147263 2.183792 2.508224
-2.135696 2.170334 2.527176
-2.134506 2.164444 2.522568
-2.144241 2.187332 2.529373
-2.147263 2.183731 2.519852
-2.140060 2.173904 2.521439
-2.127182 2.154617 2.535873
-2.125076 2.154739 2.548172
-2.131699 2.164566 2.546707
-2.134537 2.170578 2.544968
-2.127335 2.156357 2.533401
-2.133987 2.164383 2.534378
-2.144516 2.183823 2.543900
-2.144821 2.183884 2.532150
-2.137527 2.173996 2.545456
-2.138687 2.173935 2.533463
-2.138962 2.175003 2.533493
-2.131424 2.164474 2.558487
-2.142227 2.183975 2.556259
-2.135910 2.174088 2.557602
-2.136368 2.174850 2.555313
-2.159897 2.236557 2.507095
-2.158890 2.216629 2.512589
-2.157272 2.215591 2.506851
-2.156723 2.215561 2.518600
-2.151291 2.195541 2.512070
-2.152542 2.194351 2.507217
-2.153854 2.205704 2.514023
-2.155258 2.205460 2.506973
-2.150650 2.194504 2.519333
-2.152664 2.205582 2.530899
-2.154068 2.205521 2.518906
-2.155838 2.215561 2.530472
-2.159836 2.247482 2.507645
-2.157913 2.226212 2.530380
-2.157700 2.226364 2.518845
-2.158218 2.229965 2.517532
-2.158340 2.236557 2.530777
-2.158493 2.236618 2.519119
-2.158829 2.247513 2.519516
-2.157211 2.216293 2.534256
-2.147720 2.194626 2.543442
-2.150162 2.195053 2.533707
-2.149063 2.194565 2.531418
-2.152542 2.205490 2.542587
-2.153183 2.205307 2.531693
-2.154007 2.215714 2.542648
-2.147171 2.195267 2.555344
-2.142746 2.188065 2.547256
-2.146317 2.194717 2.555557
-2.146408 2.195175 2.555557
-2.150772 2.205612 2.554764
-2.151260 2.206680 2.549698
-2.151230 2.215927 2.555130
-2.153336 2.216385 2.556137
-2.156693 2.226273 2.542374
-2.157303 2.229904 2.535263
-2.157455 2.236557 2.542648
-2.158554 2.237381 2.535202
-2.158096 2.247513 2.531357
-2.156174 2.247665 2.543533
-2.154861 2.226395 2.554550
-2.154373 2.232681 2.553635
-2.155746 2.237259 2.556992
-2.155197 2.236740 2.554977
-2.154007 2.247879 2.555832
-2.128830 2.164688 2.570969
-2.141434 2.183975 2.568161
-2.135178 2.174362 2.576981
-2.135330 2.174057 2.569504
-2.132126 2.172623 2.563095
-2.127945 2.164688 2.582962
-2.134293 2.173965 2.593277
-2.140030 2.175980 2.584152
-2.135117 2.173935 2.581284
-2.131485 2.172195 2.580734
-2.139633 2.184097 2.580429
-2.138870 2.184067 2.592392
-2.126602 2.164627 2.606918
-2.126724 2.164688 2.595078
-2.132645 2.174057 2.605545
-2.133377 2.174026 2.598740
-2.129257 2.173904 2.598862
-2.138077 2.184067 2.604385
-2.125839 2.164597 2.618973
-2.135147 2.164444 2.614578
-2.132309 2.173538 2.620438
-2.129318 2.172440 2.616348
-2.139114 2.183823 2.615829
-2.132828 2.173935 2.617264
-2.153091 2.233109 2.571548
-2.145126 2.194687 2.577286
-2.145004 2.194748 2.567612
-2.141586 2.188309 2.565048
-2.150589 2.216263 2.577957
-2.149002 2.205734 2.566971
-2.149399 2.207901 2.567734
-2.151108 2.215866 2.566818
-2.141983 2.194931 2.591965
-2.144150 2.194748 2.579575
-2.140579 2.188370 2.582840
-2.146042 2.205887 2.591263
-2.147415 2.209335 2.585831
-2.147568 2.205826 2.579086
-2.149277 2.215988 2.579056
-2.148544 2.215958 2.591019
-2.154221 2.226364 2.566422
-2.153244 2.236893 2.567215
-2.153397 2.247818 2.567703
-2.150345 2.226669 2.590988
-2.152023 2.226578 2.578751
-2.151291 2.234299 2.589645
-2.151352 2.236923 2.591202
-2.153397 2.236771 2.578873
-2.153122 2.237106 2.578812
-2.152878 2.247787 2.579544
-2.151871 2.247818 2.591599
-2.143265 2.194656 2.603317
-2.143326 2.194382 2.599014
-2.139847 2.187973 2.600510
-2.145706 2.205826 2.603104
-2.149368 2.215805 2.599625
-2.146317 2.209488 2.603683
-2.147263 2.216019 2.603134
-2.142929 2.193741 2.620651
-2.141830 2.194717 2.615524
-2.138962 2.187912 2.618332
-2.146378 2.208054 2.621201
-2.145615 2.205734 2.614914
-2.148483 2.215775 2.614517
-2.148117 2.215378 2.621323
-2.150192 2.226578 2.602768
-2.150192 2.234451 2.607529
-2.151505 2.236740 2.600540
-2.150162 2.236984 2.603317
-2.149826 2.247971 2.603958
-2.148392 2.226730 2.615067
-2.150620 2.236221 2.622208
-2.149582 2.236954 2.615250
-2.149918 2.247879 2.615707
-2.112961 2.138168 2.511856
-2.114639 2.140182 2.506058
-2.115555 2.134933 2.503281
-2.105270 2.125076 2.505722
-2.103226 2.127762 2.504776
-2.122513 2.144363 2.513412
-2.123886 2.144363 2.501389
-2.111771 2.135178 2.527695
-2.113083 2.135117 2.515671
-2.101334 2.125290 2.530228
-2.103867 2.125107 2.517807
-2.100754 2.129868 2.522812
-2.113144 2.140945 2.523880
-2.119583 2.144608 2.525894
-2.110031 2.135269 2.539932
-2.111374 2.137772 2.533585
-2.099686 2.125351 2.542435
-2.099380 2.130417 2.540604
-2.112076 2.141098 2.541550
-2.119278 2.144547 2.537674
-2.124008 2.155350 2.543167
-2.097214 2.125504 2.554916
-2.107071 2.135483 2.552505
-2.097702 2.131393 2.558517
-2.107010 2.137955 2.555588
-2.109970 2.142624 2.559586
-2.117081 2.144699 2.550034
-2.116165 2.144669 2.562027
-2.124252 2.154739 2.560135
-2.085281 2.140030 2.533035
-2.121872 2.156998 2.561172
-2.123154 2.156509 2.555344
-2.120224 2.157944 2.579117
-2.096359 2.131851 2.576309
-2.105972 2.135391 2.576340
-2.095230 2.125626 2.567276
-2.106827 2.135391 2.564346
-2.104752 2.137711 2.577408
-2.115280 2.144669 2.574051
-2.121902 2.156082 2.577042
-2.122543 2.155319 2.573044
-2.123093 2.154770 2.572189
-2.108902 2.142715 2.577316
-2.094284 2.125504 2.591171
-2.095047 2.125534 2.579117
-2.105209 2.135361 2.588394
-2.113846 2.144730 2.586258
-2.121475 2.154831 2.584427
-2.092941 2.127182 2.569901
-2.122635 2.134354 2.607986
-2.094162 2.125443 2.603043
-2.095413 2.131821 2.594040
-2.104385 2.135361 2.600418
-2.103622 2.137222 2.599167
-2.120804 2.154739 2.608200
-2.113022 2.144730 2.598282
-2.120285 2.155685 2.598831
-2.121017 2.154800 2.596359
-2.107529 2.143326 2.595169
-2.103806 2.135208 2.624283
-2.094437 2.131821 2.611771
-2.104721 2.135208 2.612167
-2.101669 2.136887 2.621017
-2.111679 2.144669 2.622360
-2.113083 2.144608 2.610062
-2.120712 2.154617 2.620041
-2.119705 2.155075 2.620529
-2.107254 2.142319 2.612747
-2.091354 2.127060 2.602737
-2.093674 2.125381 2.615067
-2.120132 2.156693 2.596573
-2.119156 2.156693 2.614365
-2.067307 2.106186 2.634109
-2.068405 2.108963 2.627304
-2.088577 2.122879 2.634720
-2.083694 2.115707 2.629532
-2.081894 2.119247 2.628159
-2.067368 2.106064 2.646042
-2.078201 2.116074 2.655075
-2.081070 2.115860 2.642258
-2.080429 2.119888 2.646103
-2.084122 2.118149 2.642990
-2.083359 2.118912 2.642776
-2.080978 2.117935 2.643448
-2.066635 2.110001 2.645340
-2.063248 2.106247 2.671310
-2.066422 2.106064 2.658310
-2.079971 2.115768 2.666519
-2.079056 2.120468 2.664047
-2.087570 2.124924 2.668167
-2.077133 2.117996 2.665543
-2.065903 2.109726 2.663040
-2.062943 2.106216 2.683426
-2.078445 2.119888 2.681717
-2.083298 2.121506 2.681076
-2.063950 2.110977 2.681168
-2.077866 2.115891 2.679153
-2.077560 2.117203 2.687271
-2.049423 2.096573 2.639084
-2.027237 2.087936 2.633377
-2.019211 2.088120 2.627060
-2.018570 2.088028 2.625107
-2.011429 2.085953 2.637894
-2.000778 2.084793 2.627701
-2.020981 2.087631 2.650253
-2.024918 2.088058 2.646133
-2.016403 2.087723 2.647171
-2.017563 2.088974 2.645035
-2.023026 2.090805 2.649857
-2.013016 2.086960 2.652695
-2.048447 2.096329 2.639725
-2.049301 2.096329 2.625351
-2.053940 2.096237 2.625717
-2.052719 2.100266 2.626877
-2.036362 2.093796 2.626877
-2.050064 2.096420 2.650894
-2.056076 2.101273 2.644638
-2.051193 2.100998 2.644821
-2.056229 2.102005 2.655106
-2.034927 2.094437 2.644791
-2.042068 2.098282 2.643784
-2.056168 2.112808 2.648636
-2.036697 2.092789 2.677078
-2.023056 2.088058 2.670853
-2.021072 2.087723 2.663773
-2.024734 2.087967 2.658249
-2.007950 2.084763 2.666885
-2.015213 2.090836 2.663254
-2.012039 2.087906 2.669479
-2.022263 2.088028 2.683243
-2.023788 2.091629 2.676285
-2.009201 2.086044 2.682022
-2.010727 2.085953 2.675430
-2.014938 2.089890 2.680923
-2.052689 2.101242 2.666733
-2.058273 2.104111 2.671219
-2.047836 2.096695 2.658310
-2.048935 2.102676 2.663010
-2.033463 2.095078 2.662766
-2.046371 2.096664 2.664047
-2.044754 2.101059 2.660690
-2.047440 2.103378 2.680984
-2.047531 2.101669 2.677963
-2.032364 2.095261 2.680618
-2.044235 2.096756 2.676804
-2.078354 2.118698 2.699265
-2.081253 2.115433 2.690109
-2.062546 2.108444 2.703903
-2.075760 2.115799 2.715927
-2.076004 2.115891 2.703812
-2.072922 2.117386 2.709488
-2.076492 2.119888 2.717392
-2.071243 2.117020 2.731461
-2.074661 2.115799 2.728348
-2.067398 2.113419 2.723953
-2.067520 2.113541 2.737900
-2.073380 2.115829 2.740921
-2.074417 2.121353 2.735611
-2.060013 2.106400 2.696396
-2.019150 2.088211 2.696365
-2.024643 2.091415 2.695541
-2.009537 2.086411 2.696030
-2.001816 2.079422 2.689224
-2.009720 2.087631 2.691605
-2.013077 2.091019 2.699020
-2.025131 2.091904 2.709793
-2.006302 2.087570 2.713852
-2.015579 2.088455 2.709641
-2.011734 2.091446 2.717056
-2.009903 2.089493 2.713455
-2.047623 2.101547 2.689041
-2.047684 2.101791 2.692368
-2.042282 2.096756 2.701584
-2.042618 2.096848 2.689377
-2.042099 2.098343 2.697739
-2.045944 2.104080 2.698990
-2.062424 2.111740 2.699173
-2.057877 2.106491 2.709183
-2.038162 2.097061 2.715042
-2.042374 2.098618 2.711746
-2.044937 2.104050 2.716843
-2.043625 2.101608 2.711258
-2.046799 2.103043 2.715744
-2.060440 2.113113 2.717331
-2.030136 2.096848 2.698837
-2.029160 2.096878 2.716721
-2.027847 2.094681 2.704605
-2.025101 2.091873 2.723434
-2.010330 2.087234 2.724380
-2.015305 2.088394 2.721939
-2.011368 2.088547 2.747665
-2.014145 2.088394 2.734512
-2.010880 2.091263 2.734909
-2.003281 2.087448 2.736069
-2.055313 2.106552 2.734207
-2.047226 2.105850 2.726242
-2.056839 2.106522 2.721603
-2.036758 2.097092 2.727646
-2.041885 2.101242 2.733292
-2.043472 2.099747 2.726944
-2.053970 2.106583 2.746811
-2.046738 2.103104 2.745071
-2.036789 2.097000 2.739792
-2.034653 2.099838 2.734604
-2.043350 2.104904 2.734940
-2.059433 2.113144 2.735245
-2.028244 2.096756 2.734604
-2.147507 2.226608 2.638931
-2.129074 2.171432 2.633926
-2.126266 2.164444 2.630630
-2.137466 2.183853 2.639938
-2.132736 2.173813 2.629074
-2.138657 2.183792 2.627762
-2.126205 2.164322 2.642502
-2.130539 2.173874 2.653458
-2.129715 2.173355 2.642319
-2.131577 2.173874 2.641281
-2.127304 2.172562 2.651962
-2.137527 2.187119 2.653824
-2.135757 2.183945 2.652328
-2.126389 2.172440 2.669815
-2.130844 2.173752 2.665207
-2.128860 2.172806 2.664047
-2.135971 2.183792 2.664108
-2.126236 2.171310 2.687393
-2.126999 2.172501 2.685867
-2.129196 2.173843 2.677628
-2.135849 2.183701 2.676010
-2.148392 2.226608 2.626846
-2.142715 2.194504 2.627060
-2.140030 2.194748 2.639694
-2.137894 2.188034 2.636154
-2.145096 2.205582 2.638657
-2.145157 2.205673 2.626846
-2.147171 2.215805 2.626694
-2.144943 2.208725 2.639206
-2.145798 2.215897 2.638931
-2.141190 2.191055 2.653671
-2.141037 2.193436 2.642441
-2.140182 2.194626 2.651443
-2.143753 2.205643 2.650894
-2.146500 2.215012 2.643112
-2.145218 2.215866 2.650925
-2.148575 2.236862 2.639145
-2.148392 2.247849 2.639755
-2.148849 2.236954 2.627243
-2.149216 2.234451 2.625412
-2.148605 2.247940 2.627884
-2.146835 2.226578 2.650955
-2.147934 2.236832 2.651138
-2.149399 2.235764 2.643936
-2.147903 2.234970 2.643417
-2.147690 2.247849 2.651779
-2.135849 2.188126 2.671860
-2.138901 2.193161 2.664261
-2.140244 2.194504 2.663284
-2.145706 2.214432 2.664810
-2.143600 2.205582 2.662766
-2.143448 2.209091 2.657150
-2.146103 2.215652 2.662491
-2.138962 2.192398 2.685898
-2.139908 2.194443 2.675247
-2.139999 2.194321 2.687119
-2.142685 2.205429 2.686783
-2.143661 2.205429 2.674606
-2.143112 2.208145 2.674820
-2.145309 2.215622 2.674606
-2.144455 2.213974 2.686569
-2.142807 2.215866 2.687302
-2.147324 2.226395 2.662643
-2.147720 2.233810 2.661118
-2.148727 2.235184 2.665634
-2.147385 2.236832 2.663162
-2.147720 2.247726 2.663651
-2.144272 2.226608 2.687363
-2.146530 2.226425 2.674759
-2.146164 2.234634 2.679214
-2.147812 2.236679 2.674881
-2.147415 2.247665 2.675583
-2.127213 2.173874 2.702103
-2.132401 2.184067 2.700943
-2.127487 2.173935 2.690079
-2.134750 2.183884 2.688248
-2.126724 2.173813 2.714218
-2.125351 2.172134 2.707718
-2.130386 2.184189 2.713547
-2.128281 2.184341 2.726181
-2.126999 2.184372 2.738602
-2.143906 2.226547 2.699387
-2.136398 2.194656 2.700180
-2.134659 2.188431 2.689835
-2.140671 2.205612 2.699356
-2.140732 2.210129 2.693192
-2.142471 2.215775 2.699295
-2.135544 2.194656 2.712387
-2.135361 2.192459 2.707901
-2.132462 2.190140 2.708084
-2.142014 2.213791 2.708450
-2.138260 2.205795 2.712082
-2.139206 2.210892 2.711288
-2.139786 2.216019 2.712112
-2.143570 2.237015 2.700058
-2.144943 2.235001 2.697250
-2.145401 2.235184 2.687607
-2.145554 2.236862 2.687515
-2.145309 2.247818 2.688156
-2.143051 2.248032 2.700790
-2.140579 2.226852 2.712418
-2.142441 2.237137 2.715683
-2.143173 2.234940 2.709488
-2.141556 2.237137 2.712601
-2.142746 2.248093 2.712845
-2.132126 2.192429 2.729935
-2.129745 2.192642 2.726578
-2.132034 2.194962 2.725510
-2.137222 2.212296 2.729599
-2.136734 2.205887 2.724533
-2.138748 2.216019 2.724380
-2.138779 2.213760 2.730453
-2.131607 2.194809 2.749649
-2.131729 2.194901 2.737595
-2.127914 2.193802 2.744797
-2.134476 2.205948 2.749252
-2.134598 2.206039 2.737198
-2.137466 2.216080 2.736771
-2.136215 2.212357 2.747543
-2.135483 2.216232 2.749466
-2.140854 2.226700 2.724258
-2.141220 2.234665 2.731369
-2.141281 2.248184 2.725296
-2.140182 2.238968 2.734116
-2.140244 2.237228 2.725021
-2.137436 2.226944 2.749374
-2.139542 2.226791 2.736679
-2.138657 2.237228 2.749527
-2.139542 2.237228 2.737228
-2.139603 2.248306 2.737808
-2.118393 2.156387 2.632065
-2.121017 2.159622 2.648911
-2.104904 2.134995 2.635849
-2.094589 2.130264 2.629196
-2.112198 2.144516 2.634018
-2.120621 2.154526 2.631912
-2.106461 2.142044 2.630417
-2.106186 2.134750 2.647324
-2.106979 2.139969 2.647751
-2.105637 2.135361 2.642349
-2.117661 2.156082 2.649826
-2.111221 2.144485 2.646194
-2.119278 2.154556 2.644180
-2.118210 2.154678 2.642319
-2.093460 2.125198 2.638901
-2.092728 2.125381 2.627213
-2.090775 2.125381 2.651627
-2.093094 2.130966 2.647141
-2.124802 2.164413 2.654800
-2.099228 2.135971 2.664627
-2.102036 2.135086 2.660507
-2.111832 2.144211 2.669815
-2.111679 2.144363 2.657944
-2.117935 2.154617 2.656448
-2.117630 2.154556 2.668472
-2.117020 2.154190 2.664078
-2.104752 2.141678 2.665939
-2.097733 2.135574 2.686478
-2.101517 2.135056 2.672623
-2.098557 2.135269 2.685501
-2.114151 2.154099 2.686050
-2.118149 2.154404 2.680222
-2.102982 2.142807 2.684036
-2.108231 2.144547 2.682907
-2.092239 2.130753 2.664902
-2.089462 2.125412 2.663986
-2.089371 2.133377 2.683304
-2.088943 2.125351 2.676102
-2.116470 2.156357 2.667679
-2.123703 2.164413 2.667007
-2.115097 2.156906 2.685654
-2.124893 2.164169 2.678513
-2.120255 2.162369 2.686966
-2.124802 2.164108 2.690475
-2.095840 2.135422 2.698349
-2.116562 2.154495 2.692673
-2.102036 2.142776 2.701859
-2.106400 2.144638 2.695389
-2.094955 2.135422 2.710678
-2.113754 2.154587 2.717514
-2.111771 2.153854 2.707962
-2.113480 2.154709 2.705612
-2.106094 2.144547 2.707504
-2.085068 2.125565 2.701340
-2.087326 2.129715 2.702225
-2.087540 2.125412 2.688553
-2.087479 2.134628 2.701431
-2.085159 2.125443 2.713364
-2.093674 2.135696 2.708603
-2.088303 2.132156 2.718735
-2.119522 2.164474 2.716110
-2.113815 2.157333 2.703598
-2.120377 2.164505 2.703842
-2.124649 2.172134 2.705460
-2.095322 2.135269 2.722549
-2.109787 2.154922 2.730789
-2.101364 2.144852 2.733078
-2.103897 2.144699 2.720230
-2.100418 2.143631 2.719925
-2.107559 2.154037 2.730118
-2.094040 2.135330 2.735031
-2.102005 2.144699 2.744919
-2.098404 2.145035 2.738113
-2.106735 2.155167 2.743851
-2.091415 2.135422 2.730576
-2.084122 2.125443 2.725754
-2.082382 2.127853 2.719559
-2.092850 2.135361 2.747482
-2.081009 2.125687 2.738846
-2.086105 2.133774 2.737015
-2.086655 2.132919 2.736008
-2.117172 2.164658 2.728836
-2.112228 2.158127 2.721664
-2.119400 2.166092 2.725204
-2.119583 2.172623 2.729996
-2.122086 2.174301 2.723831
-2.124283 2.173996 2.726974
-2.111465 2.165207 2.742783
-2.108932 2.161362 2.740311
-2.117722 2.179062 2.742844
-2.118362 2.174576 2.740952
-2.074539 2.380905 2.514145
-2.130142 2.328049 2.508102
-2.151810 2.281876 2.511490
-2.158554 2.260300 2.514725
-2.159348 2.258347 2.508286
-2.159866 2.258560 2.504044
-2.157547 2.260483 2.522232
-2.157272 2.258530 2.520462
-2.156021 2.269760 2.509750
-2.154587 2.269882 2.521774
-2.147415 2.293076 2.513290
-2.148239 2.293076 2.501389
-2.141830 2.305191 2.515396
-2.143417 2.305069 2.503281
-2.146713 2.293198 2.525131
-2.151566 2.281815 2.523209
-2.152603 2.283920 2.516281
-2.140823 2.308121 2.518234
-2.140518 2.305283 2.527451
-2.157547 2.259811 2.536392
-2.156448 2.258530 2.532333
-2.155777 2.258530 2.544174
-2.156235 2.260941 2.540176
-2.153122 2.269821 2.545486
-2.154465 2.269760 2.533463
-2.153275 2.263840 2.558609
-2.154007 2.259872 2.558243
-2.153519 2.258743 2.556503
-2.149796 2.270218 2.558151
-2.151993 2.283310 2.537918
-2.150772 2.281784 2.535110
-2.146164 2.293198 2.536942
-2.139816 2.305283 2.539352
-2.138077 2.307999 2.540115
-2.148087 2.281967 2.559219
-2.150375 2.281754 2.546890
-2.146072 2.293076 2.548660
-2.148087 2.283493 2.559830
-2.142502 2.293503 2.561447
-2.134995 2.307968 2.561996
-2.137558 2.305496 2.551743
-2.135880 2.317215 2.505966
-2.133621 2.317337 2.529984
-2.133682 2.317429 2.518265
-2.127792 2.328293 2.520462
-2.133316 2.317276 2.541794
-2.128952 2.327896 2.543564
-2.127060 2.328293 2.532394
-2.129837 2.317673 2.554550
-2.146164 2.282150 2.571518
-2.151230 2.265396 2.576828
-2.152237 2.258804 2.568588
-2.149765 2.270126 2.569870
-2.149857 2.258896 2.592728
-2.150497 2.258926 2.580795
-2.151932 2.259628 2.580032
-2.148331 2.270065 2.593735
-2.149551 2.270035 2.581650
-2.141708 2.293472 2.573380
-2.134140 2.305771 2.576187
-2.134720 2.305801 2.564285
-2.146164 2.282028 2.583267
-2.147537 2.282883 2.581528
-2.139725 2.293686 2.585739
-2.133286 2.305801 2.588242
-2.133347 2.307632 2.583786
-2.148880 2.258926 2.604782
-2.150620 2.259171 2.601730
-2.147171 2.270126 2.605850
-2.149307 2.266739 2.594986
-2.148270 2.258987 2.623581
-2.149521 2.258743 2.616379
-2.147263 2.270004 2.617599
-2.148941 2.265823 2.612747
-2.142441 2.282364 2.607925
-2.145096 2.282700 2.603378
-2.144089 2.282181 2.595627
-2.140030 2.293503 2.597427
-2.131119 2.307388 2.605667
-2.131424 2.305954 2.600601
-2.142990 2.282120 2.619522
-2.137070 2.293747 2.621933
-2.137161 2.293839 2.610062
-2.129044 2.306076 2.624985
-2.131302 2.305862 2.612473
-2.128708 2.317764 2.566635
-2.126816 2.317795 2.590775
-2.128006 2.317734 2.578629
-2.108322 2.353622 2.503616
-2.095139 2.366348 2.507828
-2.118393 2.341507 2.511978
-2.116714 2.341660 2.524185
-2.123581 2.334732 2.520676
-2.098434 2.362991 2.501907
-2.106735 2.353653 2.527603
-2.105911 2.353928 2.516037
-2.096207 2.362747 2.523849
-2.093246 2.366562 2.520157
-2.123947 2.333939 2.542343
-2.114944 2.341843 2.536453
-2.121628 2.328903 2.557449
-2.115982 2.341537 2.547928
-2.113266 2.341843 2.560501
-2.104782 2.353867 2.539932
-2.093948 2.362564 2.545822
-2.101761 2.354233 2.552628
-2.091843 2.366531 2.544205
-2.091110 2.366776 2.532578
-2.088547 2.366959 2.556992
-2.099380 2.354355 2.576981
-2.121201 2.328842 2.569351
-2.119522 2.334213 2.564407
-2.108658 2.342453 2.573685
-2.117020 2.334061 2.586349
-2.121017 2.328812 2.581223
-2.109421 2.342209 2.585312
-2.099594 2.354446 2.565048
-2.097946 2.354477 2.589279
-2.091690 2.362350 2.567795
-2.087418 2.367020 2.569168
-2.086014 2.367020 2.593430
-2.086838 2.367020 2.581253
-2.091415 2.361679 2.589645
-2.124954 2.317978 2.603165
-2.114639 2.333878 2.608292
-2.118179 2.329086 2.593887
-2.118790 2.328903 2.605576
-2.106979 2.342484 2.597885
-2.123337 2.318100 2.615494
-2.115189 2.329330 2.618515
-2.106552 2.342331 2.621811
-2.107040 2.342361 2.609756
-2.096756 2.354538 2.601547
-2.095016 2.354721 2.613998
-2.083115 2.367386 2.606216
-2.082504 2.367355 2.618332
-2.089035 2.361496 2.611649
-2.076950 2.380630 2.501633
-2.074509 2.380814 2.526016
-2.072647 2.380997 2.538406
-2.070175 2.381271 2.551010
-2.067520 2.381485 2.575638
-2.068588 2.381424 2.563370
-2.066818 2.381485 2.587784
-2.065628 2.381577 2.600082
-2.063522 2.381668 2.624741
-2.064926 2.381577 2.612320
-2.141129 2.282303 2.631912
-2.143143 2.282425 2.625198
-2.148087 2.258713 2.640396
-2.147446 2.258896 2.628769
-2.147781 2.266129 2.630753
-2.146835 2.269974 2.629562
-2.147690 2.258652 2.652359
-2.148819 2.258133 2.645157
-2.145035 2.270004 2.653763
-2.145645 2.270035 2.641769
-2.146591 2.266434 2.648819
-2.137833 2.293503 2.633530
-2.129471 2.305923 2.636734
-2.131912 2.306503 2.627304
-2.143295 2.281693 2.646835
-2.140060 2.282211 2.655960
-2.140457 2.282272 2.643997
-2.136765 2.293564 2.645706
-2.128403 2.306564 2.649338
-2.129440 2.305801 2.648636
-2.148727 2.257401 2.666794
-2.146194 2.258743 2.664688
-2.145035 2.267197 2.666946
-2.144608 2.269943 2.665756
-2.145401 2.258774 2.676804
-2.142776 2.269089 2.685379
-2.142593 2.270126 2.678299
-2.140091 2.281662 2.668808
-2.138565 2.282333 2.668289
-2.135269 2.293686 2.658035
-2.134171 2.293716 2.670303
-2.127335 2.306076 2.671158
-2.128311 2.305862 2.660873
-2.136948 2.282455 2.680710
-2.133682 2.293655 2.682358
-2.127426 2.305893 2.673080
-2.136002 2.282455 2.692978
-2.142410 2.258957 2.701553
-2.145584 2.257401 2.688766
-2.144363 2.258774 2.689041
-2.141159 2.270187 2.690659
-2.139816 2.270279 2.703018
-2.141922 2.258926 2.713669
-2.141617 2.257584 2.710831
-2.140915 2.270370 2.703690
-2.139114 2.270279 2.715225
-2.136368 2.281021 2.712570
-2.138321 2.281326 2.690659
-2.130875 2.293961 2.695236
-2.126175 2.305618 2.693008
-2.134048 2.282516 2.717514
-2.135971 2.282364 2.704941
-2.130508 2.293900 2.707291
-2.125595 2.305008 2.714828
-2.139755 2.257248 2.732712
-2.139633 2.259109 2.726395
-2.137405 2.270401 2.727768
-2.138870 2.271805 2.722061
-2.135422 2.280533 2.734360
-2.139603 2.259018 2.738419
-2.136429 2.270432 2.740067
-2.134628 2.276566 2.741257
-2.134232 2.282394 2.729446
-2.128342 2.293991 2.732010
-2.129929 2.293900 2.719467
-2.126602 2.294113 2.744614
-2.132614 2.282516 2.742020
-2.094131 2.354630 2.638138
-2.124924 2.306107 2.685806
-2.094193 2.354752 2.626175
-2.121323 2.318161 2.639877
-2.122757 2.318069 2.627518
-2.113968 2.329422 2.630783
-2.113297 2.333450 2.630173
-2.105453 2.342392 2.634048
-2.120926 2.318130 2.651871
-2.115067 2.329025 2.654312
-2.115280 2.329086 2.642319
-2.111496 2.333145 2.652084
-2.105118 2.342300 2.646103
-2.088852 2.360794 2.633499
-2.081284 2.367416 2.630722
-2.092972 2.354691 2.650467
-2.086594 2.360611 2.655563
-2.080704 2.367386 2.642868
-2.079208 2.367538 2.655380
-2.120926 2.318008 2.663803
-2.114151 2.329025 2.666519
