-1.578201 -4.970108 0.327805
-1.588486 -4.973007 0.331772
-1.586868 -4.974075 0.334732
-1.583572 -4.972458 0.331589
-1.569717 -4.967941 0.335800
-1.568161 -4.967758 0.317886
-1.569107 -4.968338 0.322586
-1.615128 -4.986893 0.372787
-1.618576 -4.988144 0.346085
-1.614761 -4.985764 0.346237
-1.620010 -4.985672 0.357803
-1.620102 -4.987289 0.359085
-1.615982 -4.983841 0.357162
-1.602005 -4.981155 0.347061
-1.599594 -4.979965 0.345566
-1.599228 -4.978836 0.358688
-1.602982 -4.980545 0.360184
-1.600296 -4.982224 0.372147
-1.598862 -4.982315 0.373825
-1.565079 -4.969742 0.362808
-1.586929 -4.973923 0.347946
-1.583817 -4.973282 0.344833
-1.589523 -4.974442 0.358719
-1.584244 -4.974625 0.358109
-1.578903 -4.971634 0.358963
-1.568924 -4.970169 0.357498
-1.584824 -4.974716 0.361404
-1.584732 -4.976120 0.371384
-1.583206 -4.975327 0.374832
-1.569168 -4.970901 0.370712
-1.562729 -4.965897 0.360245
-1.568375 -4.968430 0.344223
-1.568832 -4.968185 0.349136
-1.539963 -4.963425 0.359848
-1.539322 -4.963181 0.330185
-1.552872 -4.963852 0.317368
-1.547470 -4.963394 0.323990
-1.538681 -4.961075 0.316940
-1.561691 -4.965439 0.333267
-1.553116 -4.964615 0.330551
-1.547745 -4.963120 0.337296
-1.538620 -4.960648 0.328812
-1.535263 -4.960220 0.334579
-1.539383 -4.963394 0.343338
-1.509903 -4.957870 0.329330
-1.523941 -4.959244 0.316574
-1.525497 -4.958847 0.325485
-1.509659 -4.957138 0.316208
-1.500748 -4.955948 0.313828
-1.523849 -4.958939 0.329636
-1.524155 -4.959946 0.342819
-1.523087 -4.959793 0.339096
-1.501572 -4.957047 0.329544
-1.507126 -4.956619 0.335831
-1.509964 -4.958115 0.342422
-1.544083 -4.964493 0.364334
-1.553543 -4.965988 0.343765
-1.553940 -4.967239 0.356979
-1.545090 -4.964188 0.350876
-1.539474 -4.963699 0.356461
-1.554001 -4.967422 0.370163
-1.536270 -4.962418 0.361435
-1.540146 -4.965897 0.369766
-1.508133 -4.957504 0.362778
-1.524643 -4.961502 0.356033
-1.521683 -4.960251 0.352585
-1.510452 -4.959763 0.355637
-1.518478 -4.961533 0.366287
-1.524704 -4.961777 0.369156
-1.502975 -4.960037 0.360519
-1.510849 -4.961075 0.368820
-1.625107 -4.996262 0.451309
-1.627213 -4.998123 0.425034
-1.630386 -4.996933 0.398239
-1.633011 -4.999771 0.387344
-1.631149 -4.996719 0.384995
-1.633041 -4.999863 0.400650
-1.628433 -4.997696 0.411667
-1.625473 -4.998642 0.451645
-1.602859 -4.990189 0.492111
-1.601669 -4.986465 0.425430
-1.601242 -4.985123 0.398819
-1.623184 -4.992264 0.388840
-1.615860 -4.989212 0.386215
-1.615219 -4.989273 0.386002
-1.616989 -4.987808 0.383957
-1.600571 -4.983017 0.385422
-1.597244 -4.982895 0.387253
-1.614273 -4.989578 0.399307
-1.616196 -4.990250 0.399551
-1.597336 -4.982712 0.400497
-1.569839 -4.973068 0.397232
-1.590500 -4.977066 0.385574
-1.585129 -4.977402 0.384689
-1.582626 -4.975449 0.388168
-1.579788 -4.973465 0.390091
-1.565750 -4.969284 0.376022
-1.569565 -4.972214 0.383987
-1.563705 -4.969131 0.387070
-1.585190 -4.977615 0.397903
-1.581070 -4.976028 0.401596
-1.617172 -4.993210 0.426346
-1.617996 -4.990036 0.410904
-1.613754 -4.989670 0.412613
-1.616745 -4.991928 0.412949
-1.624710 -4.995377 0.420029
-1.601425 -4.985672 0.412125
-1.595535 -4.983383 0.413956
-1.612900 -4.989944 0.425919
-1.594528 -4.983719 0.427322
-1.570480 -4.975204 0.423782
-1.591537 -4.979507 0.412491
-1.585464 -4.978439 0.411179
-1.579117 -4.976761 0.415115
-1.581467 -4.976913 0.421188
-1.569931 -4.973434 0.410446
-1.564713 -4.970688 0.413986
-1.585922 -4.979904 0.424515
-1.578995 -4.976669 0.428421
-1.570480 -4.975113 0.436966
-1.554672 -4.969620 0.422958
-1.554459 -4.968918 0.396561
-1.562363 -4.970688 0.389694
-1.562088 -4.970688 0.403061
-1.540695 -4.965012 0.390915
-1.554184 -4.968033 0.383347
-1.542191 -4.965164 0.377823
-1.540359 -4.966507 0.382950
-1.537247 -4.962845 0.388412
-1.540787 -4.965652 0.391342
-1.540298 -4.966324 0.396072
-1.538895 -4.966385 0.404922
-1.515518 -4.962601 0.393417
-1.525162 -4.963242 0.382370
-1.519150 -4.961105 0.379623
-1.510880 -4.961136 0.381912
-1.509140 -4.959122 0.389664
-1.525497 -4.964310 0.395584
-1.511520 -4.963272 0.395187
-1.502975 -4.960068 0.391647
-1.560074 -4.971268 0.429916
-1.554520 -4.969101 0.409744
-1.560471 -4.971268 0.416550
-1.555344 -4.971817 0.436325
-1.541153 -4.966049 0.422043
-1.540817 -4.968033 0.409348
-1.538284 -4.963425 0.415359
-1.538376 -4.966476 0.418350
-1.540695 -4.967606 0.422470
-1.540665 -4.967545 0.435623
-1.536697 -4.967087 0.431900
-1.504196 -4.962631 0.422653
-1.525558 -4.964493 0.408737
-1.514786 -4.962753 0.406906
-1.511490 -4.963150 0.408310
-1.510086 -4.962204 0.416458
-1.513535 -4.963181 0.420456
-1.511795 -4.964157 0.421524
-1.525955 -4.965897 0.421982
-1.525986 -4.965897 0.435135
-1.512192 -4.966049 0.434799
-1.510696 -4.964310 0.434219
-1.607651 -4.991653 0.492874
-1.602188 -4.988113 0.465347
-1.616898 -4.992355 0.439529
-1.619003 -4.991837 0.437820
-1.611710 -4.990341 0.439285
-1.617233 -4.993484 0.452927
-1.611008 -4.990524 0.452652
-1.601913 -4.987259 0.438736
-1.602066 -4.987717 0.452042
-1.594955 -4.983383 0.440567
-1.620041 -4.994644 0.464737
-1.617905 -4.995499 0.466415
-1.609787 -4.990921 0.466049
-1.591415 -4.984726 0.467545
-1.586136 -4.980576 0.437820
-1.592514 -4.980301 0.439468
-1.578262 -4.976883 0.441818
-1.585892 -4.979813 0.450974
-1.581467 -4.977036 0.452408
-1.565720 -4.971085 0.440964
-1.570663 -4.975754 0.450241
-1.593552 -4.983902 0.453995
-1.586502 -4.981735 0.464401
-1.593521 -4.984024 0.466293
-1.576187 -4.977707 0.455368
-1.570877 -4.976456 0.463516
-1.566727 -4.973831 0.467819
-1.624283 -4.998795 0.491562
-1.624557 -4.998795 0.478256
-1.618423 -4.997116 0.479874
-1.608780 -4.991257 0.479477
-1.602188 -4.988144 0.478622
-1.621048 -4.996414 0.491714
-1.617844 -4.995285 0.492996
-1.594559 -4.984268 0.493301
-1.587540 -4.984970 0.491196
-1.591751 -4.984421 0.480820
-1.586868 -4.982895 0.477737
-1.583389 -4.980942 0.483444
-1.574783 -4.978165 0.468887
-1.571396 -4.978104 0.476913
-1.573593 -4.978561 0.482376
-1.590622 -4.984787 0.494278
-1.571182 -4.977402 0.490067
-1.574173 -4.978165 0.495651
-1.567764 -4.973587 0.494858
-1.541855 -4.971390 0.488693
-1.541672 -4.970810 0.462265
-1.558792 -4.971695 0.443405
-1.555374 -4.971909 0.449539
-1.541214 -4.969315 0.448959
-1.542526 -4.968918 0.453079
-1.556747 -4.972488 0.457016
-1.555862 -4.973465 0.462875
-1.533188 -4.968369 0.459152
-1.539261 -4.966263 0.442215
-1.535446 -4.967514 0.445450
-1.504349 -4.962997 0.453720
-1.526291 -4.966934 0.448380
-1.511124 -4.962296 0.443466
-1.512009 -4.965439 0.447891
-1.509354 -4.964767 0.447861
-1.526535 -4.967758 0.461624
-1.512497 -4.967026 0.461197
-1.507584 -4.965408 0.461533
-1.541275 -4.969345 0.496017
-1.555191 -4.973099 0.470566
-1.555771 -4.973190 0.476059
-1.553543 -4.973648 0.484177
-1.541550 -4.970444 0.475418
-1.555984 -4.973831 0.489304
-1.554123 -4.973251 0.497482
-1.526993 -4.969284 0.488113
-1.531937 -4.968643 0.486130
-1.540268 -4.968399 0.469070
-1.533279 -4.968216 0.472549
-1.541824 -4.967484 0.484299
-1.512772 -4.967972 0.487595
-1.526596 -4.967972 0.474808
-1.512100 -4.964310 0.470322
-1.512344 -4.966568 0.474289
-1.507156 -4.965439 0.475052
-1.505814 -4.966049 0.484695
-1.502304 -4.967453 0.489151
-1.513077 -4.968277 0.497147
-1.473038 -4.970596 0.486771
-1.481918 -4.955185 0.237381
-1.498276 -4.937332 0.094101
-1.477432 -4.939560 0.055069
-1.439651 -4.948776 0.016159
-1.464066 -4.939468 0.003220
-1.439285 -4.947556 0.003220
-1.451584 -4.942947 0.003220
-1.440872 -4.941788 0.014420
-1.464401 -4.940598 0.016159
-1.458847 -4.939987 0.020340
-1.464645 -4.941422 0.029129
-1.451981 -4.944260 0.016159
-1.440140 -4.950577 0.029129
-1.451706 -4.943344 0.029129
-1.478104 -4.939774 0.060287
-1.477341 -4.939194 0.042099
-1.480728 -4.938797 0.046829
-1.468765 -4.938126 0.040909
-1.452652 -4.947128 0.055069
-1.465012 -4.942673 0.042099
-1.452225 -4.945694 0.042099
-1.440384 -4.951340 0.042099
-1.441818 -4.943771 0.041367
-1.460861 -4.944199 0.051132
-1.465225 -4.943405 0.055069
-1.440598 -4.952103 0.055069
-1.419510 -4.969650 0.046616
-1.418045 -4.969284 0.020859
-1.390427 -4.990280 0.019577
-1.387833 -4.997147 0.013962
-1.377670 -4.968887 0.003220
-1.378128 -4.970596 0.016190
-1.377975 -4.970047 0.029160
-1.414841 -4.956894 0.016190
-1.414017 -4.954025 0.003220
-1.426682 -4.952896 0.003220
-1.414658 -4.945511 0.015030
-1.427200 -4.954727 0.029129
-1.412918 -4.956070 0.019211
-1.415024 -4.957504 0.029129
-1.426651 -4.952866 0.016159
-1.428543 -4.947372 0.020737
-1.390244 -4.965775 0.016190
-1.401962 -4.959000 0.003220
-1.389572 -4.963394 0.003220
-1.380142 -4.954269 0.004868
-1.379532 -4.955338 0.015579
-1.387711 -4.949966 0.015549
-1.402176 -4.959732 0.016159
-1.399460 -4.959183 0.020798
-1.402542 -4.961014 0.029129
-1.390488 -4.966599 0.029160
-1.379135 -4.955978 0.026474
-1.375381 -4.983688 0.057938
-1.387192 -4.997726 0.039230
-1.382431 -4.971786 0.032028
-1.377945 -4.969955 0.042099
-1.391617 -4.970718 0.055130
-1.378983 -4.973709 0.055099
-1.415909 -4.960678 0.055099
-1.427109 -4.954453 0.042099
-1.415359 -4.958755 0.042099
-1.415604 -4.948135 0.041855
-1.427536 -4.955978 0.055069
-1.424332 -4.958542 0.060410
-1.430954 -4.952499 0.051437
-1.377396 -4.959274 0.047348
-1.403275 -4.963638 0.042130
-1.378281 -4.957565 0.036942
-1.390396 -4.966324 0.042099
-1.384415 -4.967056 0.045578
-1.388687 -4.951859 0.042496
-1.401382 -4.963303 0.051590
-1.404007 -4.966202 0.055099
-1.386612 -4.961868 0.059402
-1.376419 -4.961166 0.057724
-1.490891 -4.934311 0.050919
-1.479630 -4.936295 0.023392
-1.494125 -4.933365 0.006393
-1.488876 -4.932571 0.003220
-1.495316 -4.931198 0.013504
-1.476334 -4.935837 0.003220
-1.488998 -4.933029 0.016159
-1.491135 -4.934525 0.019791
-1.490036 -4.932510 0.019913
-1.489365 -4.934219 0.029129
-1.476456 -4.936295 0.016159
-1.476730 -4.937180 0.029129
-1.467789 -4.936539 0.013962
-1.489853 -4.935837 0.055069
-1.486160 -4.936539 0.033279
-1.496292 -4.933212 0.040359
-1.489548 -4.934799 0.042099
-1.471664 -4.946152 0.121414
-1.477493 -4.939713 0.080978
-1.477646 -4.940292 0.068039
-1.469711 -4.941879 0.067612
-1.490555 -4.938187 0.081009
-1.441330 -4.954636 0.081039
-1.453201 -4.948990 0.068039
-1.465225 -4.943375 0.068008
-1.440872 -4.953079 0.068039
-1.442795 -4.946243 0.068222
-1.465988 -4.945969 0.081009
-1.453384 -4.949692 0.081009
-1.461349 -4.945267 0.082169
-1.453598 -4.950180 0.088150
-1.479019 -4.944931 0.119980
-1.490677 -4.938644 0.093979
-1.470627 -4.947342 0.094223
-1.478592 -4.943436 0.094009
-1.478317 -4.942520 0.106979
-1.492416 -4.937607 0.112869
-1.499191 -4.942429 0.120712
-1.491257 -4.940506 0.119980
-1.442337 -4.958145 0.120041
-1.441605 -4.955582 0.094040
-1.441971 -4.956863 0.107040
-1.453598 -4.950424 0.094009
-1.465561 -4.944504 0.093948
-1.466537 -4.947800 0.107010
-1.453995 -4.951706 0.107010
-1.443741 -4.949722 0.094986
-1.450241 -4.951492 0.101730
-1.454636 -4.953934 0.120041
-1.444687 -4.953476 0.121750
-1.462204 -4.947128 0.113144
-1.466904 -4.949081 0.120010
-1.448013 -4.952316 0.115311
-1.418289 -4.971298 0.122879
-1.421921 -4.969925 0.072556
-1.388901 -4.998550 0.090378
-1.388779 -4.998062 0.064926
-1.391556 -4.970474 0.068100
-1.379257 -4.974625 0.068100
-1.392075 -4.972305 0.081100
-1.379715 -4.976273 0.081100
-1.416641 -4.963211 0.081070
-1.428116 -4.957932 0.068069
-1.416153 -4.961472 0.068069
-1.409622 -4.953903 0.062698
-1.416580 -4.950272 0.068802
-1.432541 -4.955917 0.082291
-1.428482 -4.959213 0.081039
-1.386978 -4.960556 0.082748
-1.404221 -4.966934 0.068100
-1.402054 -4.957047 0.076553
-1.375534 -4.962875 0.068192
-1.389511 -4.958694 0.068985
-1.386917 -4.960922 0.071213
-1.380600 -4.951462 0.063522
-1.404434 -4.967697 0.081070
-1.402878 -4.966568 0.082474
-1.393173 -4.960739 0.090530
-1.385880 -4.962692 0.093033
-1.423019 -4.970322 0.098312
-1.389969 -4.998978 0.116013
-1.404922 -4.969528 0.094101
-1.392471 -4.973740 0.094101
-1.405258 -4.970627 0.107101
-1.392776 -4.974838 0.107101
-1.380264 -4.978256 0.094131
-1.380661 -4.979752 0.107132
-1.404312 -4.969589 0.113358
-1.393295 -4.976700 0.120163
-1.405533 -4.971695 0.120102
-1.375565 -4.979477 0.113510
-1.381088 -4.981308 0.120163
-1.417953 -4.967880 0.120102
-1.431046 -4.959427 0.101120
-1.428848 -4.960526 0.094040
-1.429214 -4.961838 0.107071
-1.417099 -4.964828 0.094070
-1.417465 -4.954910 0.095474
-1.417557 -4.966415 0.107101
-1.433853 -4.958786 0.113205
-1.429581 -4.963089 0.120071
-1.418381 -4.958725 0.122238
-1.384079 -4.966110 0.114120
-1.390457 -4.961472 0.095840
-1.385086 -4.964127 0.103683
-1.382736 -4.965103 0.104630
-1.391312 -4.965866 0.122574
-1.383286 -4.967575 0.124771
-1.490158 -4.936874 0.106918
-1.491989 -4.936661 0.081833
-1.497299 -4.934952 0.067276
-1.489944 -4.936142 0.068008
-1.481491 -4.935532 0.063675
-1.368515 -4.985764 0.120193
-1.372177 -4.972122 0.051834
-1.371140 -4.969864 0.020920
-1.364670 -4.971756 0.003220
-1.365189 -4.973679 0.016190
-1.365494 -4.974777 0.029160
-1.356979 -4.960983 0.020248
-1.369827 -4.954361 0.002884
-1.368912 -4.956161 0.013199
-1.357559 -4.959915 0.009598
-1.361008 -4.957108 0.015793
-1.365280 -4.958481 0.023239
-1.368362 -4.957138 0.023972
-1.356339 -4.962143 0.030899
-1.366470 -4.978317 0.055130
-1.365952 -4.976425 0.042130
-1.354691 -4.965317 0.051804
-1.367752 -4.958237 0.034653
-1.361923 -4.959915 0.042679
-1.366562 -4.960617 0.044724
-1.350266 -4.964767 0.037399
-1.355179 -4.964432 0.041000
-1.365799 -4.962021 0.055313
-1.351639 -4.964035 0.051010
-1.371567 -4.970688 0.109634
-1.367355 -4.981552 0.081131
-1.366745 -4.979324 0.068130
-1.373642 -4.975296 0.082687
-1.356003 -4.961411 0.087631
-1.364761 -4.964127 0.065567
-1.362839 -4.963058 0.069534
-1.363815 -4.965988 0.075912
-1.354050 -4.966415 0.062546
-1.353226 -4.968033 0.073013
-1.374680 -4.964493 0.078690
-1.373611 -4.966629 0.088974
-1.362961 -4.967636 0.086411
-1.370712 -4.970169 0.118851
-1.368149 -4.984482 0.107162
-1.367661 -4.982712 0.094131
-1.374588 -4.981949 0.097702
-1.372452 -4.968979 0.099106
-1.361954 -4.969559 0.096817
-1.361282 -4.970810 0.107498
-1.370956 -4.971725 0.120468
-1.360062 -4.973282 0.117630
-1.364609 -4.971634 0.123062
-1.353897 -4.965927 0.096725
-1.363754 -4.966721 0.096329
-1.469620 -4.958328 0.237350
-1.480667 -4.950943 0.172134
-1.479568 -4.947311 0.146011
-1.491501 -4.941360 0.132980
-1.478989 -4.945358 0.132980
-1.494064 -4.941086 0.143784
-1.491867 -4.942551 0.146011
-1.472672 -4.947006 0.148361
-1.440628 -4.961258 0.142227
-1.454849 -4.954697 0.133041
-1.438034 -4.956497 0.129288
-1.442795 -4.959671 0.133072
-1.466995 -4.949448 0.133011
-1.455093 -4.955521 0.146042
-1.459427 -4.961533 0.155441
-1.443283 -4.961349 0.146103
-1.445633 -4.956131 0.148575
-1.442154 -4.954453 0.156021
-1.464828 -4.952682 0.143875
-1.467453 -4.950912 0.146011
-1.473587 -4.952164 0.175034
-1.492142 -4.943527 0.159012
-1.479782 -4.948013 0.159042
-1.483932 -4.950668 0.167343
-1.493393 -4.947617 0.172134
-1.496078 -4.945389 0.174637
-1.493973 -4.949600 0.185226
-1.485062 -4.950058 0.180649
-1.481033 -4.952255 0.185196
-1.446518 -4.961594 0.175217
-1.443619 -4.962509 0.159164
-1.467850 -4.952286 0.159073
-1.453995 -4.951797 0.158920
-1.460953 -4.943436 0.158340
-1.444901 -4.953110 0.169327
-1.468704 -4.955246 0.172165
-1.466324 -4.955917 0.174759
-1.456009 -4.958664 0.172134
-1.468735 -4.955276 0.185165
-1.456619 -4.960739 0.185226
-1.444382 -4.965164 0.172256
-1.449966 -4.962997 0.183365
-1.444534 -4.965714 0.185287
-1.409164 -4.984512 0.172531
-1.418472 -4.969742 0.146164
-1.435715 -4.970047 0.152084
-1.406418 -4.974808 0.146194
-1.391006 -4.999374 0.141739
-1.393784 -4.978500 0.133194
-1.406143 -4.973801 0.133163
-1.381516 -4.982834 0.133224
-1.380875 -4.982712 0.138351
-1.382370 -4.969345 0.135300
-1.393936 -4.979019 0.146225
-1.405655 -4.972519 0.144211
-1.376968 -4.982498 0.144394
-1.381790 -4.983841 0.146255
-1.381454 -4.971024 0.145889
-1.419327 -4.961563 0.149094
-1.430008 -4.964615 0.133102
-1.418106 -4.968430 0.133102
-1.435410 -4.962082 0.144089
-1.430496 -4.966293 0.146164
-1.427322 -4.961014 0.143387
-1.392288 -4.968369 0.149490
-1.420639 -4.977341 0.172409
-1.419022 -4.971573 0.159195
-1.406570 -4.975296 0.159225
-1.431747 -4.970627 0.172318
-1.427170 -4.971420 0.175888
-1.431931 -4.971237 0.185349
-1.409653 -4.981125 0.174820
-1.419968 -4.975998 0.175034
-1.420914 -4.978256 0.185471
-1.409042 -4.984085 0.185562
-1.398026 -4.993668 0.172745
-1.391342 -4.999832 0.167282
-1.382431 -4.986191 0.159348
-1.394333 -4.980392 0.159256
-1.381149 -4.971481 0.157150
-1.377335 -4.979721 0.164322
-1.392532 -4.995285 0.174484
-1.398026 -4.993607 0.185776
-1.403580 -4.989059 0.180893
-1.437302 -4.966110 0.174942
-1.430710 -4.966965 0.159164
-1.494583 -4.951584 0.237381
-1.472946 -4.955063 0.208267
-1.469254 -4.957016 0.198227
-1.474564 -4.953751 0.201920
-1.494095 -4.949997 0.198257
-1.479630 -4.952286 0.194412
-1.481247 -4.952927 0.198227
-1.481400 -4.953506 0.211258
-1.469162 -4.956741 0.211227
-1.497452 -4.948257 0.205582
-1.494278 -4.950638 0.211288
-1.438126 -4.967911 0.205917
-1.456802 -4.961319 0.198257
-1.447525 -4.962723 0.202225
-1.444504 -4.965622 0.198288
-1.466415 -4.956070 0.205856
-1.456650 -4.960831 0.211258
-1.444839 -4.966751 0.211349
-1.497879 -4.949173 0.236618
-1.481735 -4.954605 0.224319
-1.470169 -4.956161 0.221909
-1.469498 -4.957932 0.224319
-1.494522 -4.951462 0.224350
-1.475632 -4.952103 0.229111
-1.445084 -4.967606 0.237442
-1.456711 -4.961075 0.224289
-1.452316 -4.962387 0.223770
-1.444809 -4.966721 0.224380
-1.448532 -4.963669 0.229202
-1.457108 -4.962448 0.237381
-1.466660 -4.957535 0.235641
-1.467026 -4.957474 0.236862
-1.464096 -4.958511 0.249283
-1.438370 -4.968460 0.236984
-1.411331 -4.984756 0.236801
-1.409714 -4.986496 0.211746
-1.409531 -4.985825 0.198654
-1.432266 -4.972397 0.198410
-1.430222 -4.971603 0.202164
-1.420578 -4.977097 0.198471
-1.421005 -4.975327 0.202194
-1.432297 -4.972580 0.211441
-1.410751 -4.983475 0.205765
-1.420975 -4.978439 0.211533
-1.398361 -4.994858 0.211929
-1.398331 -4.994675 0.198868
-1.393509 -4.997299 0.201492
-1.409897 -4.987137 0.237869
-1.407333 -4.988907 0.221359
-1.409714 -4.986557 0.224777
-1.432449 -4.973129 0.224503
-1.430679 -4.972092 0.227921
-1.422012 -4.976059 0.229233
-1.420822 -4.977921 0.224564
-1.432816 -4.974380 0.237595
-1.421402 -4.980057 0.237686
-1.398849 -4.996658 0.238144
-1.398605 -4.995773 0.225052
-1.394516 -4.997238 0.228653
-1.370560 -4.993332 0.159439
-1.356216 -4.980881 0.159409
-1.369339 -4.988785 0.146286
-1.369034 -4.987656 0.133255
-1.369675 -4.974319 0.130569
-1.363815 -4.972946 0.132889
-1.358994 -4.975449 0.127914
-1.358322 -4.976669 0.138718
-1.369034 -4.975449 0.141434
-1.368210 -4.977005 0.152084
-1.365555 -4.974869 0.149918
-1.358078 -4.975327 0.146866
-1.357376 -4.978531 0.149155
-1.366806 -4.979904 0.162033
-1.369156 -4.970383 0.159897
-1.448196 -4.978409 0.486801
-1.440567 -4.973282 0.361038
-1.445755 -4.970016 0.302780
-1.439041 -4.969986 0.267990
-1.482254 -4.956406 0.276535
-1.495193 -4.953629 0.263565
-1.481735 -4.954605 0.250381
-1.476578 -4.955063 0.255905
-1.469620 -4.958939 0.250412
-1.481857 -4.955032 0.263443
-1.469803 -4.959579 0.263474
-1.494980 -4.952896 0.250473
-1.495407 -4.954422 0.276627
-1.470108 -4.960556 0.276566
-1.499100 -4.951767 0.267593
-1.445389 -4.968704 0.276627
-1.457535 -4.963852 0.250473
-1.457291 -4.963058 0.263474
-1.457474 -4.962692 0.264542
-1.460739 -4.959854 0.263016
-1.449539 -4.964218 0.256210
-1.444901 -4.967026 0.250443
-1.445236 -4.968216 0.263535
-1.467850 -4.959244 0.267868
-1.457596 -4.961075 0.276749
-1.457687 -4.964401 0.276566
-1.440140 -4.972305 0.298935
-1.445572 -4.969376 0.289688
-1.470535 -4.962021 0.302750
-1.495743 -4.955460 0.289749
-1.477585 -4.955582 0.282913
-1.482468 -4.957047 0.289627
-1.470016 -4.960251 0.289597
-1.495773 -4.955612 0.302811
-1.482956 -4.958725 0.302780
-1.478622 -4.954788 0.309952
-1.451523 -4.966568 0.310165
-1.457809 -4.964890 0.289658
-1.450577 -4.963821 0.283279
-1.451584 -4.963577 0.290787
-1.457932 -4.965225 0.302719
-1.467819 -4.959213 0.298935
-1.461899 -4.962753 0.305252
-1.412766 -4.987930 0.298813
-1.411972 -4.986160 0.267807
-1.410019 -4.987595 0.250931
-1.411026 -4.988754 0.261856
-1.410294 -4.988602 0.264053
-1.423019 -4.977036 0.256271
-1.432571 -4.973495 0.250595
-1.431747 -4.972458 0.253860
-1.433029 -4.975082 0.263718
-1.421310 -4.979660 0.250717
-1.421555 -4.980576 0.263809
-1.410263 -4.988449 0.277115
-1.432907 -4.974716 0.276749
-1.434982 -4.972672 0.280319
-1.421646 -4.980881 0.276871
-1.399612 -4.999313 0.277512
-1.398972 -4.997025 0.251236
-1.395523 -4.997910 0.255722
-1.399094 -4.997482 0.264328
-1.410782 -4.990311 0.303360
-1.410690 -4.989975 0.290268
-1.423996 -4.979141 0.283188
-1.433151 -4.975571 0.289841
-1.421799 -4.981430 0.289963
-1.413193 -4.988083 0.302231
-1.422195 -4.982834 0.303116
-1.433273 -4.976028 0.302933
-1.425003 -4.978256 0.310349
-1.437271 -4.972946 0.306595
-1.397507 -4.999374 0.309891
-1.396530 -4.998917 0.282791
-1.399338 -4.998428 0.290543
-1.446487 -4.972580 0.368301
-1.446060 -4.971054 0.328964
-1.445908 -4.970505 0.315872
-1.440353 -4.972824 0.330002
-1.438156 -4.973373 0.332565
-1.446365 -4.972092 0.342117
-1.470688 -4.962509 0.328873
-1.496109 -4.956680 0.315933
-1.498093 -4.956955 0.327469
-1.470566 -4.962143 0.315811
-1.482468 -4.957138 0.315720
-1.496475 -4.957901 0.329086
-1.496628 -4.958420 0.342178
-1.494766 -4.958298 0.341263
-1.482956 -4.958755 0.328873
-1.470627 -4.962357 0.341934
-1.479599 -4.957962 0.336777
-1.483047 -4.959091 0.341965
-1.452499 -4.967117 0.337143
-1.458023 -4.965530 0.315781
-1.458115 -4.965897 0.328873
-1.468521 -4.960709 0.329941
-1.458328 -4.966629 0.341965
-1.446518 -4.972580 0.355209
-1.440689 -4.973618 0.358994
-1.469772 -4.963333 0.360916
-1.496964 -4.959610 0.355331
-1.492935 -4.958969 0.354843
-1.470993 -4.963638 0.355087
-1.483597 -4.960922 0.355179
-1.496933 -4.959488 0.368423
-1.489822 -4.960190 0.368637
-1.480576 -4.958969 0.363693
-1.483658 -4.961105 0.368271
-1.471298 -4.964584 0.368240
-1.453537 -4.967911 0.364120
-1.466965 -4.963058 0.346115
-1.458725 -4.968002 0.355148
-1.458755 -4.968063 0.368240
-1.413193 -4.988907 0.360916
-1.410965 -4.990982 0.329575
-1.410904 -4.990707 0.316452
-1.422287 -4.983139 0.316208
-1.433212 -4.975754 0.315964
-1.412430 -4.987289 0.329910
-1.411392 -4.992477 0.342758
-1.417130 -4.987991 0.342880
-1.422104 -4.982559 0.329239
-1.433426 -4.976517 0.329086
-1.433548 -4.976944 0.342178
-1.426010 -4.979843 0.337265
-1.422318 -4.983261 0.342361
-1.410995 -4.991135 0.368851
-1.411148 -4.991623 0.355789
-1.433517 -4.976852 0.355240
-1.422348 -4.983383 0.355453
-1.427017 -4.980331 0.364304
-1.433823 -4.977921 0.368393
-1.422623 -4.984329 0.368637
-1.443588 -4.979843 0.485031
-1.441757 -4.975876 0.423080
-1.446793 -4.973587 0.394547
-1.446884 -4.973862 0.381485
-1.441422 -4.974075 0.385056
-1.459061 -4.969101 0.394485
-1.454544 -4.968857 0.391098
-1.441025 -4.974319 0.392075
-1.484238 -4.963089 0.394577
-1.497513 -4.961349 0.381638
-1.487137 -4.961227 0.382370
-1.483688 -4.961166 0.381332
-1.471512 -4.965317 0.381393
-1.481552 -4.961777 0.390518
-1.473282 -4.963760 0.387161
-1.497482 -4.961288 0.394730
-1.484940 -4.962082 0.396103
-1.471390 -4.964951 0.394455
-1.470139 -4.964188 0.391953
-1.458878 -4.968521 0.381332
-1.447464 -4.975967 0.434067
-1.459152 -4.969467 0.407608
-1.459183 -4.969620 0.420700
-1.447098 -4.974655 0.407730
-1.443924 -4.974350 0.411514
-1.447342 -4.975449 0.420914
-1.459518 -4.970688 0.433914
-1.477890 -4.964890 0.423843
-1.498032 -4.963181 0.408005
-1.498215 -4.963699 0.421158
-1.484451 -4.963791 0.420853
-1.484268 -4.963181 0.407700
-1.480545 -4.963852 0.410049
-1.471512 -4.965317 0.407578
-1.482590 -4.960953 0.417587
-1.472000 -4.966995 0.420792
-1.498245 -4.963821 0.434280
-1.484665 -4.964493 0.434006
-1.478989 -4.964249 0.428207
-1.470413 -4.964890 0.422989
-1.471878 -4.966629 0.433884
-1.455551 -4.968521 0.418137
-1.413773 -4.990250 0.423019
-1.411667 -4.993515 0.395279
-1.422806 -4.984970 0.381760
-1.411270 -4.992050 0.382034
-1.419571 -4.987411 0.383347
-1.434128 -4.979019 0.381577
-1.422958 -4.985550 0.394913
-1.413864 -4.990402 0.391922
-1.434402 -4.979904 0.394730
-1.428024 -4.980789 0.391342
-1.411667 -4.993484 0.434647
-1.423172 -4.986313 0.408096
-1.423111 -4.986069 0.421188
-1.411484 -4.992844 0.408340
-1.411667 -4.993546 0.421524
-1.434494 -4.980270 0.407883
-1.434494 -4.980331 0.420975
-1.429031 -4.980515 0.418411
-1.422379 -4.986893 0.423874
-1.423355 -4.986954 0.434372
-1.434677 -4.980911 0.434158
-1.460251 -4.973251 0.486649
-1.447372 -4.975632 0.460281
-1.456558 -4.969101 0.445084
-1.459396 -4.970322 0.447006
-1.445602 -4.974655 0.437820
-1.447098 -4.974716 0.447067
-1.459549 -4.970840 0.460159
-1.441940 -4.976303 0.454117
-1.447495 -4.974991 0.464249
-1.470657 -4.965378 0.454056
-1.498581 -4.964951 0.447525
-1.484879 -4.965256 0.447189
-1.483597 -4.962051 0.444473
-1.474380 -4.966293 0.437790
-1.472092 -4.967392 0.447067
-1.472397 -4.967026 0.451553
-1.498581 -4.965012 0.460648
-1.484818 -4.965012 0.460312
-1.471970 -4.966965 0.460159
-1.474289 -4.966049 0.464890
-1.455154 -4.974747 0.492142
-1.457565 -4.969223 0.472092
-1.459732 -4.971542 0.473343
-1.463089 -4.970840 0.479843
-1.447922 -4.977554 0.473587
-1.460464 -4.971848 0.493759
-1.460526 -4.974167 0.499893
-1.458511 -4.973495 0.498886
-1.472031 -4.968277 0.485031
-1.498886 -4.965988 0.473892
-1.486771 -4.965469 0.469559
-1.484543 -4.963852 0.471359
-1.485062 -4.965897 0.473526
-1.472397 -4.968430 0.473404
-1.499435 -4.967789 0.487228
-1.485519 -4.967422 0.486801
-1.485519 -4.966904 0.498215
-1.412369 -4.996017 0.487473
-1.413742 -4.990128 0.454086
-1.423294 -4.986771 0.447495
-1.411667 -4.993484 0.447769
-1.434677 -4.980911 0.447281
-1.430008 -4.981705 0.445358
-1.423386 -4.987106 0.460648
-1.423416 -4.985825 0.464218
-1.412003 -4.994766 0.461044
-1.435074 -4.982315 0.460526
-1.402603 -4.999863 0.445389
-1.414566 -4.991959 0.485092
-1.423752 -4.988358 0.473923
-1.412277 -4.995651 0.474258
-1.431015 -4.983170 0.472336
-1.435379 -4.983383 0.473770
-1.423935 -4.989029 0.487137
-1.435623 -4.984238 0.487015
-1.432022 -4.983414 0.499344
-1.536331 -4.999863 0.973923
-1.576767 -4.990646 0.737137
-1.604874 -4.997086 0.612839
-1.596603 -4.986710 0.547226
-1.603409 -4.991959 0.518875
-1.622696 -4.999374 0.504990
-1.618393 -4.997055 0.506485
-1.609482 -4.990677 0.505905
-1.602676 -4.989670 0.505356
-1.621964 -4.999588 0.518387
-1.622055 -4.998398 0.518661
-1.619278 -4.999802 0.520096
-1.605972 -4.992172 0.519699
-1.595566 -4.986282 0.520218
-1.587753 -4.985672 0.517807
-1.587570 -4.985092 0.504471
-1.589767 -4.985062 0.507736
-1.583725 -4.981705 0.514664
-1.571457 -4.978317 0.503403
-1.571793 -4.979080 0.509323
-1.587234 -4.986069 0.521408
-1.587967 -4.986313 0.531174
-1.572403 -4.981277 0.516953
-1.570358 -4.979599 0.522873
-1.568741 -4.976242 0.521683
-1.572311 -4.980972 0.530167
-1.603867 -4.993912 0.559036
-1.621384 -4.999710 0.531754
-1.619003 -4.998917 0.533340
-1.604904 -4.992477 0.533157
-1.603256 -4.992050 0.532211
-1.603867 -4.993912 0.545731
-1.603592 -4.992935 0.546677
-1.602707 -4.993210 0.560135
-1.587875 -4.985489 0.547989
-1.586990 -4.986038 0.534775
-1.588394 -4.987686 0.544601
-1.584976 -4.984360 0.545792
-1.569107 -4.980026 0.536423
-1.572311 -4.981003 0.543442
-1.588333 -4.987503 0.557907
-1.585068 -4.986649 0.561783
-1.569748 -4.978683 0.548599
-1.567917 -4.980423 0.549973
-1.572647 -4.982071 0.556839
-1.543259 -4.973099 0.549820
-1.542252 -4.971054 0.522934
-1.556625 -4.975876 0.502731
-1.551926 -4.974136 0.511185
-1.542099 -4.972183 0.501968
-1.542404 -4.973251 0.515305
-1.543655 -4.971359 0.515305
-1.556870 -4.976669 0.516037
-1.556808 -4.976547 0.529282
-1.550034 -4.974838 0.524826
-1.542618 -4.973892 0.528580
-1.514053 -4.969254 0.524063
-1.527786 -4.970352 0.500107
-1.527298 -4.970291 0.501389
-1.527786 -4.970230 0.513565
-1.527481 -4.970871 0.514633
-1.513077 -4.968979 0.500870
-1.513138 -4.969193 0.514053
-1.500168 -4.970230 0.513779
-1.527634 -4.971329 0.527878
-1.525223 -4.971207 0.527390
-1.513412 -4.970139 0.527359
-1.506638 -4.967880 0.515762
-1.542587 -4.973770 0.555038
-1.548355 -4.975449 0.538498
-1.557236 -4.977921 0.542679
-1.542831 -4.974594 0.541885
-1.544998 -4.974106 0.546371
-1.547592 -4.975632 0.552017
-1.557144 -4.977554 0.555893
-1.515091 -4.969376 0.551041
-1.527969 -4.972427 0.541214
-1.525620 -4.970901 0.540817
-1.513748 -4.971237 0.540665
-1.500107 -4.970078 0.540146
-1.527786 -4.971878 0.554367
-1.524796 -4.971146 0.554398
-1.513840 -4.971542 0.553909
-1.507736 -4.969711 0.553238
-1.500565 -4.971634 0.553513
-1.507034 -4.968735 0.546829
-1.599289 -4.994217 0.614090
-1.604111 -4.994675 0.585800
-1.602188 -4.993332 0.573532
-1.604050 -4.994553 0.572464
-1.597580 -4.989243 0.574142
-1.602707 -4.992966 0.586838
-1.588150 -4.986954 0.584457
-1.588638 -4.988510 0.571304
-1.585281 -4.986404 0.575150
-1.584854 -4.984146 0.577042
-1.572647 -4.982040 0.570114
-1.568375 -4.980087 0.563309
-1.570755 -4.980331 0.575485
-1.569138 -4.979630 0.576614
-1.586075 -4.985916 0.588394
-1.572678 -4.982162 0.583420
-1.564682 -4.981491 0.590714
-1.603653 -4.993240 0.598984
-1.602066 -4.993118 0.600266
-1.598618 -4.987656 0.601212
-1.573380 -4.984421 0.610306
-1.588913 -4.989334 0.598068
-1.586838 -4.988266 0.608170
-1.583084 -4.987137 0.602219
-1.573471 -4.984726 0.597031
-1.571762 -4.982040 0.602432
-1.563614 -4.981827 0.604324
-1.588913 -4.989395 0.611404
-1.582321 -4.987350 0.615799
-1.573807 -4.985794 0.623795
-1.539719 -4.978470 0.620590
-1.545090 -4.976486 0.579300
-1.556961 -4.977066 0.569077
-1.548691 -4.975021 0.565323
-1.542465 -4.973465 0.568253
-1.545181 -4.974533 0.577530
-1.544296 -4.972824 0.576828
-1.557632 -4.979172 0.582596
-1.543350 -4.976242 0.581802
-1.542862 -4.977371 0.593124
-1.514755 -4.974503 0.580673
-1.528305 -4.973557 0.567795
-1.521286 -4.972549 0.568405
-1.516037 -4.971634 0.577896
-1.514206 -4.972763 0.567245
-1.501053 -4.973221 0.566879
-1.508194 -4.971207 0.577866
-1.528702 -4.974838 0.581192
-1.519058 -4.973404 0.582230
-1.501266 -4.973953 0.580185
-1.501877 -4.975967 0.593643
-1.544418 -4.980331 0.622116
-1.558090 -4.980606 0.596054
-1.546890 -4.978134 0.608597
-1.543900 -4.978073 0.595291
-1.545212 -4.977524 0.603592
-1.544144 -4.978806 0.608658
-1.541122 -4.977982 0.606888
-1.558243 -4.981155 0.609421
-1.562302 -4.982285 0.617996
-1.558456 -4.981857 0.622787
-1.513992 -4.975571 0.610092
-1.528885 -4.975418 0.594498
-1.524307 -4.973923 0.596024
-1.516891 -4.974228 0.596085
-1.529465 -4.977402 0.607986
-1.517014 -4.974808 0.604752
-1.514572 -4.973953 0.593857
-1.515091 -4.975662 0.607315
-1.509445 -4.973801 0.608932
-1.501755 -4.975571 0.606857
-1.529465 -4.977341 0.621262
-1.515640 -4.977402 0.620773
-1.511154 -4.976669 0.624100
-1.502029 -4.976456 0.620193
-1.571640 -4.990921 0.738907
-1.601608 -4.998581 0.681870
-1.597031 -4.994980 0.641251
-1.605301 -4.998459 0.626358
-1.599594 -4.993057 0.628036
-1.598007 -4.994644 0.627701
-1.605637 -4.999496 0.639877
-1.600601 -4.995132 0.654984
-1.595261 -4.995651 0.654984
-1.574417 -4.987747 0.650711
-1.589615 -4.991592 0.625015
-1.580765 -4.987930 0.629440
-1.589706 -4.991867 0.638412
-1.587936 -4.990646 0.639359
-1.573929 -4.986160 0.637161
-1.572769 -4.983749 0.629349
-1.579239 -4.988449 0.643143
-1.590286 -4.993637 0.652023
-1.595413 -4.995438 0.668381
-1.574570 -4.988266 0.677505
-1.578201 -4.988785 0.656754
-1.590256 -4.993576 0.665390
-1.588882 -4.992630 0.670547
-1.573776 -4.984512 0.656326
-1.574509 -4.987961 0.664108
-1.576920 -4.989212 0.670456
-1.590714 -4.995010 0.678970
-1.593185 -4.996323 0.682205
-1.574783 -4.986588 0.683243
-1.575943 -4.989548 0.684067
-1.555740 -4.984695 0.672989
-1.536484 -4.979630 0.648148
-1.560013 -4.983170 0.631790
-1.558975 -4.983475 0.636307
-1.547226 -4.978867 0.639755
-1.546249 -4.978348 0.630539
-1.544479 -4.980515 0.635452
-1.544876 -4.979446 0.639572
-1.538376 -4.978958 0.634323
-1.559677 -4.983200 0.645370
-1.559097 -4.983841 0.649673
-1.545029 -4.982285 0.648972
-1.502792 -4.979019 0.647049
-1.518021 -4.975845 0.631668
-1.529739 -4.978317 0.634659
-1.515579 -4.977219 0.634018
-1.508774 -4.977585 0.638046
-1.502365 -4.977615 0.633591
-1.510635 -4.976364 0.639999
-1.529831 -4.978561 0.647964
-1.515945 -4.978439 0.647446
-1.507004 -4.978256 0.651932
-1.559677 -4.985764 0.676620
-1.559494 -4.985184 0.663193
-1.557297 -4.984116 0.659256
-1.547256 -4.980209 0.657455
-1.548447 -4.981522 0.670883
-1.544937 -4.981949 0.662247
-1.534927 -4.980209 0.661942
-1.554581 -4.985092 0.686722
-1.554214 -4.981155 0.681564
-1.548233 -4.982590 0.684372
-1.545273 -4.983109 0.675735
-1.533463 -4.980698 0.675766
-1.503311 -4.980789 0.673843
-1.530289 -4.980026 0.661453
-1.519028 -4.976791 0.658646
-1.516373 -4.979904 0.660934
-1.503189 -4.980301 0.660507
-1.511246 -4.977737 0.671097
-1.504623 -4.979172 0.665939
-1.530594 -4.981094 0.674911
-1.516586 -4.980576 0.674332
-1.520035 -4.979050 0.685532
-1.500961 -4.980667 0.680191
-1.503525 -4.981522 0.687241
-1.575974 -4.992691 0.745102
-1.594040 -4.995773 0.695480
-1.574997 -4.989578 0.704422
-1.590652 -4.994858 0.692337
-1.589737 -4.994400 0.701767
-1.575119 -4.989914 0.691086
-1.575790 -4.989456 0.697586
-1.591110 -4.996323 0.705948
-1.591934 -4.996597 0.709335
-1.575790 -4.988022 0.710190
-1.573257 -4.990433 0.711533
-1.575302 -4.990524 0.717972
-1.589127 -4.997635 0.736832
-1.591537 -4.997635 0.719559
-1.590897 -4.996964 0.723038
-1.591049 -4.997177 0.732986
-1.591751 -4.998337 0.733109
-1.572861 -4.990524 0.725143
-1.575729 -4.991898 0.731583
-1.565018 -4.983414 0.723831
-1.592087 -4.999405 0.746719
-1.546677 -4.987656 0.743179
-1.546097 -4.985764 0.716141
-1.559952 -4.986588 0.690079
-1.554184 -4.985092 0.700333
-1.549606 -4.983963 0.702011
-1.545609 -4.984207 0.689224
-1.545670 -4.984329 0.702591
-1.559952 -4.986618 0.703445
-1.560287 -4.987747 0.716995
-1.552170 -4.985855 0.714218
-1.531631 -4.984421 0.715378
-1.549240 -4.983994 0.711288
-1.504227 -4.983841 0.714218
-1.531174 -4.982956 0.688492
-1.530411 -4.981949 0.689835
-1.516495 -4.980270 0.687576
-1.531174 -4.982986 0.701828
-1.517349 -4.983139 0.701309
-1.512527 -4.980392 0.702194
-1.504044 -4.983170 0.700790
-1.528763 -4.982529 0.703720
-1.528336 -4.982590 0.717422
-1.521011 -4.980576 0.712448
-1.517563 -4.983810 0.714737
-1.531967 -4.985550 0.742264
-1.560776 -4.989334 0.730606
-1.549881 -4.986740 0.728195
-1.550339 -4.985489 0.733170
-1.546371 -4.986679 0.729660
-1.531479 -4.983994 0.728683
-1.550247 -4.984726 0.738266
-1.549423 -4.986832 0.741867
-1.560654 -4.988876 0.743942
-1.504715 -4.985458 0.741135
-1.525650 -4.983658 0.731491
-1.517654 -4.984177 0.728134
-1.513443 -4.982346 0.733292
-1.504379 -4.984299 0.727615
-1.517807 -4.984573 0.741562
-1.522476 -4.984940 0.745712
-1.521988 -4.982925 0.739365
-1.508804 -4.999069 0.985886
-1.563248 -4.997269 0.866440
-1.577225 -4.996689 0.799515
-1.576706 -4.994980 0.772324
-1.589584 -4.997269 0.750259
-1.591782 -4.998459 0.760025
-1.591415 -4.997971 0.764236
-1.588455 -4.997665 0.763992
-1.570572 -4.991257 0.752640
-1.576309 -4.993820 0.758713
-1.577805 -4.992538 0.764053
-1.585709 -4.998764 0.778061
-1.569321 -4.991684 0.766434
-1.567398 -4.992416 0.780380
-1.564316 -4.993546 0.808182
-1.584274 -4.999283 0.791885
-1.578781 -4.994522 0.791000
-1.576859 -4.995499 0.785873
-1.566055 -4.992874 0.794235
-1.583054 -4.999710 0.805710
-1.541794 -4.989670 0.797806
-1.545578 -4.988266 0.769791
-1.560684 -4.988968 0.757370
-1.546951 -4.988480 0.756699
-1.547440 -4.987564 0.755814
-1.551224 -4.986221 0.765213
-1.551254 -4.987473 0.764328
-1.532211 -4.986404 0.755783
-1.561478 -4.991592 0.771164
-1.547287 -4.989578 0.770279
-1.532516 -4.987411 0.769333
-1.505447 -4.987900 0.768234
-1.518265 -4.986099 0.755142
-1.520615 -4.985641 0.759720
-1.505020 -4.986404 0.754623
-1.514359 -4.984329 0.764389
-1.518417 -4.986618 0.768600
-1.519760 -4.985855 0.773544
-1.522995 -4.984299 0.766312
-1.540573 -4.990097 0.811691
-1.561386 -4.991226 0.784561
-1.547165 -4.989243 0.783646
-1.552231 -4.988815 0.792130
-1.551987 -4.989029 0.795517
-1.543777 -4.988937 0.783768
-1.532669 -4.987900 0.782822
-1.532913 -4.988663 0.796341
-1.561752 -4.992447 0.798203
-1.547653 -4.990829 0.797318
-1.562149 -4.993729 0.811874
-1.547867 -4.991440 0.810867
-1.533524 -4.990707 0.810104
-1.513657 -4.988327 0.802139
-1.518814 -4.987991 0.782211
-1.515945 -4.987411 0.787979
-1.524002 -4.986343 0.793228
-1.519058 -4.988724 0.795731
-1.515732 -4.987228 0.795517
-1.505417 -4.987839 0.781601
-1.505508 -4.988113 0.795059
-1.519455 -4.990128 0.809372
-1.505844 -4.989212 0.808640
-1.562698 -4.995468 0.852615
-1.577499 -4.997604 0.813156
-1.582108 -4.999985 0.819473
-1.579788 -4.996384 0.817978
-1.577988 -4.999100 0.826889
-1.562698 -4.994156 0.822128
-1.534225 -4.992935 0.864334
-1.537003 -4.991440 0.839767
-1.553238 -4.990280 0.819077
-1.562363 -4.994400 0.825455
-1.548325 -4.992996 0.824570
-1.553116 -4.991379 0.826675
-1.533340 -4.990067 0.823441
-1.538406 -4.990952 0.825790
-1.561417 -4.994553 0.836044
-1.562241 -4.994003 0.838852
-1.548325 -4.992966 0.838028
-1.533707 -4.991257 0.837082
-1.509659 -4.989822 0.830368
-1.524948 -4.989182 0.820175
-1.519547 -4.990433 0.822861
-1.516891 -4.989700 0.826675
-1.511459 -4.989151 0.816299
-1.505844 -4.989243 0.822037
-1.519516 -4.990311 0.836288
-1.506332 -4.990829 0.835739
-1.533798 -4.992569 0.867905
-1.560593 -4.994797 0.849838
-1.554245 -4.992447 0.846054
-1.548508 -4.993576 0.851639
-1.553604 -4.992447 0.857864
-1.534256 -4.993027 0.850845
-1.535080 -4.992172 0.853897
-1.558884 -4.995468 0.863907
-1.548691 -4.994156 0.865219
-1.555252 -4.993057 0.873001
-1.507004 -4.993088 0.863022
-1.525986 -4.989639 0.847153
-1.519791 -4.991226 0.849899
-1.517746 -4.991562 0.857773
-1.508530 -4.990189 0.844376
-1.506180 -4.990311 0.849106
-1.504929 -4.991653 0.858902
-1.520004 -4.991898 0.863480
-1.526962 -4.991440 0.874100
-1.503647 -4.992081 0.872971
-1.508835 -4.999222 0.999527
-1.564041 -4.999832 0.907516
-1.563919 -4.999435 0.893875
-1.563492 -4.998093 0.880112
-1.534714 -4.994583 0.932205
-1.534653 -4.994370 0.891586
-1.557175 -4.996078 0.877945
-1.548965 -4.995071 0.878891
-1.554733 -4.994858 0.889084
-1.534439 -4.993668 0.877945
-1.531540 -4.993484 0.882126
-1.557785 -4.995651 0.891495
-1.548752 -4.994370 0.892288
-1.556259 -4.993881 0.899979
-1.554123 -4.997177 0.906052
-1.549362 -4.996353 0.906174
-1.534927 -4.995224 0.905258
-1.500290 -4.992813 0.902084
-1.520432 -4.993301 0.877182
-1.517990 -4.992081 0.888931
-1.506821 -4.992508 0.876389
-1.507187 -4.993668 0.890091
-1.501724 -4.992813 0.887161
-1.530075 -4.994003 0.896194
-1.520584 -4.993820 0.890793
-1.520737 -4.994308 0.904373
-1.527969 -4.991898 0.901077
-1.507248 -4.993881 0.903641
-1.557236 -4.996475 0.926926
-1.555740 -4.996933 0.920303
-1.553329 -4.997391 0.919937
-1.549728 -4.997543 0.919937
-1.534714 -4.994553 0.918655
-1.549576 -4.997116 0.933426
-1.553238 -4.997299 0.933731
-1.501358 -4.992111 0.929092
-1.529709 -4.994003 0.910049
-1.520676 -4.994095 0.917862
-1.518723 -4.993637 0.920090
-1.507217 -4.993851 0.917130
-1.528488 -4.994400 0.924118
-1.528976 -4.992783 0.928024
-1.520859 -4.994705 0.931503
-1.507614 -4.995132 0.930893
-1.516251 -4.999191 0.996201
-1.535904 -4.998520 0.960098
-1.556686 -4.998947 0.951492
-1.550308 -4.999466 0.947433
-1.548843 -4.999130 0.948502
-1.535507 -4.997116 0.946243
-1.558243 -4.998276 0.953903
-1.547104 -4.999771 0.962662
-1.507980 -4.996323 0.958206
-1.524307 -4.996170 0.938858
-1.521469 -4.996780 0.945450
-1.519577 -4.995468 0.951279
-1.507858 -4.995987 0.944595
-1.529953 -4.995956 0.955002
-1.521805 -4.997116 0.953262
-1.521988 -4.998428 0.959335
-1.520248 -4.997696 0.967484
-1.502304 -4.994217 0.956039
-1.502243 -4.995987 0.961868
-1.508530 -4.998154 0.972122
-1.521957 -4.998367 0.972885
-1.530960 -4.997299 0.981979
-1.520828 -4.998123 0.982468
-1.519089 -4.998062 0.981644
-1.503311 -4.995255 0.983017
-1.481644 -4.999802 0.998123
-1.477676 -4.986343 0.740158
-1.476425 -4.977798 0.614944
-1.474167 -4.972855 0.547043
-1.473221 -4.970810 0.516037
-1.486282 -4.969955 0.500198
-1.486191 -4.969681 0.513351
-1.473343 -4.971603 0.500015
-1.473434 -4.971909 0.513199
-1.497696 -4.969223 0.516800
-1.499985 -4.969650 0.526901
-1.495621 -4.969986 0.530594
-1.486649 -4.971176 0.526657
-1.473557 -4.972275 0.526382
-1.444656 -4.982132 0.516037
-1.459518 -4.972122 0.507523
-1.460770 -4.975021 0.513138
-1.448532 -4.979599 0.500076
-1.448746 -4.980392 0.513321
-1.459305 -4.974808 0.519211
-1.454239 -4.974289 0.521835
-1.460953 -4.975693 0.526382
-1.459488 -4.974564 0.525833
-1.449173 -4.981796 0.526627
-1.486526 -4.967911 0.525131
-1.499527 -4.968124 0.500412
-1.499863 -4.968369 0.502975
-1.498459 -4.968002 0.511520
-1.474136 -4.974258 0.552963
-1.495041 -4.970108 0.544235
-1.486404 -4.970383 0.539749
-1.473740 -4.972916 0.539627
-1.487534 -4.969315 0.552048
-1.487015 -4.972397 0.553177
-1.490463 -4.971970 0.558426
-1.445328 -4.983597 0.547073
-1.461166 -4.976425 0.539627
-1.459244 -4.975357 0.545303
-1.449081 -4.981583 0.539780
-1.461227 -4.976608 0.552811
-1.460495 -4.975296 0.552780
-1.449570 -4.983231 0.553146
-1.415604 -4.994278 0.547134
-1.415970 -4.995041 0.516068
-1.435898 -4.985245 0.500259
-1.423782 -4.988510 0.500229
-1.429123 -4.986343 0.505234
-1.436142 -4.986008 0.513504
-1.424301 -4.990341 0.513596
-1.412582 -4.996841 0.500717
-1.412766 -4.997421 0.513962
-1.436142 -4.986008 0.526657
-1.432968 -4.985123 0.526291
-1.424515 -4.991104 0.526840
-1.412643 -4.997025 0.527084
-1.405655 -4.999741 0.526627
-1.413101 -4.998642 0.553665
-1.436569 -4.987595 0.540024
-1.435104 -4.986954 0.546341
-1.424698 -4.991714 0.540085
-1.413101 -4.998611 0.540451
-1.424973 -4.992691 0.553391
-1.433975 -4.985947 0.553268
-1.436539 -4.987411 0.553177
-1.406693 -4.999649 0.553665
-1.475296 -4.978256 0.619492
-1.474655 -4.976028 0.579575
-1.487473 -4.973923 0.566544
-1.485886 -4.973862 0.572678
-1.474258 -4.974716 0.566208
-1.474716 -4.974075 0.578110
-1.488449 -4.972702 0.578873
-1.487595 -4.974350 0.579788
-1.487869 -4.975296 0.593124
-1.474930 -4.976974 0.592880
-1.483505 -4.974777 0.586624
-1.440598 -4.987411 0.587448
-1.461868 -4.978806 0.566269
-1.461044 -4.975693 0.571884
-1.449722 -4.983780 0.566391
-1.461441 -4.978348 0.579636
-1.461929 -4.979050 0.579483
-1.461899 -4.978958 0.592667
-1.449814 -4.984024 0.579636
-1.445480 -4.984024 0.578140
-1.449844 -4.984116 0.592850
-1.488297 -4.976761 0.619766
-1.489456 -4.973984 0.605820
-1.487991 -4.975662 0.606400
-1.480576 -4.975937 0.600662
-1.475235 -4.978012 0.606216
-1.475571 -4.975876 0.609146
-1.450211 -4.985397 0.619461
-1.450058 -4.984879 0.606186
-1.445938 -4.985031 0.609177
-1.464645 -4.975876 0.598953
-1.462234 -4.980087 0.606033
-1.462418 -4.979630 0.606583
-1.437546 -4.990952 0.619675
-1.462326 -4.980423 0.619308
-1.425522 -4.995224 0.619766
-1.416550 -4.996323 0.578171
-1.425095 -4.993057 0.566635
-1.436600 -4.987686 0.566422
-1.425156 -4.993912 0.579941
-1.436905 -4.988693 0.579727
-1.434952 -4.988266 0.580185
-1.425461 -4.994980 0.593277
-1.437302 -4.990158 0.593124
-1.413284 -4.999954 0.580215
-1.416763 -4.996872 0.609207
-1.425674 -4.995743 0.606613
-1.437180 -4.989731 0.606308
-1.435959 -4.988571 0.607193
-1.489120 -4.985367 0.736984
-1.476395 -4.981918 0.672989
-1.476028 -4.980728 0.646286
-1.490463 -4.975693 0.632736
-1.488846 -4.978592 0.633255
-1.473862 -4.978806 0.629013
-1.475540 -4.979019 0.632828
-1.476547 -4.977951 0.640182
-1.488937 -4.978867 0.646530
-1.450333 -4.985886 0.646011
-1.445755 -4.987717 0.628555
-1.450668 -4.987045 0.632919
-1.446976 -4.987289 0.640213
-1.437851 -4.992111 0.633072
-1.462631 -4.981400 0.632645
-1.466965 -4.976151 0.625778
-1.463455 -4.979050 0.633591
-1.437668 -4.991409 0.646225
-1.468735 -4.980942 0.643509
-1.462875 -4.982224 0.646011
-1.463913 -4.976944 0.651230
-1.476913 -4.983719 0.686508
-1.491409 -4.978409 0.659592
-1.489151 -4.979660 0.659897
-1.476242 -4.981430 0.659653
-1.477676 -4.980453 0.671219
-1.489395 -4.980423 0.673294
-1.492416 -4.979141 0.686569
-1.490067 -4.982681 0.686874
-1.438095 -4.992905 0.672958
-1.437912 -4.992325 0.659622
-1.450760 -4.987350 0.659470
-1.437943 -4.991043 0.661118
-1.452072 -4.988449 0.669876
-1.447311 -4.987930 0.671280
-1.464951 -4.982437 0.657791
-1.463028 -4.982864 0.659348
-1.464432 -4.980911 0.660507
-1.463516 -4.984451 0.686111
-1.457535 -4.985458 0.686478
-1.450943 -4.988022 0.672836
-1.438309 -4.993637 0.686356
-1.450974 -4.988113 0.686111
-1.463242 -4.983536 0.672714
-1.461960 -4.983627 0.672012
-1.465408 -4.982498 0.687454
-1.426590 -4.998978 0.673325
-1.426285 -4.997879 0.646622
-1.426102 -4.997238 0.633286
-1.436966 -4.989578 0.634201
-1.417770 -4.999039 0.640213
-1.426590 -4.999069 0.686600
-1.426315 -4.998032 0.659897
-1.491043 -4.985977 0.740646
-1.476974 -4.983963 0.713150
-1.497818 -4.981918 0.694382
-1.490158 -4.983017 0.700241
-1.477097 -4.984329 0.699905
-1.478409 -4.982010 0.702286
-1.494888 -4.983047 0.708572
-1.493393 -4.981522 0.713455
-1.490311 -4.983505 0.713608
-1.438461 -4.994156 0.713028
-1.463974 -4.986008 0.699631
-1.438950 -4.990707 0.688156
-1.438461 -4.994156 0.699722
-1.451614 -4.990341 0.699722
-1.448288 -4.989395 0.701828
-1.448013 -4.989517 0.702316
-1.464310 -4.987167 0.713089
-1.458328 -4.989151 0.711227
-1.439926 -4.992752 0.715103
-1.451553 -4.990158 0.712997
-1.451797 -4.987717 0.715012
-1.466415 -4.983322 0.714401
-1.494370 -4.983688 0.740372
-1.477371 -4.985245 0.726669
-1.492386 -4.984024 0.722702
-1.490524 -4.984238 0.727036
-1.479111 -4.983536 0.733383
-1.438889 -4.995712 0.739883
-1.464310 -4.987137 0.726395
-1.451950 -4.991470 0.726486
-1.439102 -4.996414 0.726669
-1.448959 -4.988815 0.729294
-1.448898 -4.991409 0.733383
-1.467361 -4.985947 0.741287
-1.464615 -4.988235 0.739883
-1.440933 -4.993790 0.742081
-1.451859 -4.991196 0.739792
-1.452011 -4.987320 0.742569
-1.426834 -4.999863 0.700027
-1.494797 -4.998703 0.985062
-1.480209 -4.994919 0.862045
-1.479080 -4.991043 0.807724
-1.478378 -4.988693 0.767197
-1.485214 -4.986954 0.751419
-1.491287 -4.986832 0.754135
-1.478043 -4.987564 0.753677
-1.480453 -4.986404 0.764420
-1.495377 -4.985062 0.767319
-1.491562 -4.987747 0.767624
-1.491806 -4.988541 0.781113
-1.482193 -4.988174 0.765732
-1.478989 -4.989456 0.780075
-1.478836 -4.990219 0.780807
-1.439377 -4.997391 0.766830
-1.464951 -4.989365 0.753403
-1.462753 -4.989212 0.752365
-1.452194 -4.992355 0.753281
-1.439560 -4.998093 0.753586
-1.449844 -4.993484 0.764450
-1.465195 -4.990189 0.766861
-1.468399 -4.987045 0.768265
-1.465439 -4.991074 0.780350
-1.441910 -4.995285 0.769058
-1.452103 -4.992050 0.766586
-1.452530 -4.993515 0.780167
-1.439651 -4.998367 0.780319
-1.472733 -4.991928 0.808884
-1.496323 -4.987473 0.794235
-1.492111 -4.989578 0.794662
-1.481857 -4.989426 0.795517
-1.479141 -4.991287 0.794357
-1.476486 -4.990402 0.794357
-1.469284 -4.989975 0.793930
-1.469345 -4.989334 0.795212
-1.492447 -4.990677 0.808243
-1.452988 -4.995071 0.807175
-1.465866 -4.992508 0.793961
-1.453049 -4.995316 0.793808
-1.450333 -4.994553 0.795517
-1.439804 -4.998947 0.793808
-1.442917 -4.995895 0.796036
-1.465927 -4.992752 0.807388
-1.439987 -4.999588 0.807266
-1.493118 -4.992935 0.862350
-1.479507 -4.992599 0.834793
-1.492630 -4.991379 0.821762
-1.497360 -4.987106 0.821243
-1.469925 -4.993057 0.823257
-1.479324 -4.991928 0.821243
-1.482071 -4.989883 0.826614
-1.470322 -4.990982 0.822159
-1.492691 -4.991562 0.835220
-1.480362 -4.992325 0.836227
-1.466324 -4.994125 0.834427
-1.466202 -4.993729 0.820938
-1.453476 -4.996719 0.820847
-1.450638 -4.995255 0.826614
-1.443893 -4.996933 0.823013
-1.439896 -4.999222 0.820633
-1.453506 -4.996902 0.834274
-1.466263 -4.994553 0.837845
-1.480148 -4.994736 0.848587
-1.493088 -4.992844 0.848892
-1.498337 -4.989182 0.848190
-1.471329 -4.991959 0.849106
-1.483932 -4.993851 0.857742
-1.466873 -4.995987 0.861588
-1.466660 -4.995193 0.848038
-1.453598 -4.997238 0.847763
-1.462265 -4.996170 0.852524
-1.444901 -4.997025 0.850021
-1.451340 -4.996750 0.857681
-1.453964 -4.998489 0.861404
