-8.025925 -1.338791 9.077347
-8.024033 -1.341141 9.077896
-8.008163 -1.324234 9.077774
-8.037491 -1.359787 9.120071
-8.045670 -1.363144 9.103561
-8.045303 -1.359116 9.103653
-8.007492 -1.314804 9.098557
-8.013077 -1.254776 9.094101
-8.001328 -1.296890 9.091232
-8.000870 -1.272690 9.083725
-8.005081 -1.262558 9.065720
-8.176865 -1.380539 9.220963
-8.161545 -1.393143 9.163284
-8.158920 -1.385757 9.126114
-8.173965 -1.375595 9.133408
-8.126541 -1.395432 9.125351
-8.142502 -1.388565 9.138718
-8.164688 -1.379349 9.163254
-8.143967 -1.390854 9.184586
-8.144028 -1.393814 9.168442
-8.128220 -1.398727 9.167862
-8.143356 -1.392593 9.233627
-8.165268 -1.381393 9.210526
-8.130203 -1.403336 9.208939
-8.110764 -1.398880 9.221115
-8.109512 -1.397354 9.176041
-8.107834 -1.394028 9.133530
-8.087723 -1.386246 9.149979
-8.069992 -1.381088 9.162399
-8.091507 -1.394394 9.233414
-8.070053 -1.384628 9.217697
-8.089951 -1.391678 9.189804
-8.071060 -1.381821 9.208450
-8.116318 -1.417831 9.243576
-8.197769 -1.340988 9.236740
-8.204941 -1.344162 9.161423
-8.188644 -1.358841 9.148911
-8.188828 -1.351364 9.145309
-8.195572 -1.336563 9.143600
-8.201096 -1.331223 9.131393
-8.202957 -1.321335 9.141403
-8.178329 -1.365555 9.152145
-8.214706 -1.255905 9.157852
-8.212631 -1.310684 9.152512
-8.210770 -1.289322 9.146683
-8.213150 -1.273056 9.151474
-8.212265 -1.267288 9.144516
-8.204208 -1.325516 9.235855
-8.189560 -1.353470 9.192245
-8.196579 -1.338760 9.190170
-8.203232 -1.323288 9.188919
-8.190079 -1.355484 9.239853
-8.179825 -1.369980 9.246323
-8.178696 -1.367538 9.199692
-8.212845 -1.272812 9.248367
-8.212387 -1.291702 9.192368
-8.214462 -1.257767 9.206192
-8.212265 -1.270737 9.197006
-8.215134 -1.275558 9.196671
-8.212875 -1.293747 9.239914
-8.215836 -1.277695 9.243912
-8.029434 -1.339371 9.220200
-8.027573 -1.339066 9.171524
-8.045334 -1.363083 9.149338
-8.046280 -1.359451 9.149796
-8.009537 -1.315140 9.147049
-8.009018 -1.321335 9.125320
-8.000656 -1.272659 9.175888
-8.000656 -1.272659 9.129562
-8.007858 -1.253952 9.134293
-8.006332 -1.253738 9.178909
-8.010391 -1.315842 9.220627
-8.052933 -1.371902 9.213730
-8.046707 -1.363327 9.197311
-8.047104 -1.359177 9.197006
-8.023636 -1.335556 9.216934
-8.009689 -1.315140 9.193649
-8.045517 -1.363113 9.242630
-8.047897 -1.358719 9.244766
-8.001328 -1.290878 9.231033
-8.008011 -1.293716 9.187881
-8.191330 -1.211075 9.112106
-8.200699 -1.228592 9.117081
-8.198837 -1.226212 9.017654
-8.183395 -1.195206 9.047348
-8.164932 -1.171646 9.035477
-8.140823 -1.162735 9.038071
-8.205399 -1.231888 9.084244
-8.198959 -1.229263 9.069107
-8.184158 -1.196884 9.097549
-8.164719 -1.175461 9.087814
-8.140762 -1.166214 9.090042
-8.042801 -1.195053 9.116959
-8.032181 -1.208878 9.056503
-8.034805 -1.193863 9.016251
-8.034409 -1.208542 9.010910
-8.019302 -1.213730 9.002487
-8.052383 -1.188095 9.059158
-8.022232 -1.214157 9.051437
-8.116287 -1.155685 9.042404
-8.070908 -1.163925 9.012253
-8.066757 -1.158768 9.000107
-8.077927 -1.160385 9.058243
-8.087601 -1.153122 9.052200
-8.052292 -1.177078 9.032761
-8.055038 -1.192856 9.110245
-8.037125 -1.194229 9.064560
-8.027786 -1.202652 9.093460
-8.032669 -1.237167 9.112778
-8.011063 -1.242722 9.118973
-8.010513 -1.225754 9.100540
-8.032974 -1.211990 9.105606
-8.115158 -1.161575 9.096848
-8.078140 -1.172745 9.068008
-8.081802 -1.178391 9.120163
-8.085159 -1.161972 9.109665
-8.046036 -1.179489 9.091202
-8.054214 -1.182816 9.086044
-8.057693 -1.177872 9.084579
-8.201859 -1.220016 9.240921
-8.202682 -1.227310 9.164658
-8.184311 -1.199875 9.149368
-8.183701 -1.192307 9.130905
-8.164688 -1.178848 9.139938
-8.140671 -1.169754 9.142349
-8.212723 -1.239853 9.217209
-8.202866 -1.230331 9.216843
-8.186539 -1.201462 9.249222
-8.185623 -1.200272 9.198746
-8.139084 -1.190018 9.209885
-8.165878 -1.182907 9.242203
-8.166306 -1.178513 9.188553
-8.140396 -1.173813 9.195450
-8.141006 -1.175766 9.246658
-8.056473 -1.195755 9.244736
-8.053146 -1.196609 9.174973
-8.015488 -1.238144 9.154648
-8.013412 -1.234207 9.137039
-8.027237 -1.214920 9.149155
-8.028305 -1.206406 9.145676
-8.013870 -1.234268 9.183945
-8.006546 -1.231705 9.158676
-8.084457 -1.183182 9.171585
-8.114334 -1.166855 9.150894
-8.082626 -1.169815 9.133530
-8.084915 -1.165817 9.162399
-8.045029 -1.184982 9.145462
-8.061234 -1.178391 9.134659
-8.028641 -1.211655 9.248856
-8.008560 -1.239792 9.214920
-8.014755 -1.239853 9.202499
-8.034531 -1.218155 9.204361
-8.058548 -1.199631 9.198624
-8.043961 -1.190842 9.200363
-8.054916 -1.197525 9.207230
-8.044601 -1.195328 9.211746
-8.026718 -1.214828 9.195023
-8.029984 -1.216446 9.248245
-8.027359 -1.214951 9.242447
-8.070572 -1.179764 9.238297
-8.114639 -1.169479 9.202591
-8.084457 -1.170242 9.215958
-8.068771 -1.179489 9.189590
-8.085403 -1.181839 9.242508
-8.195084 -1.367996 9.374527
-8.180161 -1.383408 9.360367
-8.164871 -1.396225 9.301376
-8.163498 -1.394058 9.256546
-8.178329 -1.383072 9.265060
-8.165604 -1.383377 9.258438
-8.146225 -1.395248 9.278061
-8.131760 -1.405991 9.252762
-8.166916 -1.385666 9.305313
-8.148239 -1.400345 9.301987
-8.168381 -1.387985 9.352280
-8.147446 -1.397476 9.325180
-8.096024 -1.401535 9.367172
-8.114059 -1.404922 9.308304
-8.092850 -1.396164 9.278549
-8.067154 -1.385635 9.260544
-8.072708 -1.384720 9.251938
-8.089890 -1.396683 9.269882
-8.085953 -1.398697 9.311508
-8.074448 -1.388107 9.294968
-8.065903 -1.384903 9.305984
-8.085251 -1.397385 9.357986
-8.094223 -1.398117 9.323746
-8.075516 -1.388718 9.342056
-8.108078 -1.408005 9.367813
-8.115494 -1.407120 9.353348
-8.065598 -1.383194 9.353012
-8.206314 -1.329941 9.330307
-8.206284 -1.338791 9.310440
-8.190964 -1.357681 9.287216
-8.198929 -1.343216 9.283707
-8.215652 -1.312759 9.291458
-8.204483 -1.327499 9.284042
-8.181229 -1.372086 9.293076
-8.212387 -1.261032 9.306168
-8.216965 -1.260422 9.250931
-8.215134 -1.296371 9.285294
-8.215683 -1.269547 9.294540
-8.218002 -1.280258 9.289444
-8.216690 -1.313583 9.338181
-8.191269 -1.359695 9.335709
-8.193741 -1.365952 9.329086
-8.199387 -1.345322 9.331955
-8.210587 -1.314743 9.332108
-8.180801 -1.374100 9.342514
-8.219254 -1.265030 9.345230
-8.219833 -1.282730 9.335739
-8.218430 -1.266586 9.341232
-8.020920 -1.332321 9.354752
-8.019455 -1.335861 9.305099
-8.051956 -1.370895 9.259293
-8.038284 -1.352982 9.261459
-8.050491 -1.370438 9.304398
-8.050034 -1.363632 9.285843
-8.041916 -1.362503 9.285416
-8.032913 -1.356583 9.300858
-8.019333 -1.337692 9.302414
-8.007614 -1.314743 9.310928
-8.006516 -1.253525 9.306168
-8.001083 -1.289078 9.277817
-8.000473 -1.292496 9.272720
-8.000137 -1.272568 9.268753
-8.003342 -1.258987 9.254257
-8.005997 -1.253677 9.271988
-8.024857 -1.338608 9.356155
-8.044632 -1.362961 9.335770
-8.051193 -1.364670 9.332199
-8.006912 -1.314682 9.331314
-8.050613 -1.368271 9.352066
-8.035873 -1.351425 9.352676
-8.003525 -1.273117 9.367264
-8.008560 -1.254074 9.322128
-8.009598 -1.310562 9.361374
-8.003250 -1.292923 9.370590
-8.006638 -1.278580 9.360367
-8.169785 -1.394211 9.499405
-8.184311 -1.378738 9.436539
-8.168381 -1.389908 9.401688
-8.183182 -1.376663 9.388412
-8.146835 -1.399246 9.375198
-8.162460 -1.378372 9.421402
-8.147568 -1.401413 9.423660
-8.168991 -1.398453 9.492050
-8.169174 -1.392075 9.450211
-8.167953 -1.397903 9.443924
-8.183029 -1.388016 9.451126
-8.152298 -1.406113 9.439041
-8.137436 -1.410904 9.487473
-8.131180 -1.413498 9.474594
-8.153580 -1.407700 9.485733
-8.184128 -1.388870 9.498917
-8.187180 -1.381699 9.482254
-8.148148 -1.403488 9.472672
-8.081680 -1.395340 9.496475
-8.096939 -1.401657 9.415390
-8.116440 -1.407272 9.401352
-8.083267 -1.397415 9.402817
-8.076859 -1.390518 9.387802
-8.063553 -1.383286 9.397781
-8.105087 -1.409073 9.411270
-8.077835 -1.390701 9.435989
-8.070847 -1.388290 9.417862
-8.067245 -1.387650 9.461563
-8.103714 -1.408401 9.457321
-8.081314 -1.397812 9.447678
-8.061996 -1.380783 9.491684
-8.062119 -1.382736 9.443619
-8.213028 -1.337753 9.469223
-8.219223 -1.317123 9.429977
-8.193558 -1.362289 9.381638
-8.200729 -1.347641 9.379257
-8.208817 -1.342392 9.401901
-8.207199 -1.332169 9.378281
-8.218185 -1.316360 9.382645
-8.212753 -1.317307 9.378220
-8.194717 -1.364548 9.429611
-8.203781 -1.350449 9.424454
-8.210556 -1.335098 9.422958
-8.216782 -1.320419 9.421921
-8.177963 -1.370224 9.426254
-8.226059 -1.274521 9.432083
-8.221878 -1.267746 9.390762
-8.221115 -1.250168 9.400558
-8.218277 -1.270432 9.395096
-8.218582 -1.303207 9.428024
-8.205460 -1.323837 9.475143
-8.198013 -1.373062 9.464890
-8.192673 -1.353745 9.441940
-8.212448 -1.350601 9.488297
-8.196487 -1.367020 9.476944
-8.205582 -1.352921 9.471695
-8.216049 -1.322220 9.472824
-8.223557 -1.264969 9.490005
-8.220627 -1.268417 9.443161
-8.222092 -1.269821 9.440018
-8.225113 -1.253342 9.444351
-8.221207 -1.305984 9.474045
-8.223648 -1.289780 9.478897
-8.227921 -1.273514 9.481400
-8.227554 -1.277298 9.477066
-8.020065 -1.327011 9.497543
-8.012497 -1.315598 9.433151
-8.050034 -1.366806 9.398972
-8.051743 -1.363266 9.382065
-8.046066 -1.363205 9.384903
-8.035721 -1.349564 9.400223
-8.020798 -1.330399 9.402359
-8.010208 -1.315231 9.382675
-8.024094 -1.338486 9.402908
-8.045181 -1.363052 9.431625
-8.053604 -1.366867 9.425613
-8.013779 -1.254898 9.423477
-8.013626 -1.254868 9.375534
-8.010727 -1.307297 9.410873
-8.006271 -1.293411 9.421860
-8.004807 -1.273331 9.416489
-8.013474 -1.315781 9.482376
-8.048416 -1.366440 9.444565
-8.032578 -1.350754 9.443588
-8.026108 -1.338821 9.453171
-8.019333 -1.329880 9.448166
-8.046524 -1.366348 9.490036
-8.054855 -1.368088 9.472610
-8.045639 -1.363144 9.480209
-8.033615 -1.347641 9.493332
-8.017044 -1.264236 9.492264
-8.013168 -1.302689 9.462509
-8.008499 -1.293777 9.472519
-8.009201 -1.274033 9.469711
-8.019608 -1.255783 9.478378
-8.194382 -1.205276 9.357285
-8.189011 -1.202621 9.349594
-8.215714 -1.244614 9.310043
-8.204300 -1.230423 9.266281
-8.186386 -1.205307 9.302658
-8.157516 -1.199051 9.276810
-8.167099 -1.183456 9.292252
-8.141006 -1.179153 9.299545
-8.206802 -1.231430 9.366653
-8.206284 -1.229233 9.314590
-8.218460 -1.247421 9.355087
-8.155411 -1.197189 9.374954
-8.154312 -1.192032 9.320511
-8.167770 -1.185440 9.343918
-8.141434 -1.181625 9.351791
-8.120651 -1.192429 9.360947
-8.122696 -1.194077 9.262772
-8.086655 -1.189926 9.271591
-8.042191 -1.194962 9.302811
-8.044846 -1.192062 9.250870
-8.048874 -1.195969 9.263474
-8.054764 -1.199753 9.255905
-8.013016 -1.243118 9.298508
-8.045975 -1.192917 9.301224
-8.055252 -1.194351 9.293137
-8.114273 -1.177139 9.309158
-8.114151 -1.173965 9.256424
-8.084396 -1.173782 9.268875
-8.119247 -1.186356 9.305771
-8.074081 -1.180283 9.289261
-8.085373 -1.183914 9.293900
-8.056076 -1.205795 9.355698
-8.017960 -1.234909 9.329453
-8.007095 -1.239853 9.314224
-8.032394 -1.215683 9.342514
-8.036453 -1.227188 9.353745
-8.008560 -1.246414 9.369919
-8.030228 -1.220596 9.356155
-8.044083 -1.200577 9.358810
-8.055771 -1.197922 9.346085
-8.115494 -1.177719 9.359512
-8.074997 -1.180405 9.337540
-8.085068 -1.175583 9.320267
-8.086349 -1.176071 9.370560
-8.085892 -1.187424 9.346817
-8.191605 -1.203568 9.450638
-8.208664 -1.230576 9.415787
-8.190292 -1.203140 9.400070
-8.168716 -1.186600 9.395035
-8.143265 -1.180862 9.400955
-8.202957 -1.211838 9.443649
-8.210251 -1.230331 9.465775
-8.170425 -1.189651 9.498734
-8.168777 -1.189957 9.448624
-8.143967 -1.182663 9.452988
-8.062820 -1.198288 9.469864
-8.043747 -1.204697 9.413040
-8.038345 -1.231339 9.405350
-8.021408 -1.235428 9.380966
-8.028091 -1.215042 9.385056
-8.023117 -1.235703 9.430740
-8.057755 -1.197281 9.415909
-8.116867 -1.178055 9.409836
-8.086685 -1.178726 9.423325
-8.085617 -1.198654 9.468277
-8.042801 -1.217270 9.498276
-8.031448 -1.228561 9.463608
-8.034317 -1.230148 9.450577
-8.040634 -1.216934 9.447556
-8.053238 -1.208115 9.451797
-8.056595 -1.204605 9.452316
-8.028275 -1.236496 9.484909
-8.086258 -1.183182 9.478256
-8.116928 -1.181290 9.463394
-8.221970 -1.356583 9.867325
-8.262253 -1.278580 9.745163
-8.267746 -1.263809 9.745468
-8.250717 -1.271042 9.659256
-8.252579 -1.255173 9.664993
-8.266281 -1.271713 9.720749
-8.258987 -1.275528 9.698349
-8.253342 -1.275864 9.693375
-8.261612 -1.259903 9.702896
-8.255539 -1.304398 9.732956
-8.231979 -1.315079 9.609756
-8.166245 -1.397263 9.605759
-8.200424 -1.375717 9.559555
-8.199356 -1.375046 9.511154
-8.168320 -1.395828 9.551895
-8.130814 -1.411819 9.522446
-8.185165 -1.389633 9.547104
-8.169998 -1.398911 9.540665
-8.186569 -1.383530 9.533432
-8.137070 -1.405624 9.543777
-8.142197 -1.403854 9.531479
-8.154129 -1.406143 9.537033
-8.169907 -1.394669 9.595901
-8.139297 -1.411026 9.585953
-8.127365 -1.413254 9.565994
-8.155472 -1.408005 9.584000
-8.185745 -1.385269 9.585281
-8.142410 -1.405899 9.581741
-8.100632 -1.401566 9.612076
-8.101944 -1.406113 9.551529
-8.102097 -1.408035 9.503220
-8.069748 -1.388077 9.512711
-8.080460 -1.394608 9.543137
-8.061295 -1.379440 9.539108
-8.101059 -1.404922 9.599045
-8.079147 -1.393845 9.589981
-8.072769 -1.388596 9.564774
-8.120682 -1.409531 9.594589
-8.074692 -1.388931 9.615860
-8.060532 -1.378159 9.586777
-8.227707 -1.331528 9.607224
-8.223923 -1.328445 9.561966
-8.198441 -1.369522 9.524338
-8.206985 -1.355301 9.519882
-8.221603 -1.325760 9.514908
-8.223282 -1.327408 9.513931
-8.215317 -1.340408 9.516037
-8.213943 -1.353195 9.533890
-8.225479 -1.333084 9.555557
-8.230087 -1.312515 9.561722
-8.226791 -1.260788 9.536240
-8.226425 -1.309464 9.516617
-8.233231 -1.294785 9.551865
-8.227524 -1.338242 9.598160
-8.215500 -1.356125 9.579391
-8.197372 -1.371231 9.576492
-8.208878 -1.357803 9.567642
-8.217178 -1.342911 9.563828
-8.220901 -1.345993 9.609177
-8.206406 -1.359177 9.622238
-8.245682 -1.267471 9.615616
-8.235977 -1.302994 9.590256
-8.232742 -1.296432 9.566269
-8.235306 -1.279678 9.571304
-8.232681 -1.250443 9.576248
-8.236862 -1.299667 9.611008
-8.243149 -1.284012 9.610489
-8.033035 -1.339981 9.606827
-8.028366 -1.339188 9.552475
-8.045731 -1.363144 9.528641
-8.056229 -1.369858 9.519180
-8.026016 -1.338821 9.501236
-8.047592 -1.363174 9.540085
-8.033188 -1.345993 9.541214
-8.021378 -1.323563 9.548019
-8.016159 -1.316208 9.533951
-8.026016 -1.267288 9.561813
-8.012253 -1.294388 9.525284
-8.013290 -1.300461 9.511063
-8.011826 -1.274429 9.521103
-8.027176 -1.251358 9.555923
-8.013779 -1.268417 9.540512
-8.023544 -1.256424 9.531387
-8.023026 -1.319717 9.599350
-8.046829 -1.361862 9.587723
-8.049545 -1.363785 9.581772
-8.034653 -1.342331 9.592239
-8.020584 -1.316940 9.587906
-8.028488 -1.272049 9.615097
-8.016159 -1.294998 9.578598
-8.020859 -1.301529 9.576157
-8.016464 -1.295029 9.564438
-8.027786 -1.257065 9.585098
-8.015427 -1.275009 9.574020
-8.021286 -1.287796 9.620621
-8.014481 -1.272690 9.595230
-8.189865 -1.393936 9.741379
-8.196518 -1.375046 9.680069
-8.173538 -1.402206 9.685654
-8.156479 -1.408218 9.633499
-8.140152 -1.410721 9.636154
-8.186630 -1.388046 9.648758
-8.171860 -1.398972 9.639908
-8.182938 -1.386520 9.640488
-8.136276 -1.406235 9.641739
-8.157974 -1.409470 9.687424
-8.157455 -1.408401 9.683395
-8.141434 -1.412125 9.684372
-8.165451 -1.399033 9.658035
-8.198624 -1.377670 9.728653
-8.203384 -1.376694 9.708115
-8.188370 -1.391464 9.694260
-8.185562 -1.391312 9.739700
-8.138138 -1.408768 9.690323
-8.165909 -1.401169 9.708878
-8.184555 -1.388992 9.689438
-8.158737 -1.409958 9.731705
-8.137527 -1.410629 9.742935
-8.142960 -1.414566 9.731491
-8.150681 -1.414841 9.726089
-8.175125 -1.404922 9.732376
-8.094742 -1.405136 9.737534
-8.102249 -1.404251 9.658340
-8.122177 -1.411880 9.641220
-8.101120 -1.402817 9.648148
-8.077499 -1.393478 9.636520
-8.123093 -1.413498 9.657639
-8.077072 -1.391830 9.685165
-8.076736 -1.389297 9.667374
-8.082779 -1.391708 9.681656
-8.060471 -1.376144 9.635666
-8.084061 -1.392960 9.730270
-8.104019 -1.407578 9.703995
-8.119034 -1.415543 9.700974
-8.123154 -1.412003 9.691177
-8.095901 -1.406082 9.689713
-8.116745 -1.415787 9.747147
-8.124527 -1.413834 9.739212
-8.076370 -1.390396 9.733719
-8.208572 -1.363846 9.721878
-8.208054 -1.361649 9.671005
-8.197495 -1.373306 9.627243
-8.230911 -1.334457 9.653671
-8.236740 -1.318497 9.653824
-8.218002 -1.347183 9.664749
-8.244400 -1.250687 9.626022
-8.241287 -1.302994 9.655563
-8.228531 -1.335861 9.708786
-8.217087 -1.348984 9.717728
-8.243881 -1.322586 9.694626
-8.249954 -1.307541 9.694046
-8.034225 -1.336472 9.739548
-8.033676 -1.340073 9.656693
-8.056625 -1.364975 9.639175
-8.047897 -1.358719 9.638351
-8.035019 -1.339859 9.641800
-8.023575 -1.317001 9.649307
-8.021988 -1.317429 9.638657
-8.060654 -1.373825 9.685226
-8.046677 -1.357834 9.685806
-8.022934 -1.276199 9.681198
-8.021255 -1.304428 9.627151
-8.018478 -1.295395 9.630325
-8.031601 -1.257675 9.638657
-8.014450 -1.274887 9.648331
-8.021255 -1.275925 9.629929
-8.023392 -1.308884 9.680374
-8.023209 -1.283585 9.672806
-8.030075 -1.276016 9.667618
-8.027084 -1.318253 9.743698
-8.034409 -1.338364 9.690262
-8.024826 -1.313553 9.700577
-8.059464 -1.372940 9.732986
-8.045609 -1.356827 9.733780
-8.035263 -1.250839 9.738663
-8.045486 -1.252701 9.715378
-8.038010 -1.258682 9.695694
-8.014938 -1.278641 9.703079
-8.024216 -1.312088 9.749313
-8.023331 -1.311386 9.731339
-8.023605 -1.296219 9.735336
-8.031662 -1.280014 9.720413
-8.026230 -1.278305 9.726883
-8.256821 -1.207535 9.735916
-8.271286 -1.212845 9.743881
-8.250626 -1.238358 9.676437
-8.260544 -1.191452 9.740707
-8.262680 -1.244003 9.709824
-8.270950 -1.248581 9.749100
-8.261581 -1.226639 9.720505
-8.261581 -1.209549 9.729599
-8.197647 -1.199936 9.598770
-8.204605 -1.201157 9.600845
-8.194626 -1.203506 9.551651
-8.222733 -1.238144 9.506241
-8.211563 -1.230789 9.516739
-8.192368 -1.205307 9.502853
-8.230026 -1.242325 9.545792
-8.196426 -1.196640 9.562271
-8.210220 -1.218033 9.533096
-8.172836 -1.187546 9.547165
-8.153427 -1.197800 9.526718
-8.134567 -1.200424 9.501511
-8.129715 -1.198593 9.546280
-8.147018 -1.182602 9.554001
-8.145401 -1.182907 9.503647
-8.236160 -1.245834 9.622391
-8.239243 -1.247116 9.582809
-8.219040 -1.222733 9.570511
-8.214828 -1.226639 9.563126
-8.227737 -1.227402 9.608322
-8.194321 -1.223679 9.610641
-8.217484 -1.223984 9.611282
-8.176285 -1.201431 9.578659
-8.175858 -1.184067 9.594345
-8.147751 -1.185837 9.617813
-8.149673 -1.180008 9.602127
-8.117081 -1.191635 9.613022
-8.083603 -1.189346 9.550003
-8.119370 -1.195023 9.514267
-8.066544 -1.198837 9.522507
-8.086624 -1.195908 9.505142
-8.084091 -1.199753 9.516617
-8.040848 -1.216965 9.544418
-8.031601 -1.231216 9.516495
-8.040939 -1.238602 9.507950
-8.059067 -1.215836 9.508286
-8.057419 -1.209152 9.506821
-8.033218 -1.237259 9.539169
-8.118149 -1.181961 9.514572
-8.087418 -1.183975 9.529617
-8.084854 -1.205368 9.618179
-8.120956 -1.193192 9.586807
-8.117722 -1.192490 9.562759
-8.063705 -1.224960 9.614151
-8.083542 -1.191391 9.602707
-8.057510 -1.213791 9.612595
-8.032669 -1.236526 9.572037
-8.055649 -1.219223 9.610825
-8.040115 -1.238327 9.596085
-8.122910 -1.178055 9.612076
-8.120499 -1.180038 9.563217
-8.089218 -1.183365 9.579727
-8.241562 -1.201340 9.708145
-8.223221 -1.193710 9.684311
-8.237106 -1.232254 9.645370
-8.222122 -1.216629 9.654678
-8.187943 -1.207901 9.647598
-8.215164 -1.206406 9.636002
-8.201187 -1.195297 9.644943
-8.229813 -1.236343 9.683029
-8.241745 -1.236130 9.663376
-8.230057 -1.212967 9.664963
-8.180710 -1.189713 9.682480
-8.206558 -1.186295 9.686691
-8.203415 -1.185593 9.662613
-8.183548 -1.173294 9.685226
-8.178421 -1.181656 9.642838
-8.186630 -1.178421 9.636490
-8.153244 -1.175339 9.648270
-8.147049 -1.185989 9.669144
-8.228806 -1.204483 9.693100
-8.247421 -1.226303 9.704361
-8.245926 -1.219803 9.692520
-8.218521 -1.207047 9.707993
-8.237961 -1.182419 9.723099
-8.237930 -1.186508 9.725418
-8.209213 -1.183212 9.737869
-8.213028 -1.174698 9.725815
-8.157578 -1.172409 9.748032
-8.156296 -1.171829 9.695847
-8.126938 -1.175858 9.712296
-8.145432 -1.183517 9.718307
-8.176682 -1.180496 9.725571
-8.186417 -1.170151 9.733383
-8.113144 -1.193649 9.730240
-8.115494 -1.189194 9.662033
-8.090134 -1.188248 9.687210
-8.083206 -1.206375 9.667007
-8.084946 -1.197556 9.659378
-8.034012 -1.244919 9.681808
-8.043594 -1.238846 9.649307
-8.033676 -1.241684 9.627640
-8.060135 -1.223587 9.672623
-8.044754 -1.249557 9.663651
-8.060196 -1.219894 9.665359
-8.105057 -1.184799 9.662491
-8.089951 -1.185104 9.632614
-8.124252 -1.178482 9.663681
-8.091507 -1.202560 9.748611
-8.064468 -1.230637 9.716629
-8.083511 -1.195541 9.708908
-8.085098 -1.201584 9.691360
-8.059769 -1.224777 9.725174
-8.048386 -1.239578 9.704422
-8.058823 -1.219681 9.713150
-8.111618 -1.185745 9.719711
-8.113968 -1.186905 9.711319
-8.255692 -1.301132 9.788071
-8.267715 -1.274277 9.767776
-8.215408 -1.371933 9.868607
-8.191330 -1.396988 9.835556
-8.188675 -1.405289 9.810806
-8.200272 -1.380173 9.778183
-8.205032 -1.379745 9.754471
-8.207138 -1.384964 9.798141
-8.189224 -1.394333 9.786301
-8.191818 -1.398361 9.786118
-8.170609 -1.406540 9.805832
-8.160446 -1.413101 9.778152
-8.176468 -1.406723 9.780685
-8.144516 -1.417068 9.778824
-8.146927 -1.416519 9.770218
-8.169540 -1.404190 9.755264
-8.140335 -1.421127 9.810287
-8.139664 -1.413223 9.791672
-8.126450 -1.417648 9.784714
-8.193558 -1.401718 9.832596
-8.202438 -1.382858 9.827286
-8.164108 -1.420425 9.870438
-8.162369 -1.417099 9.823654
-8.178452 -1.411148 9.825638
-8.127975 -1.420059 9.832504
-8.146286 -1.420395 9.825241
-8.143661 -1.416336 9.838150
-8.180222 -1.414566 9.872269
-8.174240 -1.409592 9.852921
-8.148087 -1.423965 9.871719
-8.134750 -1.424698 9.852005
-8.089462 -1.402939 9.869431
-8.106888 -1.411392 9.800125
-8.105270 -1.408768 9.752914
-8.073959 -1.390823 9.779861
-8.086197 -1.397690 9.774429
-8.112900 -1.417618 9.791245
-8.090988 -1.406937 9.781662
-8.064468 -1.375900 9.862473
-8.108749 -1.419754 9.835037
-8.089096 -1.406754 9.828873
-8.073502 -1.389145 9.829239
-8.088547 -1.403214 9.817734
-8.106277 -1.414566 9.856491
-8.109116 -1.416672 9.844040
-8.074570 -1.388901 9.864120
-8.222336 -1.338242 9.822433
-8.223495 -1.336502 9.768326
-8.209335 -1.366104 9.772781
-8.217239 -1.351089 9.769485
-8.233932 -1.321823 9.761551
-8.243698 -1.321640 9.765579
-8.229141 -1.322556 9.821091
-8.220474 -1.354294 9.816818
-8.212448 -1.369034 9.820419
-8.234482 -1.309372 9.874374
-8.241623 -1.308273 9.834915
-8.239975 -1.308853 9.813278
-8.062820 -1.373215 9.814987
-8.038742 -1.340927 9.811905
-8.057693 -1.372635 9.780167
-8.061081 -1.370193 9.768265
-8.039322 -1.341019 9.762619
-8.022202 -1.312881 9.781235
-8.044785 -1.355545 9.782364
-8.033005 -1.335587 9.787582
-8.027756 -1.318375 9.794418
-8.041855 -1.259262 9.799911
-8.032242 -1.283066 9.772263
-8.015305 -1.282028 9.757675
-8.046982 -1.256577 9.768265
-8.025864 -1.308182 9.801834
-8.025436 -1.296494 9.787430
-8.034470 -1.250748 9.790298
-8.029251 -1.272903 9.781326
-8.028397 -1.277084 9.787277
-8.037369 -1.340683 9.860550
-8.056015 -1.364883 9.837204
-8.057877 -1.370377 9.830490
-8.042191 -1.356125 9.828537
-8.032150 -1.334335 9.836411
-8.026718 -1.319595 9.838028
-8.029221 -1.318588 9.846451
-8.046188 -1.260941 9.870346
-8.031967 -1.285385 9.823410
-8.027420 -1.296829 9.840042
-8.015945 -1.286179 9.813339
-8.033829 -1.265915 9.838455
-8.047806 -1.259872 9.820602
-8.028641 -1.277115 9.837753
-8.031601 -1.287582 9.874588
-8.016556 -1.290329 9.869156
-8.025803 -1.306107 9.851913
-8.199112 -1.405380 9.983139
-8.195908 -1.402420 9.934586
-8.194168 -1.399857 9.884048
-8.195114 -1.404373 9.880356
-8.204178 -1.385361 9.877396
-8.196426 -1.405960 9.929947
-8.204636 -1.387589 9.929794
-8.162125 -1.425797 9.921982
-8.175888 -1.412094 9.903336
-8.170303 -1.419632 9.883743
-8.131943 -1.425400 9.898239
-8.129715 -1.423203 9.879532
-8.146469 -1.419174 9.886581
-8.166183 -1.424149 9.916885
-8.181686 -1.416702 9.921005
-8.131729 -1.427475 9.925339
-8.149887 -1.427505 9.918442
-8.149734 -1.422104 9.934738
-8.209152 -1.390976 9.976395
-8.198990 -1.412827 9.972397
-8.218674 -1.377029 9.970139
-8.184464 -1.418564 9.997116
-8.167770 -1.426773 9.965256
-8.180435 -1.415390 9.949692
-8.151321 -1.429306 9.967972
-8.126755 -1.428574 9.941025
-8.155991 -1.429855 9.963486
-8.183243 -1.419266 9.969528
-8.151413 -1.424667 9.985611
-8.133408 -1.430374 9.973343
-8.083420 -1.406113 9.972061
-8.086044 -1.405594 9.925217
-8.100418 -1.413528 9.899826
-8.106949 -1.419449 9.882675
-8.110489 -1.418259 9.893326
-8.087784 -1.405960 9.877243
-8.070724 -1.389877 9.875320
-8.102097 -1.422256 9.925919
-8.112839 -1.423691 9.937454
-8.091721 -1.408127 9.913834
-8.071518 -1.386917 9.927200
-8.074295 -1.388870 9.914352
-8.066208 -1.378860 9.909866
-8.068466 -1.387894 9.973404
-8.098984 -1.413284 9.948807
-8.092880 -1.408859 9.964737
-8.072311 -1.388504 9.962784
-8.067520 -1.380173 9.959854
-8.114212 -1.425400 9.987259
-8.121384 -1.431900 9.983719
-8.103043 -1.419144 9.978287
-8.096786 -1.412888 9.997177
-8.246201 -1.316299 9.978867
-8.233505 -1.327988 9.920212
-8.229813 -1.344589 9.916763
-8.223434 -1.359299 9.918076
-8.216354 -1.374283 9.920242
-8.235550 -1.294357 9.934952
-8.240219 -1.297897 9.900711
-8.238327 -1.259354 9.895370
-8.238937 -1.356247 9.980881
-8.227005 -1.362411 9.965958
-8.236282 -1.348587 9.939499
-8.233871 -1.347824 9.963882
-8.237778 -1.331345 9.967026
-8.237778 -1.279892 9.994156
-8.241684 -1.300156 9.949356
-8.234543 -1.260361 9.954422
-8.241806 -1.298325 9.978806
-8.023819 -1.324692 9.990555
-8.037033 -1.340622 9.910751
-8.055252 -1.370926 9.876877
-8.040878 -1.355331 9.876877
-8.030014 -1.318741 9.897995
-8.029404 -1.335068 9.882614
-8.027664 -1.323044 9.890884
-8.054459 -1.364609 9.936478
-8.054886 -1.369125 9.926987
-8.040421 -1.353653 9.926834
-8.031113 -1.331100 9.935959
-8.049728 -1.266739 9.926376
-8.025833 -1.303909 9.902451
-8.025925 -1.296585 9.888718
-8.028610 -1.331528 9.983047
-8.036057 -1.340469 9.960464
-8.052292 -1.364243 9.984848
-8.053940 -1.367966 9.976425
-8.039383 -1.352585 9.976120
-8.050461 -1.269943 9.979355
-8.026260 -1.301254 9.954025
-8.044388 -1.259659 9.954727
-8.030655 -1.277420 9.941544
-8.030350 -1.291611 9.977219
-8.027908 -1.276993 9.989273
-8.334610 -1.205612 9.845688
-8.337448 -1.190170 9.850296
-8.304062 -1.204147 9.795334
-8.290421 -1.220779 9.778336
-8.277176 -1.235947 9.763138
-8.268967 -1.245743 9.764633
-8.272995 -1.232162 9.755081
-8.285843 -1.209030 9.777176
-8.283218 -1.191360 9.767502
-8.277603 -1.216476 9.757187
-8.280594 -1.199661 9.762192
-8.291489 -1.222794 9.788132
-8.297226 -1.206894 9.788925
-8.301529 -1.191177 9.791641
-8.303360 -1.175278 9.797806
-8.281723 -1.182938 9.769760
-8.255844 -1.172806 9.757126
-8.268112 -1.184341 9.762772
-8.298416 -1.182602 9.800674
-8.262192 -1.165390 9.792709
-8.278000 -1.164474 9.793289
-8.279617 -1.165756 9.781937
-8.340073 -1.193924 9.848404
-8.325089 -1.207687 9.835312
-8.319382 -1.198776 9.816605
-8.282516 -1.188095 9.842484
-8.292770 -1.227768 9.819656
-8.307999 -1.218613 9.826614
-8.312027 -1.213516 9.818619
-8.345505 -1.140823 9.866989
-8.329086 -1.178879 9.836746
-8.322159 -1.183273 9.821304
-8.319748 -1.186356 9.813278
-8.325363 -1.166183 9.826462
-8.333481 -1.166245 9.834854
-8.322739 -1.148087 9.840164
-8.353683 -1.178665 9.863846
-8.343765 -1.174118 9.850571
-8.345840 -1.157547 9.857010
-8.334610 -1.160721 9.863968
-8.341507 -1.152634 9.860489
-8.319321 -1.139847 9.858536
-8.286087 -1.147781 9.867752
-8.309891 -1.158707 9.826889
-8.261887 -1.165329 9.842331
-8.267014 -1.159714 9.841415
-8.299515 -1.149643 9.833511
-8.300003 -1.156082 9.813034
-8.286606 -1.147690 9.827133
-8.297104 -1.153091 9.845749
-8.454269 -1.135666 9.992111
-8.415329 -1.135849 9.936417
-8.403763 -1.157852 9.927292
-8.380508 -1.172836 9.908981
-8.388046 -1.171005 9.914871
-8.387955 -1.158707 9.906662
-8.405319 -1.142502 9.929733
-8.392624 -1.143692 9.908829
-8.395157 -1.127121 9.914932
-8.397202 -1.128922 9.915085
-8.439743 -1.152664 9.975357
-8.438126 -1.134506 9.961533
-8.418900 -1.143814 9.941025
-8.423813 -1.164841 9.964066
-8.406357 -1.150314 9.940598
-8.345779 -1.130844 9.957779
-8.358139 -1.196243 9.891251
-8.352615 -1.197037 9.879715
-8.342850 -1.203110 9.887131
-8.355667 -1.136917 9.916977
-8.373886 -1.185928 9.899765
-8.359421 -1.181168 9.879135
-8.367935 -1.160904 9.882492
-8.365494 -1.165909 9.879349
-8.373428 -1.147202 9.894699
-8.369308 -1.150589 9.882797
-8.353989 -1.126266 9.884048
-8.369766 -1.134171 9.891525
-8.358597 -1.136124 9.904404
-8.318863 -1.144058 9.895248
-8.340103 -1.132309 9.877945
-8.321365 -1.129776 9.906082
-8.324112 -1.134506 9.891861
-8.369614 -1.186539 9.916397
-8.469193 -1.089890 9.998489
-8.394455 -1.109512 9.926132
-8.385574 -1.121445 9.919022
-8.466049 -1.073196 9.999496
-8.469711 -1.107529 9.987106
-8.463120 -1.122177 9.987686
-8.453262 -1.100937 9.977371
-8.433151 -1.081619 9.978439
-8.419724 -1.110977 9.947769
-8.420639 -1.120255 9.938187
-8.420639 -1.103775 9.947861
-8.381485 -1.111160 9.944412
-8.396683 -1.099014 9.946823
-8.404312 -1.099655 9.947617
-8.416977 -1.085617 9.963730
-8.405197 -1.101547 9.984024
-8.431107 -1.086960 9.974045
-8.405807 -1.080551 9.979202
-8.346085 -1.113907 9.932480
-8.361496 -1.111801 9.920731
-8.331345 -1.114700 9.883438
-8.340958 -1.122757 9.883499
-8.363815 -1.114822 9.910873
-8.371262 -1.117264 9.911819
-8.203690 -1.203873 9.861008
-8.167130 -1.208145 9.874802
-8.242905 -1.191422 9.767044
-8.246872 -1.192947 9.757462
-8.131058 -1.188583 9.792831
-8.232559 -1.184799 9.806717
-8.244461 -1.174698 9.764450
-8.215744 -1.171890 9.774490
-8.185074 -1.176926 9.792465
-8.125809 -1.182022 9.770554
-8.144333 -1.182510 9.768997
-8.177963 -1.186142 9.782425
-8.155655 -1.180344 9.808456
-8.179947 -1.192459 9.861313
-8.159958 -1.199265 9.814957
-8.152359 -1.191635 9.872787
-8.124527 -1.208786 9.845963
-8.123978 -1.205795 9.793839
-8.067307 -1.235733 9.771011
-8.091568 -1.218857 9.778671
-8.114731 -1.191299 9.766922
-8.088028 -1.210678 9.774307
-8.085861 -1.201523 9.752945
-8.085495 -1.205917 9.809464
-8.060898 -1.230240 9.781784
-8.084824 -1.211044 9.867172
-8.094681 -1.224197 9.833725
-8.067062 -1.238022 9.822159
-8.123581 -1.190689 9.831894
-8.059006 -1.227005 9.830704
-8.200882 -1.217789 9.981308
-8.200272 -1.215530 9.926102
-8.224655 -1.239029 9.925064
-8.172714 -1.215652 9.933121
-8.128494 -1.214890 9.902298
-8.177689 -1.201401 9.923386
-8.151810 -1.196548 9.930588
-8.219101 -1.245651 9.998428
-8.219864 -1.240189 9.939651
-8.207260 -1.216690 9.961014
-8.178360 -1.203415 9.978317
-8.127975 -1.216965 9.953720
-8.151932 -1.210281 9.951004
-8.151443 -1.201004 9.988205
-8.087692 -1.218613 9.990494
-8.085403 -1.213272 9.921982
-8.069077 -1.242386 9.876175
-8.092667 -1.224899 9.883011
-8.122391 -1.197037 9.890976
-8.069016 -1.244888 9.927963
-8.092117 -1.226974 9.934341
-8.058914 -1.241196 9.917862
-8.084763 -1.223618 9.996841
-8.089371 -1.224319 9.951401
-8.123123 -1.198929 9.945572
-8.083450 -1.221390 9.983505
-8.061539 -1.241592 9.972092
-8.254074 -0.787216 9.829971
-8.001816 -3.826462 10.472122
-8.413284 -3.982590 10.426895
-8.423752 -3.981674 10.420395
-8.382309 -3.994827 10.426620
-8.392044 -3.988998 10.430771
-8.403641 -3.990341 10.418472
-8.370468 -3.991226 10.443954
-8.371902 -3.987320 10.428940
-8.349136 -3.980240 10.437332
-8.356888 -3.977554 10.429947
-8.330063 -3.987717 10.432877
-8.319229 -3.981277 10.437241
-8.292465 -3.999924 10.421707
-8.281174 -3.991501 10.426163
-8.329208 -3.976913 10.437790
-8.012650 -3.822952 10.468918
-8.200638 -3.961258 10.438278
-8.204208 -3.951767 10.419388
-8.242203 -3.973312 10.431961
-8.146835 -3.978928 10.435287
-8.154221 -3.934250 10.450760
-8.095200 -3.896439 10.456955
-8.123550 -3.937790 10.434677
-8.104477 -3.904037 10.450821
-8.119125 -3.922867 10.452164
-8.118210 -3.920670 10.447891
-8.005936 -3.837784 10.468338
-8.036484 -3.848557 10.466263
-8.043259 -3.850906 10.465897
-8.028793 -3.846298 10.465530
-8.049667 -2.490891 11.969681
-8.110489 -2.445908 11.888290
-10.149124 -0.339615 11.864365
-10.129959 -0.324509 11.862656
-10.153580 -0.327377 11.873459
-10.026260 -0.357529 11.736069
-10.037216 -0.399582 11.740250
-10.052567 -0.377121 11.743240
-10.004715 -0.406479 11.709518
-10.006271 -0.410355 11.696487
-10.014420 -0.396744 11.705368
-10.002853 -0.389481 11.698441
-10.024094 -0.402969 11.707504
-10.019302 -0.385117 11.712051
-10.031509 -0.410629 11.735733
-10.012772 -0.412735 11.720505
-10.047684 -0.389816 11.734940
-10.030624 -0.375076 11.733597
-10.010818 -0.365616 11.729538
-10.016373 -0.365097 11.727951
-10.023483 -0.371567 11.722519
-10.255692 -0.341202 11.998856
-10.269791 -0.325363 11.998947
-10.256729 -0.315323 11.972397
-10.258530 -0.283768 11.996384
-10.252548 -0.283829 11.987564
-10.254898 -0.297043 11.983475
-10.250870 -0.309036 11.973221
-10.125504 -0.320969 11.850845
-10.139725 -0.384354 11.864853
-10.101730 -0.380630 11.805191
-10.101059 -0.383499 11.808487
-10.063248 -0.406235 11.766586
-10.065201 -0.404129 11.764297
-10.079605 -0.376663 11.781052
-10.077530 -0.380020 11.774796
-10.068192 -0.390366 11.777298
-10.075027 -0.391922 11.784317
-10.082230 -0.393356 11.785995
-10.049942 -0.394424 11.750626
-10.136429 -0.362747 11.854721
-10.130569 -0.374527 11.848923
-10.140488 -0.355911 11.842728
-10.130539 -0.350845 11.857864
-10.143295 -0.351791 11.857773
-10.137100 -0.351700 11.856949
-10.094681 -0.331009 11.847061
-10.067307 -0.340225 11.804398
-10.087875 -0.350906 11.809891
-10.082382 -0.368271 11.782059
-10.069595 -0.374954 11.786057
-10.085342 -0.355423 11.794174
-10.088943 -0.341171 11.807083
-10.045029 -0.345505 11.801956
-10.032425 -0.374405 11.766525
-10.056107 -0.363205 11.755447
-10.060043 -0.361893 11.769852
-10.058823 -0.350143 11.768173
-10.037582 -0.354965 11.770065
-10.117355 -0.336624 11.845200
-10.094284 -0.351486 11.839584
-10.114090 -0.360489 11.816818
-10.120743 -0.371048 11.819870
-10.108475 -0.364944 11.819778
-10.106461 -0.372177 11.814285
-10.116928 -0.346786 11.830490
-10.120926 -0.334030 11.840988
-10.085831 -0.333298 11.830093
-10.058243 -0.355423 11.824448
-10.244156 -0.319351 11.970291
-10.214096 -0.331375 11.932297
-10.187668 -0.321671 11.902664
-10.201797 -0.349777 11.919724
-10.215286 -0.349747 11.919296
-10.196304 -0.355423 11.909958
-10.189774 -0.326767 11.929550
-10.209793 -0.339645 11.919907
-10.195023 -0.316086 11.919571
-10.213730 -0.327225 11.930557
-10.153671 -0.327866 11.911545
-10.176346 -0.361984 11.899307
-10.160019 -0.366135 11.889267
-10.158249 -0.370499 11.886002
-10.176376 -0.345596 11.889023
-10.168320 -0.355515 11.889389
-10.182785 -0.333817 11.894272
-10.167282 -0.333755 11.887527
-10.157089 -0.313705 11.886368
-10.175003 -0.316574 11.896469
-10.145981 -0.322983 11.881882
-10.192917 -0.294876 11.931351
-10.190384 -0.308365 11.916733
-10.213150 -0.301620 11.921341
-10.175766 -0.306473 11.914505
-10.155807 -0.290421 11.901321
-10.125320 -0.311783 11.875534
-10.242722 -0.317734 11.969650
-10.228592 -0.340683 11.967209
-10.236404 -0.330551 11.948715
-10.237137 -0.331161 11.965714
-10.218643 -0.315323 11.938828
-10.232254 -0.270462 11.977707
-10.223160 -0.301010 11.955124
-10.224472 -0.302689 11.946640
-10.228043 -0.290268 11.958115
-10.190567 -0.289627 11.957321
-10.202621 -0.291946 11.951248
-10.233383 -0.278976 11.965012
-10.244278 -0.299911 11.996964
-10.205917 -0.294144 11.971359
-10.228775 -0.275589 11.982925
-10.236435 -0.265305 11.979385
-10.110031 -0.315689 11.877731
-10.113724 -0.324783 11.875839
-8.129898 -1.273270 11.831955
-8.211197 -1.341141 10.871964
-8.535751 -1.087112 10.073349
-8.541000 -1.071152 10.075790
-8.576736 -1.020157 10.113510
-8.524216 -1.080948 10.037521
-8.501266 -1.087112 10.010483
-8.505783 -1.072433 10.013107
-8.516098 -1.094345 10.040787
-8.529556 -1.064957 10.039871
-8.511673 -1.027878 10.062088
-8.505356 -1.054428 10.024796
-8.500656 -1.058151 10.024002
-8.531601 -1.051987 10.058517
-8.531570 -1.048904 10.046982
-8.511063 -1.036148 10.052536
-8.530441 -1.031723 10.059402
-8.578140 -1.003281 10.122421
-8.566391 -1.048721 10.110062
-8.571762 -1.034531 10.111404
-8.554764 -1.001755 10.108871
-8.551895 -1.041428 10.078964
-8.547318 -1.056595 10.075912
-8.513962 -1.038345 10.079239
-8.543259 -1.026627 10.083420
-8.553482 -1.025833 10.086594
-8.520645 -1.016098 10.083389
-8.554886 -1.010178 10.094589
-8.617020 -1.004837 10.179489
-8.596725 -1.012192 10.146805
-8.589249 -1.026871 10.148056
-8.540970 -1.009445 10.127945
-8.211136 -1.320175 10.347488
-8.254898 -1.323807 10.057114
-8.255295 -1.348709 10.038010
-8.251083 -1.334091 10.006149
-8.250198 -1.320297 10.010300
-8.238510 -1.269699 10.065445
-8.216934 -1.397354 10.072433
-8.154831 -1.439926 10.005203
-8.235092 -1.385849 10.052567
-8.205002 -1.409073 10.027939
-8.222458 -1.380234 10.018082
-8.214584 -1.394577 10.021835
-8.188980 -1.427841 10.040970
-8.187943 -1.421646 10.045700
-8.147751 -1.433914 10.053238
-8.158127 -1.428543 10.029129
-8.135422 -1.434586 10.019760
-8.150406 -1.433395 10.005936
-8.206039 -1.411484 10.080612
-8.170883 -1.427505 10.122574
-8.183182 -1.431564 10.083542
-8.148300 -1.431229 10.105637
-8.077469 -1.405716 10.117172
-8.069290 -1.387985 10.061691
-8.100235 -1.419846 10.025131
-8.093704 -1.408157 10.018112
-8.084366 -1.402969 10.024734
-8.072647 -1.388565 10.014389
-8.069534 -1.384262 10.006271
-8.067154 -1.387039 10.022598
-8.097031 -1.412949 10.048843
-8.114883 -1.424026 10.041763
-8.121933 -1.429184 10.035812
-8.070938 -1.385849 10.056595
-8.074112 -1.394424 10.097183
-8.121353 -1.427567 10.086472
-8.098984 -1.418961 10.074692
-8.095627 -1.411789 10.065598
-8.088608 -1.411453 10.090012
-8.081833 -1.403397 10.072311
-8.064926 -1.387161 10.070602
-8.096146 -1.419662 10.122025
-8.063065 -1.386917 10.105698
-8.062393 -1.387619 10.118393
-8.238937 -1.370041 10.055344
-8.242050 -1.365829 10.019760
-8.233536 -1.366379 10.009628
-8.240280 -1.351761 10.007736
-8.240524 -1.266464 10.052658
-8.249161 -1.302597 10.021164
-8.232895 -1.262070 10.010574
-8.244797 -1.284103 10.037155
-8.218246 -1.251419 10.057755
-8.025986 -1.338791 10.102432
-8.030411 -1.339523 10.056137
-8.051346 -1.368454 10.023666
-8.040237 -1.347733 10.013107
-8.037308 -1.352524 10.024185
-8.034378 -1.340195 10.009598
-8.042892 -1.354233 10.056381
-8.049423 -1.363754 10.032639
-8.027115 -1.330917 10.031998
-8.023239 -1.326767 10.042343
-8.069138 -1.250107 10.032608
-8.033188 -1.258408 10.059494
-8.027878 -1.291916 10.026627
-8.023148 -1.302353 10.000229
-8.044174 -1.266830 10.024307
-8.044205 -1.259628 10.005722
-8.021591 -1.301804 10.049118
-8.023056 -1.296127 10.038498
-8.040909 -1.259109 10.053116
-8.026901 -1.276810 10.039413
-8.023300 -1.317642 10.094864
-8.044388 -1.362900 10.077988
-8.049423 -1.368271 10.072098
-8.034317 -1.353500 10.070938
-8.025009 -1.330917 10.080246
-8.020523 -1.326859 10.091782
-8.045547 -1.370071 10.117783
-8.045700 -1.361343 10.099045
-8.031631 -1.354080 10.118454
-8.018204 -1.303177 10.095413
-8.026749 -1.293472 10.077866
-8.042709 -1.268112 10.075180
-8.192551 -1.395035 10.220383
-8.200333 -1.406204 10.140488
-8.170792 -1.423111 10.182510
-8.185806 -1.417770 10.130203
-8.145645 -1.431686 10.153458
-8.154282 -1.429306 10.126450
-8.136307 -1.429947 10.132492
-8.184708 -1.407913 10.168686
-8.137527 -1.430923 10.184677
-8.155136 -1.428787 10.180771
-8.198532 -1.394150 10.211685
-8.200912 -1.380814 10.215866
-8.171127 -1.420303 10.240616
-8.163040 -1.419296 10.193741
-8.185440 -1.411911 10.192276
-8.143814 -1.431381 10.202774
-8.177231 -1.408096 10.235611
-8.126877 -1.426712 10.241653
-8.155960 -1.427994 10.235916
-8.138779 -1.431870 10.237198
-8.120773 -1.431625 10.244553
-8.076096 -1.404922 10.167038
-8.117355 -1.425919 10.145248
-8.118790 -1.428024 10.134262
-8.083267 -1.410538 10.135239
-8.115311 -1.429367 10.180954
-8.099503 -1.419388 10.161026
-8.075333 -1.409134 10.177475
-8.092484 -1.421249 10.168289
-8.058640 -1.389267 10.164505
-8.057602 -1.385971 10.150925
-8.111313 -1.431198 10.227066
-8.101852 -1.424728 10.206985
-8.119370 -1.429977 10.192978
-8.070053 -1.408920 10.209824
-8.090195 -1.421341 10.217056
-8.069382 -1.408096 10.222488
-8.081985 -1.413620 10.229935
-8.047104 -1.384171 10.242630
-8.054672 -1.391190 10.210495
-8.051071 -1.384842 10.194992
-8.211044 -1.368668 10.241806
-8.215897 -1.264542 10.179306
-8.208633 -1.365952 10.212540
-8.220596 -1.300919 10.230118
-8.214645 -1.281937 10.248978
-8.013901 -1.328720 10.243301
-8.019424 -1.332352 10.175278
-8.041489 -1.362411 10.126266
-8.048904 -1.369919 10.139816
-8.023056 -1.338303 10.150864
-8.021866 -1.332016 10.127090
-8.017685 -1.316696 10.139816
-8.019394 -1.328476 10.143387
-8.034622 -1.361252 10.169815
-8.042160 -1.371445 10.164444
-8.029556 -1.354019 10.167252
-8.012222 -1.315811 10.185226
-8.003860 -1.316818 10.177811
-8.035538 -1.266769 10.172409
-8.017136 -1.302048 10.145706
-8.017654 -1.295242 10.135483
-8.024857 -1.294388 10.128494
-8.010147 -1.283157 10.126297
-8.040237 -1.268448 10.125046
-8.012863 -1.294449 10.181717
-8.007309 -1.277206 10.174118
-8.006516 -1.280228 10.159470
-8.018661 -1.275497 10.185165
-8.020370 -1.255905 10.183456
-8.014389 -1.336838 10.244949
-8.039322 -1.372116 10.212296
-8.029617 -1.360397 10.215988
-8.025925 -1.355606 10.213791
-8.018295 -1.337509 10.197220
-8.010361 -1.315506 10.235550
-8.016586 -1.333054 10.223160
-8.036545 -1.270370 10.226974
-8.015182 -1.301865 10.194778
-8.012802 -1.302139 10.243454
-8.019211 -1.294479 10.228043
-8.010941 -1.294144 10.231949
-8.031174 -1.257584 10.249893
-8.485397 -1.054092 10.067154
-8.471390 -1.079086 10.018753
-8.487686 -1.086563 10.002548
-8.484268 -1.114548 10.017868
-8.493973 -1.100388 10.012680
-8.439377 -1.090347 10.002090
-8.456894 -1.063614 10.003403
-8.441177 -1.066025 10.003708
-8.485519 -1.032730 10.060593
-8.476944 -1.050125 10.026840
-8.495163 -1.059830 10.025589
-8.495468 -1.055862 10.043594
-8.485611 -1.045578 10.034225
-8.444992 -1.059219 10.041336
-8.449753 -1.048721 10.037552
-8.225327 -1.238388 10.096786
-8.197922 -1.232132 10.103287
-8.223984 -1.243179 10.033188
-8.193253 -1.237350 10.039230
-8.200516 -1.222336 10.039261
-8.179062 -1.205521 10.033554
-8.125534 -1.217300 10.003098
-8.151718 -1.211868 10.005142
-8.151108 -1.212326 10.058426
-8.152664 -1.201889 10.042160
-8.125687 -1.200333 10.052933
-8.235458 -1.248734 10.069382
-8.191879 -1.235611 10.090622
-8.209396 -1.221695 10.065109
-8.152023 -1.217087 10.116043
-8.151413 -1.208542 10.102768
-8.127029 -1.200912 10.106888
-8.117722 -1.212845 10.101578
-8.118027 -1.211502 10.047256
-8.063644 -1.247177 10.006516
-8.123062 -1.202805 10.002579
-8.093491 -1.224930 10.059097
-8.085098 -1.221207 10.036301
-8.090073 -1.230209 10.036423
-8.088425 -1.222977 10.047409
-8.061935 -1.244583 10.056992
-8.059586 -1.241318 10.020920
-8.086441 -1.219437 10.097153
-8.074936 -1.222122 10.087692
-8.087509 -1.230545 10.086044
-8.091385 -1.210464 10.077682
-8.055679 -1.199265 10.101883
-8.061264 -1.245560 10.075851
-8.048141 -1.237045 10.067337
-8.055557 -1.240677 10.067490
-8.050125 -1.236191 10.119766
-8.057846 -1.234940 10.101059
-8.051559 -1.240067 10.114365
-8.018234 -1.206619 10.117203
-8.009811 -1.147812 10.104324
-8.042923 -1.182388 10.104385
-8.030014 -1.162247 10.109299
-8.195602 -1.245163 10.225296
-8.199234 -1.232834 10.157700
-8.152176 -1.210403 10.158432
-8.178696 -1.214676 10.150314
-8.127701 -1.206802 10.220932
-8.176590 -1.223312 10.213760
-8.152847 -1.212601 10.214737
-8.154587 -1.228622 10.234024
-8.068130 -1.221085 10.236008
-8.122665 -1.214706 10.175827
-8.119461 -1.219559 10.154007
-8.084641 -1.230515 10.135452
-8.095352 -1.205093 10.125168
-8.085403 -1.218704 10.149765
-8.117538 -1.214584 10.156540
-8.061447 -1.212143 10.160721
-8.057297 -1.235672 10.155045
-8.059219 -1.246323 10.126266
-8.025742 -1.241379 10.149887
-8.056839 -1.246750 10.176437
-8.052963 -1.233414 10.170303
-8.116104 -1.212662 10.208267
-8.120987 -1.223557 10.209061
-8.086411 -1.223892 10.208206
-8.057480 -1.249985 10.230545
-8.054886 -1.230972 10.204117
-8.053909 -1.234879 10.225845
-8.211197 -1.336960 10.338303
-8.191544 -1.382645 10.342300
-8.195938 -1.381607 10.279312
-8.197861 -1.387009 10.276199
-8.185013 -1.395187 10.288010
-8.156448 -1.419693 10.259567
-8.142136 -1.430862 10.252640
-8.184952 -1.405777 10.255295
-8.172623 -1.409042 10.298630
-8.156845 -1.427505 10.290939
-8.171860 -1.419113 10.296707
-8.127090 -1.428909 10.296951
-8.136459 -1.434372 10.296463
-8.139969 -1.432693 10.290359
-8.197678 -1.381943 10.338150
-8.185532 -1.399521 10.373764
-8.154190 -1.421280 10.318954
-8.185410 -1.403427 10.313156
-8.168106 -1.410019 10.362015
-8.157700 -1.426743 10.346786
-8.172440 -1.417221 10.354294
-8.127335 -1.431198 10.352615
-8.141037 -1.432816 10.344864
-8.133133 -1.435562 10.344193
-8.182083 -1.396622 10.348740
-8.099594 -1.436478 10.367203
-8.105545 -1.431412 10.305679
-8.108871 -1.431503 10.275803
-8.103653 -1.427811 10.256516
-8.067825 -1.407822 10.273300
-8.087051 -1.422348 10.264664
-8.069962 -1.406784 10.262253
-8.084488 -1.419571 10.275406
-8.122208 -1.433243 10.296585
-8.082993 -1.424301 10.311081
-8.066879 -1.407730 10.310226
-8.051682 -1.389755 10.311264
-8.057053 -1.389908 10.272079
-8.054184 -1.389420 10.262344
-8.044449 -1.383713 10.292191
-8.107651 -1.435532 10.354324
-8.103287 -1.434982 10.319870
-8.086624 -1.423904 10.323563
-8.063126 -1.406998 10.320389
-8.124069 -1.436630 10.346359
-8.089249 -1.430313 10.368942
-8.079849 -1.425278 10.359146
-8.064102 -1.408279 10.358963
-8.062485 -1.403091 10.361832
-8.037918 -1.382584 10.337082
-8.059433 -1.395157 10.318802
-8.058945 -1.406296 10.368484
-8.047836 -1.391495 10.358261
-8.037003 -1.376419 10.353470
-8.029892 -1.375168 10.355820
-8.198929 -1.367722 10.339584
-8.216049 -1.319321 10.283554
-8.202438 -1.366470 10.277939
-8.209030 -1.351730 10.276260
-8.195023 -1.250290 10.285233
-8.210403 -1.281326 10.251999
-8.210434 -1.264267 10.264603
-8.210587 -1.283005 10.311172
-8.215775 -1.301773 10.293472
-8.205399 -1.352951 10.338089
-8.209244 -1.356522 10.313828
-8.194199 -1.256058 10.346176
-8.207199 -1.292740 10.319077
-8.206863 -1.265488 10.326096
-8.210068 -1.285110 10.368149
-8.213943 -1.303513 10.352463
-8.008163 -1.335129 10.368515
-8.009933 -1.336105 10.292282
-8.037643 -1.371628 10.262222
-8.027084 -1.359970 10.265549
-8.023697 -1.355637 10.262894
-8.012680 -1.334885 10.269608
-8.002060 -1.314133 10.277878
-8.034683 -1.372452 10.310318
-8.020798 -1.356461 10.311081
-8.019882 -1.358749 10.309464
-8.009903 -1.327713 10.292099
-8.014694 -1.274887 10.285751
-8.016342 -1.294510 10.278183
-8.034439 -1.271072 10.277939
-8.029465 -1.256943 10.271988
-8.009293 -1.303574 10.290604
-8.007187 -1.281631 10.285873
-8.015610 -1.255142 10.283005
-8.017258 -1.358292 10.359512
-8.033188 -1.365707 10.314560
-8.005600 -1.335373 10.340012
-8.010513 -1.334946 10.319046
-8.017349 -1.357803 10.358719
-8.029099 -1.257248 10.353714
-8.007126 -1.303574 10.340225
-8.018021 -1.298721 10.334030
-8.004684 -1.293137 10.330185
-8.034134 -1.273453 10.331375
-8.053177 -1.251358 10.332657
-8.013046 -1.274612 10.336929
-8.028854 -1.257614 10.326706
-8.128494 -1.446274 10.442490
-8.125748 -1.439163 10.397659
-8.126968 -1.439590 10.387650
-8.197586 -1.377182 10.400192
-8.188889 -1.384171 10.403152
-8.185349 -1.394455 10.436569
-8.158890 -1.427444 10.400864
-8.129471 -1.433975 10.405716
-8.151688 -1.422836 10.379227
-8.142776 -1.435776 10.395615
-8.167892 -1.412186 10.418991
-8.173141 -1.415878 10.411453
-8.153091 -1.425430 10.433640
-8.179123 -1.398026 10.410049
-8.185745 -1.391769 10.496292
-8.159683 -1.426407 10.457901
-8.132217 -1.436935 10.458237
-8.143997 -1.436417 10.450150
-8.184708 -1.385269 10.466873
-8.162674 -1.413040 10.484451
-8.172775 -1.410019 10.475754
-8.147842 -1.426315 10.499283
-8.174759 -1.399094 10.474045
-8.104965 -1.447037 10.492935
-8.120438 -1.443985 10.430771
-8.095749 -1.438156 10.414505
-8.075302 -1.427658 10.405350
-8.045303 -1.400681 10.427719
-8.058151 -1.412216 10.402756
-8.041885 -1.395401 10.402054
-8.026657 -1.376297 10.404037
-8.112503 -1.449753 10.471878
-8.094803 -1.443985 10.459305
-8.112930 -1.448502 10.445633
-8.089157 -1.442673 10.457596
-8.079636 -1.450089 10.496201
-8.074539 -1.438156 10.475723
-8.060471 -1.438370 10.488998
-8.074814 -1.436935 10.483627
-8.070114 -1.430740 10.450699
-8.069901 -1.424057 10.441147
-8.023666 -1.400131 10.484665
