6.490158 3.274338 19.556412
6.420761 3.298782 19.570297
6.456985 3.310806 19.622940
6.489487 3.299026 19.623917
6.429642 3.329788 19.605179
6.416031 3.338486 19.608383
6.424728 3.321762 19.608353
6.430222 3.324326 19.622757
6.415085 3.341263 19.624100
6.391403 3.360733 19.613388
6.378769 3.361862 19.623611
6.401474 3.363327 19.620377
6.449600 3.336105 19.609177
6.476578 3.358963 19.564560
6.498215 3.361740 19.592941
6.440353 3.329483 19.619644
6.462509 3.319443 19.622787
6.488480 3.356369 19.596909
6.342758 3.444962 19.548630
6.346390 3.424850 19.551193
6.303909 3.494522 19.530685
6.355667 3.443405 19.543350
6.349319 3.467850 19.512009
6.359451 3.469101 19.525162
6.364517 3.470200 19.530197
6.347122 3.455460 19.557175
6.273422 3.388992 19.563156
6.335953 3.380020 19.608566
6.333420 3.388412 19.606888
6.323318 3.385544 19.601425
6.353256 3.397537 19.603378
6.343979 3.390762 19.615494
6.279282 3.465530 19.611832
6.303421 3.445694 19.590775
6.309921 3.495468 19.582809
6.294235 3.480759 19.586227
6.318222 3.468124 19.570328
6.316086 3.489426 19.574448
6.418503 3.439285 19.546036
6.408646 3.416946 19.538437
6.396194 3.433975 19.504623
6.428940 3.437332 19.557602
6.408920 3.434280 19.549423
6.457230 3.403549 19.555099
6.445969 3.404465 19.530716
6.481918 3.394730 19.537888
6.490158 3.377029 19.531967
6.479691 3.404190 19.560349
6.454391 3.375809 19.564194
6.276016 3.270309 19.748306
6.312454 3.257767 19.695755
6.498398 3.323685 19.670639
6.492142 3.312149 19.670151
6.499710 3.302383 19.628891
6.499710 3.295792 19.633530
6.457077 3.333694 19.627609
6.289749 3.497055 19.662582
6.327255 3.430313 19.632034
6.317612 3.425095 19.637100
6.322617 3.414963 19.630478
6.290207 3.465134 19.632919
6.284500 3.460007 19.640701
6.286942 3.475845 19.627731
6.264023 3.489700 19.699387
6.060989 3.038498 19.912094
6.215347 3.097702 19.788864
6.239792 3.065262 19.752731
6.115494 3.203232 19.781082
6.078049 3.179489 19.874771
6.096359 3.152084 19.824783
6.082779 3.186111 19.835403
6.066025 3.184708 19.835678
6.078415 3.222855 19.873703
6.234970 3.206985 19.782425
6.234085 3.140152 19.848923
6.036453 3.025925 19.879929
6.119125 3.117447 19.983017
6.093094 3.119858 19.959763
6.083633 3.125687 19.918991
6.105301 3.129135 19.914658
6.093430 3.131332 19.888809
6.091385 3.166672 19.937546
6.129562 3.249954 19.879196
6.286606 3.088455 19.932846
6.261063 3.073380 19.751297
6.301620 3.023392 19.809494
6.277390 3.027756 19.756638
6.302902 3.119827 19.830307
6.465744 3.074020 19.781754
6.384109 3.053085 19.772690
6.492630 3.042984 19.807755
6.467178 3.046310 19.760757
6.385300 3.065689 19.769852
6.499588 3.078476 19.803513
6.485397 3.063919 19.776230
6.490860 3.093094 19.799118
6.477097 3.094894 19.855820
6.473312 3.123215 19.820663
6.295761 3.220047 19.774490
6.370895 3.166000 19.752487
6.253677 3.205399 19.869247
6.264450 3.248703 19.865555
6.488876 3.204758 19.795120
6.486649 3.149216 19.807388
6.476151 3.146011 19.802353
6.479080 3.197281 19.808151
6.493362 3.139084 19.841599
6.298996 3.084946 19.966171
6.309555 3.089005 19.966019
6.437912 3.049393 19.917404
6.488724 3.061752 19.910446
6.255539 3.237961 19.896194
6.252762 3.154678 19.906418
6.273270 3.180527 19.900803
6.354691 3.185806 19.885178
6.285751 3.245621 19.940201
6.361557 3.248734 19.981857
6.066574 3.315170 19.918869
6.116226 3.314682 19.779282
6.070480 3.265121 19.782761
6.057571 3.279770 19.842636
6.018906 3.360519 19.867508
6.248642 3.271774 19.760971
6.194138 3.284164 19.768661
6.149277 3.329605 19.848495
6.158890 3.318344 19.829788
6.173325 3.315414 19.862930
6.170639 3.314133 19.866287
6.003281 3.468246 19.809433
6.035904 3.479385 19.805527
6.048569 3.469437 19.870743
6.086990 3.319199 19.932175
6.056961 3.307877 19.936447
6.046494 3.305435 19.931656
6.071609 3.310989 19.937088
6.010818 3.347641 19.912643
6.077225 3.314621 19.937332
6.036606 3.299911 19.941330
6.083633 3.297928 19.952499
6.076035 3.290207 19.964279
6.119919 3.319351 19.982224
6.097916 3.320084 19.944962
6.108353 3.323227 19.947311
6.068161 3.369064 19.963486
6.114426 3.367508 19.983139
6.124649 3.369247 19.991837
6.158829 3.314804 19.913528
6.144882 3.284500 19.901382
6.131790 3.292343 19.899521
6.125931 3.287735 19.976242
6.191086 3.301041 19.942368
6.148148 3.339462 19.938919
6.138504 3.333939 19.947525
6.129471 3.326187 19.967178
6.003738 3.454727 19.924667
6.066116 3.414291 19.922012
6.076492 3.416428 19.928787
6.018356 3.387161 19.970078
6.008102 3.384659 19.965866
6.047562 3.400742 19.953903
6.058060 3.400558 19.971024
6.038773 3.392990 19.974960
6.189499 3.461746 19.996780
6.185532 3.441849 19.974625
6.205429 3.448624 19.948471
6.328049 3.346603 19.989853
6.268906 3.288101 19.782547
6.288620 3.284897 19.753616
6.362839 3.283493 19.844162
6.378708 3.260117 19.838516
6.266312 3.326584 19.969284
6.450394 3.314743 19.909042
6.377609 3.276657 19.899521
6.386398 3.261398 19.901962
6.367142 3.479965 19.929550
6.321091 3.480820 19.974045
6.891953 3.000443 19.896164
6.522507 3.246933 19.686234
6.577286 3.103226 19.542068
6.514206 3.085373 19.541397
6.511063 3.090744 19.529434
6.520554 3.068344 19.537277
6.526047 3.117508 19.532303
6.597366 3.114883 19.531876
6.564865 3.089188 19.518814
6.572037 3.071671 19.516281
6.585251 3.115921 19.507278
6.569107 3.207382 19.520950
6.525467 3.151932 19.543686
6.501816 3.166061 19.527725
6.536453 3.171890 19.514847
6.529800 3.127274 19.540207
6.533493 3.137314 19.548935
6.568680 3.151535 19.538223
6.580368 3.151657 19.557968
6.516983 3.204575 19.537369
6.528061 3.188583 19.522598
6.558212 3.212509 19.515152
6.544724 3.193588 19.508896
6.549026 3.196823 19.526810
6.559250 3.201157 19.527847
6.540237 3.188034 19.545761
6.514175 3.224319 19.554062
6.551895 3.244370 19.545883
6.562180 3.249100 19.545670
6.542313 3.237534 19.555679
6.558701 3.145401 19.568771
6.550034 3.134995 19.570145
6.549118 3.161057 19.563797
6.517014 3.184555 19.664871
6.513687 3.238571 19.703781
6.513504 3.367844 19.656540
6.525101 3.330612 19.561478
6.538742 3.276901 19.541336
6.510880 3.264420 19.502335
6.554245 3.265701 19.549606
6.549789 3.297287 19.542160
6.560135 3.310806 19.547104
6.547318 3.332169 19.546158
6.547256 3.317520 19.511765
6.537338 3.313919 19.539169
6.559097 3.279068 19.624435
6.535324 3.279404 19.580063
6.544785 3.286209 19.570175
6.504013 3.300827 19.621841
6.565781 3.294388 19.575882
6.500137 3.331985 19.608414
6.551315 3.339798 19.568222
6.537186 3.329788 19.586868
6.536026 3.337540 19.587326
6.546951 3.335373 19.582565
6.551590 3.337814 19.585739
6.556870 3.339432 19.584641
6.517563 3.373550 19.580765
6.507736 3.367691 19.586197
6.557419 3.365189 19.588547
6.538986 3.354935 19.591446
6.551315 3.357315 19.591568
6.540726 3.366257 19.584152
6.528702 3.374435 19.597916
6.552109 3.374496 19.597275
6.567062 3.342819 19.590195
6.519333 3.376480 19.552292
6.523575 3.386551 19.560959
6.507217 3.377731 19.552322
6.537827 3.380692 19.589615
6.587143 3.405167 19.584915
6.517929 3.320663 19.625229
6.507828 3.310806 19.663467
6.505630 3.304367 19.631790
6.510147 3.305008 19.637039
6.511490 3.313187 19.630966
6.524704 3.077927 19.885941
6.509842 3.005386 19.804306
6.539322 3.051254 19.874924
6.552261 3.018997 19.839249
6.524460 3.058762 19.821213
6.551651 3.032974 19.873734
6.517715 3.072678 19.826248
6.510422 3.161850 19.774673
6.507523 3.159561 19.847397
6.502182 3.199173 19.840714
6.509628 3.080338 19.896164
6.541183 3.000381 19.928940
6.539383 3.018570 19.890671
6.532303 3.012100 19.904800
6.560013 3.051224 19.881912
6.567245 3.039993 19.884079
6.536423 3.075851 19.892166
6.524460 3.144180 19.891953
6.881271 3.049149 19.894547
6.874619 3.013077 19.818924
6.886856 3.031876 19.870895
6.897629 3.019882 19.836594
6.899399 3.034470 19.982162
6.911667 3.035873 19.999924
6.365189 3.872086 19.922806
6.081711 3.588211 19.681320
6.099289 3.569473 19.500626
6.092545 3.554703 19.556168
6.018936 3.582748 19.622543
6.019547 3.622971 19.611465
6.044174 3.622330 19.622055
6.074326 3.601669 19.599045
6.086105 3.609909 19.610977
6.070572 3.619553 19.615433
6.105850 3.621078 19.601761
6.104507 3.611282 19.611771
6.198135 3.585220 19.600967
6.231308 3.512589 19.614578
6.242111 3.561447 19.563736
6.244705 3.556046 19.597855
6.135788 3.607071 19.616470
6.180283 3.568192 19.593735
6.182358 3.623672 19.623886
6.208908 3.584213 19.624802
6.215500 3.599930 19.566330
6.054214 3.627701 19.608139
6.020432 3.663864 19.611557
6.029556 3.667221 19.611130
6.238449 3.647720 19.618515
6.096848 3.593307 19.641037
6.020554 3.505142 19.664413
6.005051 3.579391 19.685471
6.010117 3.575699 19.636826
6.017807 3.610245 19.628433
6.008835 3.603745 19.644028
6.029831 3.512711 19.690567
6.025833 3.548782 19.701096
6.007065 3.541855 19.700180
6.016342 3.545853 19.696640
6.019333 3.560776 19.712784
6.045273 3.556046 19.696426
6.073166 3.524765 19.690964
6.015488 3.587723 19.703506
6.042068 3.573746 19.710037
6.176804 3.615616 19.664017
6.224197 3.501419 19.664993
6.198349 3.528000 19.639084
6.203384 3.510269 19.627029
6.236099 3.543686 19.631485
6.220535 3.533188 19.626022
6.226608 3.538651 19.636887
6.155319 3.610641 19.634598
6.146378 3.604691 19.646011
6.178879 3.596878 19.739487
6.071152 3.744858 19.642288
6.012344 3.654373 19.642654
6.046951 3.656113 19.627274
6.072891 3.663773 19.684128
6.099289 3.629623 19.627365
6.025864 3.701218 19.676804
6.082138 3.677628 19.724533
6.017685 3.693130 19.701157
6.002853 3.741623 19.711105
6.039047 3.738663 19.692154
6.070633 3.711929 19.724167
6.167465 3.658585 19.665146
6.179489 3.651657 19.719284
6.149216 3.661057 19.696854
6.145767 3.736130 19.729019
6.152695 3.692795 19.710709
6.150467 3.737595 19.707657
6.173660 3.744644 19.728134
6.263107 3.504379 19.632187
6.267136 3.519760 19.549271
6.283188 3.512894 19.554703
6.296066 3.540543 19.534012
6.251633 3.506882 19.600998
6.266708 3.523605 19.589279
6.289658 3.524582 19.591904
6.250046 3.530502 19.613205
6.280136 3.551346 19.603561
6.499649 3.745987 19.543869
6.425613 3.673477 19.518936
6.250839 3.504501 19.655930
6.313553 3.744736 19.725906
6.085983 3.869522 19.677658
6.048050 3.870132 19.606613
6.055130 3.872452 19.617477
6.055557 3.871597 19.563065
6.080185 3.884933 19.604630
6.063278 3.877151 19.609970
6.070328 3.884537 19.580887
6.097610 3.893021 19.599197
6.091110 3.863083 19.626266
6.071579 3.765701 19.673477
6.005081 3.840805 19.679550
6.055832 3.840530 19.644302
6.013626 3.846329 19.668198
6.048203 3.860733 19.662125
6.031662 3.849655 19.685349
6.080063 3.857346 19.647293
6.072433 3.848679 19.651901
6.032639 3.764664 19.742081
6.026566 3.802658 19.693802
6.039261 3.802505 19.688339
6.041061 3.801529 19.706650
6.049210 3.800552 19.716415
6.005081 3.783493 19.719070
6.002640 3.874832 19.741776
6.051041 3.836441 19.690720
6.043350 3.827591 19.695358
6.048447 3.814011 19.690018
6.059036 3.821579 19.713150
6.056839 3.847427 19.696304
6.041397 3.849747 19.703323
6.089249 3.849289 19.744980
6.248856 3.799759 19.632797
6.217117 3.867294 19.725510
6.118271 3.890152 19.671677
6.050278 3.898300 19.657150
6.051865 3.892288 19.631638
6.037857 3.889603 19.667526
6.119431 3.914230 19.658646
6.018082 3.934464 19.730057
6.015793 3.883621 19.709702
6.022079 3.889694 19.714828
6.080673 3.906998 19.694565
6.026749 3.937790 19.730301
6.108078 3.983627 19.749771
6.181992 3.956711 19.737930
6.232712 3.925797 19.720535
6.137039 3.981461 19.737259
6.319565 3.874283 19.670883
6.293777 3.862656 19.669540
6.303513 3.863327 19.687454
6.313919 3.861160 19.720505
6.439621 3.818130 19.684830
6.257950 3.939224 19.711014
6.428207 3.991745 19.681656
6.420914 3.946640 19.706955
6.105057 3.580124 19.915756
6.029953 3.601791 19.806717
6.000320 3.525406 19.765121
6.106766 3.516678 19.870316
6.098923 3.531601 19.872208
6.093216 3.586166 19.867447
6.113083 3.597641 19.816452
6.124619 3.585007 19.857132
6.068130 3.597641 19.859390
6.171402 3.585800 19.776413
6.155411 3.548630 19.769669
6.223618 3.521744 19.846420
6.231949 3.593674 19.851273
6.094589 3.702469 19.793198
6.087082 3.748764 19.796616
6.079453 3.713547 19.765121
6.084427 3.702499 19.774582
6.111069 3.716629 19.756424
6.101669 3.713760 19.752548
6.089462 3.732803 19.766068
6.077713 3.747635 19.784683
6.069656 3.738846 19.812210
6.116470 3.724838 19.787247
6.061874 3.653427 19.870621
6.093216 3.632126 19.873886
6.084671 3.642380 19.823471
6.122635 3.651718 19.847488
6.114670 3.643631 19.870865
6.016129 3.744797 19.870926
6.061569 3.731735 19.831436
6.084183 3.709427 19.856674
6.124649 3.700455 19.858109
6.194412 3.689621 19.804214
6.146072 3.680374 19.799484
6.146561 3.677261 19.772018
6.165787 3.681381 19.788467
6.175735 3.682938 19.799881
6.198349 3.654404 19.797775
6.151291 3.702072 19.810287
6.182938 3.694901 19.757767
6.152542 3.726059 19.767685
6.156662 3.733383 19.762741
6.159592 3.709244 19.799423
6.165665 3.718643 19.800522
6.139664 3.719986 19.793839
6.183945 3.746140 19.784225
6.167496 3.730545 19.796921
6.176712 3.733597 19.800308
6.210922 3.724411 19.786758
6.190140 3.734451 19.752274
6.129349 3.675522 19.835220
6.220413 3.668015 19.828049
6.133133 3.706284 19.846329
6.183975 3.734909 19.821609
6.168655 3.749710 19.858566
6.188248 3.727280 19.852463
6.197739 3.730423 19.856277
6.111832 3.623917 19.876541
6.120865 3.594864 19.982407
6.071701 3.609207 19.956406
6.213974 3.578384 19.901077
6.175461 3.515030 19.877396
6.193436 3.504684 19.906876
6.223892 3.542557 19.875565
6.133347 3.590988 19.915421
6.136642 3.595749 19.896317
6.151688 3.599777 19.907608
6.142532 3.594437 19.915970
6.161423 3.600937 19.919815
6.170486 3.605453 19.915421
6.177261 3.614792 19.926193
6.218460 3.619919 19.888290
6.149094 3.521042 19.979935
6.228134 3.606369 19.973984
6.082962 3.726791 19.897232
6.078140 3.625198 19.892563
6.105606 3.638016 19.880875
6.110916 3.670059 19.900711
6.100388 3.734482 19.890091
6.085587 3.661148 19.961838
6.112045 3.725937 19.953140
6.204849 3.740891 19.922775
6.144211 3.645798 19.914383
6.133377 3.649673 19.876694
6.219254 3.673080 19.928970
6.244431 3.640915 19.891220
6.208328 3.674759 19.900101
6.135147 3.721054 19.914230
6.158096 3.744339 19.880264
6.219284 3.724960 19.924393
6.234543 3.741287 19.878281
6.226273 3.735947 19.886673
6.181870 3.653030 19.940842
6.243912 3.647079 19.949814
6.225052 3.717972 19.980240
6.210983 3.718582 19.937973
6.300888 3.603226 19.918716
6.275558 3.741745 19.808273
6.261765 3.652298 19.872421
6.279709 3.713394 19.861557
6.254929 3.724533 19.841782
6.286880 3.727646 19.815201
6.253464 3.707840 19.863449
6.349594 3.572311 19.942551
6.312149 3.552078 19.960281
6.331924 3.559952 19.963181
6.342819 3.610245 19.940567
6.354233 3.728043 19.904251
6.260239 3.660660 19.926590
6.253586 3.644943 19.890305
6.301407 3.627914 19.895859
6.261215 3.672440 19.904373
6.357651 3.681320 19.917191
6.347061 3.631454 19.903427
6.321915 3.667496 19.897995
6.274857 3.698166 19.900284
6.258926 3.679153 19.972366
6.308029 3.656631 19.950974
6.349258 3.678604 19.941238
6.112747 3.868637 19.927475
6.010025 3.828537 19.798782
6.050095 3.799850 19.793350
6.004013 3.801682 19.761276
6.002243 3.820297 19.805313
6.007706 3.820969 19.777847
6.009689 3.759048 19.833176
6.051773 3.816116 19.856186
6.015701 3.839310 19.821609
6.222672 3.863937 19.775833
6.141434 3.768570 19.804947
6.148788 3.779068 19.768936
6.143265 3.754715 19.852371
6.160507 3.771774 19.826645
6.135422 3.751877 19.873093
6.140091 3.871048 19.849319
6.111038 3.963028 19.781967
6.001572 3.893539 19.784042
6.095718 3.935684 19.766525
6.039261 3.958694 19.809402
6.114883 3.960556 19.795364
6.117630 3.938553 19.755569
6.121689 3.970200 19.761215
6.098129 3.951492 19.806015
6.117874 3.973282 19.784134
6.106857 3.983078 19.788437
6.004929 3.893692 19.862656
6.014206 3.877457 19.859848
6.072128 3.911636 19.820694
6.023392 3.962143 19.853470
6.090744 3.938797 19.859543
6.112228 3.960068 19.826797
6.107620 3.952072 19.822861
6.113785 3.987869 19.833420
6.075241 3.971146 19.853531
6.236679 3.984299 19.805527
6.148209 3.920731 19.769150
6.242722 3.924240 19.750168
6.146774 3.942429 19.797562
6.142593 3.998093 19.765823
6.130295 3.972794 19.766464
6.147568 3.948898 19.806747
6.130966 3.994278 19.791550
6.125259 3.982651 19.782791
6.142380 3.941849 19.819107
6.168930 3.962509 19.837540
6.022568 3.813095 19.906052
6.025223 3.799393 19.925980
6.033432 3.782608 19.988815
6.039505 3.787460 19.942001
6.010300 3.832870 19.940872
6.004929 3.815262 19.964951
6.171341 3.868820 19.929611
6.173264 3.760330 19.906509
6.167679 3.760941 19.892014
6.191360 3.768295 19.904465
6.230118 3.762100 19.887375
6.131912 3.780472 19.971939
6.184402 3.756760 19.945633
6.140976 3.784103 19.972183
6.151230 3.782578 19.999924
6.177322 3.796799 19.983536
6.248428 3.778763 19.970871
6.202042 3.765182 19.940750
6.211624 3.766312 19.954636
6.142288 3.850571 19.978775
6.068741 3.967545 19.918839
6.087814 3.887497 19.924515
6.066513 3.911179 19.875839
6.121597 3.875198 19.914780
6.050949 3.962662 19.906937
6.007614 3.964493 19.903976
6.016983 3.950546 19.900253
6.036819 3.957199 19.908371
6.078537 3.956375 19.924271
6.122849 3.960190 19.878220
6.115555 3.939194 19.883194
6.085495 3.974869 19.916367
6.013077 3.890945 19.987350
6.088821 3.913376 19.979233
6.070541 3.909317 19.962357
6.115036 3.924271 19.937759
6.061050 3.960342 19.939774
6.109848 3.989395 19.957474
6.123550 3.981827 19.962845
6.103622 3.968918 19.964035
6.128830 3.984970 19.888412
6.129715 3.891800 19.918076
6.155228 3.899796 19.937393
6.241592 3.900467 19.915634
6.217514 3.891495 19.875046
6.151016 3.985977 19.890671
6.181625 3.891678 19.948837
6.129959 3.907028 19.943436
6.154343 3.943253 19.965164
6.161728 3.952682 19.963791
6.282455 3.861435 19.898209
6.318314 3.852707 19.807907
6.266708 3.772324 19.798172
6.346939 3.762741 19.773331
6.364059 3.794479 19.780838
6.287643 3.769516 19.854599
6.276749 3.773087 19.815414
6.322708 3.788040 19.842117
6.324966 3.820328 19.857162
6.355606 3.834000 19.870071
6.424088 3.771347 19.843124
6.268967 3.940659 19.797592
6.251663 3.926895 19.757004
6.254135 3.988266 19.802689
6.267776 3.893204 19.839066
6.293961 3.953293 19.836472
6.276352 3.979721 19.840530
6.314041 3.943832 19.848068
6.298233 3.848282 19.903671
6.318954 3.766098 19.936508
6.284470 3.819412 19.972855
6.343185 3.847458 19.958542
6.355698 3.941635 19.922928
6.263992 3.916000 19.935226
6.253250 3.993820 19.920181
6.254745 3.940964 19.878677
6.290634 3.990219 19.905106
6.368759 3.891159 19.945847
6.764420 3.547989 19.617172
6.749832 3.502426 19.547165
6.510971 3.749313 19.516220
7.212448 3.006271 19.914688
7.221725 3.014938 19.903641
7.762619 3.075516 19.755692
7.423599 4.578506 17.431778
7.422409 4.603256 17.455795
7.439468 4.561569 17.441055
7.698563 4.547806 17.472397
7.418686 4.372116 17.764633
7.370773 4.329575 17.738693
7.468216 4.489853 17.622879
7.379837 4.399673 17.611801
7.436966 4.478745 17.623459
7.467941 4.477646 17.623550
7.365677 4.293472 17.749008
7.442001 4.360062 17.680222
7.389511 4.329300 17.667984
7.436050 4.330582 17.639145
7.430405 4.373276 17.672318
7.423996 4.365067 17.680374
7.486526 4.369522 17.668259
7.478226 4.364517 17.659714
7.472519 4.355911 17.670853
7.408310 4.336349 17.729813
7.360458 4.404739 17.650986
7.458572 4.459335 17.659744
7.425491 4.376144 17.667709
7.432755 4.431198 17.625534
7.418320 4.424301 17.627365
7.421280 4.427261 17.651169
7.426865 4.435410 17.641190
7.426743 4.434738 17.647842
7.423477 4.427139 17.652237
7.432541 4.432358 17.648575
7.437149 4.390518 17.668839
7.428421 4.386063 17.674271
7.412582 4.425522 17.669632
7.430649 4.407486 17.670395
7.445236 4.398026 17.673477
7.452866 4.392960 17.654312
7.443161 4.397079 17.672928
7.437973 4.379898 17.673019
7.445023 4.386185 17.673508
7.495773 4.378525 17.663528
7.494339 4.376022 17.670670
7.484695 4.388657 17.669998
7.485916 4.376450 17.677841
7.466629 4.426620 17.680099
7.436142 4.450821 17.632828
7.418198 4.465012 17.643448
7.434219 4.442093 17.641556
7.439316 4.454605 17.657578
7.463882 4.468582 17.645676
7.450729 4.454025 17.652847
7.445633 4.486069 17.626816
7.439407 4.480728 17.642654
7.444351 4.445480 17.661667
7.447525 4.465408 17.687119
7.469131 4.462448 17.664902
7.473495 4.471939 17.664688
7.489578 4.483810 17.676224
7.402481 4.387985 17.726212
7.405258 4.383957 17.704880
7.415848 4.403336 17.715042
7.391037 4.421249 17.698013
7.389633 4.425613 17.716385
7.419388 4.414078 17.689774
7.410751 4.393600 17.732224
7.420456 4.375778 17.726151
7.411209 4.397537 17.741531
7.494766 4.395065 17.726486
7.449265 4.414078 17.710434
7.470932 4.385056 17.732681
7.445969 4.414383 17.743729
7.430984 4.457291 17.744858
7.399948 4.449448 17.699966
7.443008 4.489517 17.700027
7.485092 4.473770 17.695114
7.416824 4.279770 17.758499
7.873062 4.432755 17.752914
7.837753 4.244614 17.667709
7.867935 4.074509 17.546890
7.841721 4.001511 17.543442
7.861588 4.030075 17.500748
7.862656 4.028763 17.536453
7.864059 4.015427 17.537277
7.847580 4.017807 17.533829
7.854904 4.023636 17.536667
7.858841 4.017654 17.542801
7.866684 4.025253 17.542313
7.851334 4.008072 17.550156
7.869919 4.034836 17.540634
7.874619 4.033615 17.539810
7.884995 4.070419 17.537369
7.883530 4.018753 17.552658
7.891678 4.048660 17.543076
7.877701 4.039902 17.540237
7.883072 4.040695 17.542496
7.885269 4.046127 17.544388
7.905960 4.061264 17.542953
7.899887 4.056442 17.543259
7.909531 4.061905 17.553970
7.901474 4.085037 17.556595
7.912460 4.091476 17.556534
7.906204 4.114578 17.560715
7.935287 4.120834 17.553391
7.916183 4.119400 17.557388
7.923996 4.124161 17.556900
7.901779 4.117874 17.572983
7.891891 4.097214 17.570267
7.883621 4.102097 17.568466
7.908066 4.116074 17.563248
7.914719 4.121872 17.563736
7.942337 4.132431 17.561630
7.951828 4.163956 17.549698
7.876572 4.166245 17.617661
7.923050 4.129166 17.566299
7.931259 4.136826 17.567642
7.924820 4.159225 17.587204
7.942490 4.186996 17.624283
7.938889 4.144974 17.566208
7.946854 4.152664 17.567062
7.944046 4.133194 17.578934
7.940689 4.178757 17.577469
7.984787 4.181992 17.571213
7.961472 4.215714 17.598587
7.977768 4.202469 17.579758
7.967667 4.222183 17.587204
7.967819 4.225082 17.590897
7.980423 4.244431 17.573685
7.991226 4.210983 17.608627
7.974289 4.208328 17.609238
7.981186 4.227158 17.623245
7.864792 4.249374 17.669266
7.874039 4.223587 17.662155
7.865952 4.232162 17.671158
7.947220 4.213028 17.643631
7.881943 4.231186 17.663101
7.902573 4.217819 17.627792
7.926987 4.208786 17.633865
7.928757 4.202042 17.629257
7.915634 4.213333 17.641495
7.909897 4.203568 17.652481
7.888077 4.240372 17.654709
7.920883 4.236588 17.651474
7.914169 4.238937 17.651962
7.887772 4.230515 17.666428
7.961472 4.195297 17.652115
7.581131 4.343063 17.671768
7.688675 4.299911 17.606491
7.734207 4.299576 17.575180
7.673508 4.454544 17.606186
7.680252 4.430954 17.601364
7.626938 4.391495 17.589523
7.658249 4.459915 17.601547
7.674820 4.480118 17.608322
7.665848 4.483047 17.613998
7.587021 4.318192 17.668839
7.601303 4.300735 17.676559
7.519424 4.329605 17.673233
7.501480 4.343124 17.655350
7.524155 4.343338 17.682480
7.529037 4.353897 17.663101
7.557571 4.362808 17.666245
7.537369 4.360489 17.666885
7.537643 4.370193 17.667343
7.589951 4.348038 17.682327
7.597336 4.349380 17.676926
7.624649 4.310287 17.723740
7.539963 4.316849 17.696579
7.550949 4.359207 17.711990
7.575027 4.318405 17.731705
7.578171 4.330215 17.703629
7.588211 4.353561 17.695480
7.708939 4.337112 17.665512
7.728867 4.296616 17.673447
7.633835 4.332321 17.682510
7.625748 4.325882 17.678543
7.675858 4.334702 17.670120
7.684097 4.325333 17.675095
7.677536 4.317276 17.680313
7.669235 4.337296 17.683517
7.665543 4.352097 17.686752
7.698441 4.340958 17.670273
7.739426 4.329269 17.651047
7.732498 4.321182 17.654587
7.746445 4.337082 17.648605
7.715164 4.368881 17.636002
7.691757 4.332687 17.675461
7.744675 4.349136 17.660141
7.676834 4.301041 17.727829
7.680588 4.295395 17.698959
7.671707 4.291122 17.743149
7.709641 4.282150 17.698013
7.654434 4.340378 17.719162
7.642258 4.337997 17.690048
7.661545 4.347610 17.718094
7.623215 4.492630 17.684830
7.530594 4.376938 17.639053
7.526566 4.380722 17.649643
7.505325 4.381851 17.653824
7.554398 4.444382 17.738968
7.530777 4.489639 17.745132
7.508652 4.489426 17.737350
7.709061 4.476089 17.684372
7.648514 4.428238 17.663559
7.665848 4.432663 17.649704
7.717636 4.418533 17.662582
7.691574 4.407394 17.625931
7.666641 4.489151 17.660324
7.670273 4.499741 17.639145
7.642471 4.384720 17.731766
7.648788 4.390396 17.727921
7.656815 4.396469 17.733688
7.701340 4.380569 17.737350
7.662277 4.463058 17.727280
7.639328 4.485916 17.691574
7.635300 4.494186 17.705978
7.645401 4.497940 17.715012
7.665817 4.494034 17.708908
7.671249 4.467880 17.740524
7.631729 4.493576 17.720413
7.769913 4.327805 17.667801
7.842667 4.267532 17.658005
7.807022 4.275772 17.659805
7.772720 4.296738 17.639297
7.769485 4.298752 17.655655
7.776962 4.306168 17.655807
7.806961 4.262985 17.666641
7.801682 4.265701 17.673599
7.862320 4.257004 17.658432
7.844833 4.252792 17.664505
7.853043 4.259933 17.667801
7.815231 4.282516 17.664047
7.780746 4.330521 17.709305
7.882736 4.253677 17.679398
7.971786 4.253677 17.744034
7.834122 4.428848 17.644058
7.825943 4.427811 17.747452
7.932419 4.466721 17.664627
7.639206 4.369675 17.763199
7.640488 4.470963 17.758041
7.645035 4.378891 17.752274
7.303055 4.819107 17.662796
7.463455 4.524734 17.658249
7.434708 4.586197 17.540634
7.407394 4.614243 17.549179
7.415390 4.617722 17.524429
7.442917 4.520645 17.595474
7.455551 4.535385 17.586777
7.491165 4.547379 17.566208
7.475632 4.557083 17.579483
7.479111 4.548508 17.592056
7.451065 4.525955 17.603836
7.465317 4.523483 17.622910
7.492722 4.519730 17.598923
7.469955 4.503036 17.610825
7.469406 4.506699 17.609695
7.460129 4.538986 17.601700
7.450546 4.534134 17.606705
7.466049 4.538589 17.610001
7.471298 4.547012 17.598953
7.469437 4.544907 17.600479
7.486862 4.558762 17.610245
7.417160 4.617447 17.570633
7.449936 4.583023 17.601028
7.485123 4.564804 17.584061
7.480240 4.620499 17.576187
7.314651 4.697403 17.541428
7.327194 4.646439 17.561874
7.345993 4.644974 17.542160
7.331009 4.638443 17.604538
7.335342 4.651047 17.579269
7.367874 4.627335 17.568497
7.325699 4.629684 17.617508
7.327530 4.747421 17.611679
7.332413 4.704422 17.577621
7.324783 4.699081 17.570145
7.356522 4.717789 17.576736
7.344406 4.710526 17.580643
7.334946 4.727859 17.580246
7.479691 4.635696 17.524216
7.397141 4.638260 17.560074
7.404251 4.638962 17.556534
7.460831 4.680954 17.503891
7.470047 4.685440 17.520065
7.375229 4.633865 17.570511
7.440384 4.507828 17.630478
7.448746 4.504593 17.644760
7.471970 4.523422 17.728134
7.469986 4.503220 17.704300
7.487961 4.546738 17.713791
7.470627 4.573318 17.701218
7.347855 4.700150 17.645706
7.395645 4.749985 17.637070
7.301987 4.822128 17.667801
7.332687 4.755325 17.601730
7.320877 4.791733 17.636246
7.598495 4.622269 17.772293
7.569321 4.570541 17.650314
7.515610 4.584000 17.621201
7.503128 4.557022 17.590836
7.517502 4.596603 17.586288
7.649368 4.563828 17.558090
7.651016 4.577103 17.522476
7.671616 4.524002 17.595871
7.669724 4.515305 17.589554
7.676132 4.577957 17.599014
7.671829 4.584427 17.567551
7.665024 4.577103 17.567917
7.650681 4.616806 17.583755
7.578354 4.693344 17.556808
7.564468 4.697708 17.608200
7.633560 4.713974 17.601425
7.641708 4.655472 17.595535
7.625778 4.654007 17.572800
7.655655 4.625961 17.571915
7.637100 4.656540 17.602829
7.647354 4.660477 17.624954
7.665115 4.684921 17.609238
7.640488 4.733475 17.564377
7.553665 4.575851 17.666489
7.537582 4.530960 17.641037
7.522385 4.556778 17.637802
7.619522 4.514938 17.665970
7.597153 4.528610 17.685989
7.578873 4.560593 17.668655
7.567123 4.558548 17.681808
7.510422 4.575516 17.632004
7.517105 4.595261 17.650650
7.525284 4.502640 17.727798
7.561478 4.550430 17.689377
7.611588 4.528244 17.692673
7.621109 4.518173 17.707169
7.593979 4.558243 17.691910
7.605911 4.533340 17.699234
7.610580 4.537033 17.690262
7.623520 4.532394 17.708755
7.613998 4.539932 17.704483
7.588181 4.564774 17.730576
7.589127 4.562668 17.691513
7.585434 4.575668 17.704941
7.591629 4.575180 17.708572
7.602036 4.565781 17.698563
7.678146 4.500626 17.661850
7.639023 4.500076 17.723312
7.641891 4.518875 17.706558
7.673416 4.741806 17.652634
7.658310 4.632523 17.643417
7.662460 4.673355 17.636093
7.658035 4.664139 17.649521
7.667343 4.734818 17.653000
7.619400 4.809006 17.668533
7.608597 4.812790 17.590195
7.646683 4.765182 17.679642
7.556503 4.526413 17.750809
5.313858 4.024429 19.118851
5.477127 4.019028 19.623886
5.487137 4.004166 19.621872
5.970474 4.160904 19.917068
5.851334 4.201370 19.664474
5.887131 4.171494 19.621597
5.887680 4.185074 19.583694
5.851303 4.182083 19.625473
5.900558 4.201859 19.639511
5.903488 4.185593 19.651810
5.914536 4.199722 19.652786
5.858017 4.012527 19.799515
5.913528 4.105148 19.808945
6.255600 4.315506 19.990799
6.274094 4.343857 19.980667
6.295181 4.333572 19.944412
6.101212 4.066147 19.739517
6.182114 4.189346 19.622910
6.209641 4.067245 19.721939
6.137680 4.000778 19.738052
6.218399 4.068619 19.735397
6.249710 4.088333 19.710129
6.214615 4.121719 19.714890
6.243790 4.079086 19.742508
6.240097 4.074692 19.748184
6.206558 4.115921 19.725388
6.198624 4.112350 19.724869
6.241318 4.098160 19.729599
6.220535 4.150711 19.666306
6.235825 4.147873 19.674210
6.235947 4.180222 19.729019
6.232224 4.217209 19.732956
6.231369 4.192551 19.687759
6.299911 4.084854 19.742416
6.293411 4.128708 19.613571
6.279007 4.114853 19.739426
6.297073 4.164749 19.682053
6.258255 4.137161 19.654129
6.262619 4.146652 19.705185
6.241226 4.090134 19.921402
6.118149 4.000626 19.784897
6.112381 4.015457 19.766434
6.116806 4.058212 19.773880
6.122726 4.010117 19.816238
6.118149 4.009506 19.822067
6.124313 4.018814 19.838303
6.097031 4.048233 19.823135
6.212357 4.086807 19.812027
6.155807 4.027420 19.801254
6.136307 4.004288 19.754166
6.166183 4.003281 19.765976
6.172226 4.059586 19.792435
6.168686 4.040451 19.783615
6.177231 4.045303 19.801620
6.172806 4.033371 19.809097
6.165390 4.047867 19.807419
6.242630 4.026230 19.797104
6.238266 4.027328 19.762802
6.195755 4.050125 19.776443
6.225784 4.062424 19.762527
6.233353 4.005661 19.797043
6.198624 4.042953 19.795120
6.154465 4.063034 19.806290
6.209244 4.112106 19.782822
6.197159 4.090012 19.780014
6.236252 4.072617 19.757309
6.227493 4.068710 19.756393
6.243729 4.091751 19.777969
6.232712 4.121567 19.759506
6.189224 4.122665 19.807755
6.220261 4.117508 19.792770
6.234909 4.102219 19.794296
6.147110 4.019852 19.871964
6.148544 4.019882 19.823349
6.137680 4.021774 19.832352
6.165482 4.026718 19.826370
6.171219 4.002670 19.841385
6.153732 4.039474 19.824722
6.143600 4.033463 19.840805
6.182236 4.032364 19.835678
6.140396 4.058792 19.865372
6.176102 4.036636 19.871048
6.218277 4.060715 19.847855
6.190506 4.036301 19.834335
6.156113 4.068649 19.850388
6.177567 4.082291 19.820084
6.163254 4.075424 19.831894
6.174118 4.080338 19.871719
6.225296 4.084396 19.846115
6.103531 4.214920 19.756088
6.219376 4.210892 19.794479
6.222763 4.129745 19.794724
6.214920 4.166733 19.766891
6.240585 4.156906 19.773941
6.230423 4.168198 19.777359
6.228500 4.185257 19.793411
6.247604 4.172348 19.799057
6.175217 4.209030 19.795547
6.242386 4.223007 19.789871
6.247360 4.214035 19.770920
6.240952 4.193039 19.776077
6.232712 4.224655 19.756180
6.191666 4.183243 19.870163
6.197159 4.184433 19.834152
6.212723 4.202835 19.819870
6.205338 4.196304 19.835587
6.197678 4.122635 19.933548
6.169327 4.018173 19.908279
6.150070 4.057602 19.893448
6.161911 4.008377 19.908310
6.139969 4.049454 19.915024
6.158066 4.049301 19.909653
6.190720 4.046951 19.936111
6.247421 4.050858 19.878036
6.153488 4.072495 19.896866
6.173996 4.070175 19.883713
6.234177 4.108810 19.933090
6.239761 4.066513 19.883652
6.127518 4.004898 19.979324
6.144699 4.008957 19.947861
6.127701 4.025436 19.953384
6.164169 4.084488 19.981064
6.173355 4.085739 19.960373
6.150681 4.104813 19.955185
6.184494 4.106339 19.986526
6.219315 4.083389 19.962387
6.191269 4.113907 19.963547
6.236679 4.123306 19.962112
6.217789 4.209915 19.929367
6.205643 4.128708 19.921249
6.199936 4.183517 19.889328
6.242813 4.160202 19.875900
6.228195 4.175064 19.898148
6.227249 4.151047 19.917587
6.232498 4.137558 19.923050
6.247330 4.125839 19.926163
6.216599 4.170242 19.917282
6.243149 4.183395 19.910812
6.179794 4.226761 19.881699
6.173294 4.220901 19.896561
6.232529 4.196365 19.888199
6.243820 4.215286 19.895004
6.195755 4.235001 19.878464
6.188980 4.226791 19.904922
6.212540 4.239090 19.900101
6.246384 4.239151 19.881485
6.209763 4.161026 19.955948
6.208847 4.206345 19.963791
6.249405 4.210678 19.964890
6.259384 4.114792 19.915787
6.329880 4.080887 19.802902
6.262558 4.078049 19.792801
6.264175 4.038406 19.853500
6.266464 4.035477 19.869461
6.309494 4.046738 19.859299
6.258835 4.101608 19.863663
6.267776 4.084763 19.821091
6.281296 4.072800 19.833908
6.480942 4.069351 19.772781
6.320938 4.188217 19.781998
6.251968 4.171249 19.786758
6.257309 4.134201 19.755447
6.280411 4.139236 19.777725
6.267960 4.153671 19.771286
6.297714 4.152115 19.765427
6.262192 4.183090 19.780594
6.271957 4.181778 19.812241
6.337631 4.161087 19.752823
6.327652 4.170364 19.776779
6.309402 4.206497 19.782425
6.277298 4.193558 19.765274
6.259048 4.188339 19.755356
6.295242 4.194351 19.807663
6.283951 4.201462 19.809067
6.250473 4.226517 19.792618
6.258560 4.229568 19.797623
6.289261 4.245499 19.795547
6.297348 4.248550 19.801468
6.252151 4.143204 19.871597
6.252884 4.151077 19.835068
6.288803 4.187027 19.828720
6.291031 4.147385 19.854294
6.281540 4.185989 19.848099
6.305313 4.192307 19.844650
6.320724 4.200607 19.842636
6.277634 4.112259 19.904984
6.286789 4.030228 19.883469
6.293472 4.007034 19.875107
6.351212 4.027176 19.924606
6.290451 4.117599 19.879959
6.294754 4.109909 19.894913
6.358597 4.000046 19.995163
6.292984 4.101181 19.953568
6.280899 4.216660 19.923874
6.262375 4.129868 19.909073
6.265396 4.129379 19.880661
6.274765 4.130508 19.901169
6.269577 4.207352 19.876328
6.271469 4.218430 19.889877
6.282547 4.188034 19.879501
6.263931 4.246475 19.996689
6.289993 4.217239 19.945114
6.302628 4.223251 19.948593
6.285782 4.220840 19.977554
6.234970 4.252762 19.885971
6.217300 4.251053 19.848740
6.225693 4.253311 19.858505
6.172562 4.269516 19.910019
6.211838 4.274399 19.986679
6.204391 4.269333 19.994339
6.196915 4.266342 19.990585
6.205765 4.278854 19.999374
6.215927 4.279037 19.993515
6.220139 4.276718 19.996353
6.206650 4.295944 19.998703
6.235336 4.285263 19.991226
6.227432 4.281784 19.988785
6.153427 4.313797 19.977737
6.214127 4.328354 19.982498
6.198654 4.321304 19.978561
6.206985 4.322800 19.993179
6.221542 4.331589 19.985184
6.124710 4.440231 19.974411
6.120224 4.450851 19.976425
6.182785 4.463821 19.900589
6.158401 4.402054 19.995987
6.163437 4.406693 19.985672
6.246414 4.390976 19.972427
6.237320 4.404831 19.976700
6.159073 4.453171 19.981918
6.166245 4.460251 19.983047
6.157669 4.454666 19.984787
6.266983 4.296677 19.977585
6.268021 4.279099 19.872696
6.181503 4.529709 19.980453
7.673752 0.802963 21.854050
7.815689 0.329788 20.391281
7.864578 0.368607 20.377274
7.966385 0.365585 20.175827
7.943253 0.357590 20.247330
7.935135 0.304947 20.249130
7.943192 0.285202 20.248795
7.991135 0.294022 20.201981
7.961868 0.370865 20.210739
7.949692 0.447708 20.194717
7.956833 0.380783 20.229538
7.951797 0.390854 20.248581
7.958176 0.375992 20.235123
7.954483 0.386002 20.235947
7.946823 0.405716 20.245041
7.942978 0.415756 20.249771
7.945633 0.245834 20.433762
7.937424 0.108231 20.306442
7.912125 0.102768 20.301437
7.893906 0.096207 20.264175
7.904739 0.242325 20.331955
7.902206 0.247543 20.336166
7.906448 0.237320 20.337204
7.952988 0.235703 20.395309
7.934402 0.200302 20.405106
7.950516 0.240738 20.398544
7.985336 0.273697 20.416946
7.863266 0.355423 20.295151
7.864029 0.305496 20.292801
7.872787 0.334457 20.272079
7.874527 0.329483 20.273666
7.811844 0.350632 20.346695
7.846725 0.352737 20.346664
7.847305 0.340378 20.330063
7.862473 0.350296 20.328598
7.863968 0.345261 20.332993
7.849350 0.356400 20.351944
7.962570 0.323074 20.265213
7.933731 0.250473 20.264999
7.910812 0.253067 20.269516
7.936020 0.300125 20.263351
7.952805 0.300247 20.309311
7.938461 0.295151 20.257339
7.876266 0.324295 20.276321
7.923538 0.330307 20.271561
7.921494 0.335281 20.273453
7.946945 0.361343 20.254196
7.966415 0.346725 20.272263
7.981796 0.365494 20.259079
7.897324 0.277298 20.315750
7.944351 0.311203 20.365372
7.881973 0.361588 20.359085
7.887680 0.337997 20.318527
7.919724 0.321762 20.314896
7.968399 0.327469 20.346848
7.965073 0.332626 20.364548
7.962814 0.337601 20.368912
7.971725 0.317612 20.354782
7.969040 0.320938 20.352737
7.969742 0.322495 20.355789
7.874405 0.448471 20.371597
7.844101 0.413040 20.370651
7.961227 0.445114 20.296585
7.928818 0.398605 20.284073
7.960068 0.385544 20.296829
7.949661 0.395889 20.253311
7.946854 0.400894 20.267410
7.944412 0.410751 20.253983
7.953323 0.412369 20.279251
7.983231 0.435715 20.269608
7.938553 0.421097 20.284805
7.947311 0.419846 20.306595
7.938889 0.423141 20.309372
7.979324 0.470108 20.311630
7.893082 0.396744 20.352768
7.902512 0.376114 20.324112
7.896561 0.391464 20.331223
7.894455 0.421494 20.329514
7.888535 0.412186 20.342911
7.896408 0.418198 20.329361
7.934616 0.426559 20.313034
7.912491 0.431198 20.326950
7.931870 0.431839 20.325882
7.881210 0.427811 20.370041
7.888107 0.407211 20.370651
7.928604 0.437057 20.346725
7.937057 0.414383 20.351547
7.933243 0.432358 20.346176
7.925491 0.436447 20.354324
7.980911 0.431442 20.322739
7.917526 0.467300 20.363449
7.898849 0.437973 20.338394
7.927292 0.441879 20.342270
7.909286 0.443130 20.362106
7.917801 0.440689 20.363174
7.967606 0.445938 20.354019
7.948349 0.441971 20.341690
7.970688 0.459610 20.342117
7.973801 0.446701 20.349716
7.976273 0.438675 20.373489
7.970627 0.451828 20.369644
7.957199 0.476486 20.346115
7.938126 0.476852 20.356461
7.966812 0.475418 20.356186
7.984665 0.470566 20.345810
7.975571 0.473465 20.360550
7.988510 0.264175 20.429550
7.970596 0.308060 20.422836
7.975082 0.303177 20.388870
7.941971 0.250809 20.453934
7.991287 0.254349 20.450211
7.971939 0.298416 20.458054
7.852371 0.469650 20.408737
7.839645 0.392868 20.427017
7.874252 0.428177 20.375992
7.857529 0.421097 20.431778
7.757248 0.469528 20.434250
7.794632 0.491013 20.434280
7.870041 0.459000 20.385178
7.868271 0.460220 20.385178
7.860062 0.464371 20.393692
7.837051 0.403366 20.446060
7.866653 0.420700 20.443558
7.874741 0.417282 20.438675
7.766342 0.454147 20.485611
7.760391 0.489273 20.445663
7.804733 0.499374 20.446182
7.777420 0.479263 20.471329
7.776596 0.483139 20.486740
7.755692 0.487381 20.495956
7.871201 0.462692 20.482986
7.824234 0.444351 20.454269
7.852036 0.460190 20.467667
7.838943 0.483200 20.457382
7.857742 0.492905 20.450821
7.847153 0.479446 20.450272
7.849808 0.462234 20.470932
7.944901 0.492905 20.407242
7.887131 0.402420 20.404312
7.882309 0.422897 20.376907
7.883621 0.417862 20.381790
7.926163 0.437241 20.381699
7.914047 0.428024 20.377182
7.878281 0.461472 20.406296
7.893448 0.452469 20.384293
7.902328 0.449814 20.384567
7.886307 0.457657 20.399307
7.917374 0.462601 20.385178
7.917374 0.462448 20.396744
7.909653 0.487808 20.383743
7.932053 0.473984 20.386368
7.917526 0.497849 20.389511
7.913589 0.472824 20.392593
7.911057 0.478165 20.404678
7.936844 0.496750 20.413651
7.957596 0.481888 20.415604
7.949875 0.445053 20.391647
7.949295 0.482834 20.385208
7.952408 0.487991 20.394760
7.985703 0.496933 20.393753
7.987381 0.478287 20.403030
7.955490 0.487015 20.422623
7.953934 0.492081 20.422256
7.891739 0.412003 20.438248
7.883072 0.414963 20.439835
7.866318 0.824295 20.398636
7.827621 0.696518 20.232010
7.878525 0.737076 20.247818
7.801926 0.752121 20.222305
7.900925 0.781143 20.243454
7.957443 0.804672 20.190903
7.983932 0.854813 20.219986
7.990097 0.846756 20.204666
7.992661 0.850632 20.212967
7.705704 0.512680 20.433334
7.748825 0.530350 20.436172
7.734818 0.538742 20.431320
7.748520 0.545700 20.391647
7.712479 0.525101 20.499008
7.706070 0.507309 20.445541
7.749924 0.519547 20.457657
7.741043 0.557877 20.444321
7.745590 0.541031 20.441269
7.702896 0.525284 20.487808
7.708023 0.504288 20.484665
7.726669 0.506454 20.499680
7.633255 0.587936 20.499924
7.646042 0.600876 20.465866
7.636063 0.621170 20.481857
7.721725 0.610245 20.494919
7.617233 0.668900 20.488937
7.713272 0.747757 20.460312
7.656967 0.696426 20.488174
7.687149 0.733017 20.473495
7.749527 0.722733 20.464981
7.842636 0.571274 20.420151
7.817917 0.613754 20.273148
7.787827 0.600113 20.334915
7.905960 0.589828 20.317459
7.898361 0.528519 20.374496
7.896469 0.538467 20.362320
7.897446 0.533463 20.367813
7.894608 0.543686 20.367905
7.912247 0.545242 20.360519
7.852768 0.709091 20.323563
7.873856 0.664383 20.374649
7.875504 0.690598 20.266129
7.902267 0.676559 20.292587
7.891617 0.659805 20.359756
7.972977 0.678116 20.342117
7.990158 0.669785 20.328262
7.830551 0.589188 20.433060
7.767075 0.523911 20.412003
7.750656 0.535019 20.399246
7.757370 0.507706 20.406998
7.801346 0.520096 20.415726
7.804520 0.504349 20.430984
7.796860 0.531174 20.433578
7.798111 0.525864 20.435989
7.782242 0.548874 20.407486
7.798111 0.538284 20.418625
7.796066 0.536331 20.426193
7.794632 0.541977 20.425491
7.791702 0.552353 20.428085
7.851303 0.527145 20.436783
7.864426 0.514206 20.430557
7.841537 0.543198 20.435623
7.769821 0.569931 20.417862
7.792923 0.578537 20.392227
7.796616 0.620346 20.375656
7.795090 0.570602 20.418900
7.782486 0.590378 20.424393
7.780685 0.600906 20.415695
7.780716 0.595749 20.430466
7.794144 0.593948 20.434982
7.823807 0.616898 20.425339
7.824112 0.611893 20.436508
7.857712 0.613968 20.414658
7.865280 0.594681 20.430405
7.759262 0.526596 20.487198
7.750229 0.524643 20.437729
7.752182 0.513931 20.448807
7.765488 0.528793 20.465836
7.800461 0.515182 20.443222
7.812363 0.525864 20.465439
7.771072 0.549210 20.446274
7.764297 0.552322 20.444077
7.773941 0.552841 20.459305
7.791977 0.547409 20.440720
7.791458 0.545822 20.447281
7.788101 0.558273 20.453781
7.783585 0.552017 20.467758
7.799332 0.510391 20.474106
7.770370 0.545975 20.486984
7.795547 0.543655 20.482468
7.871170 0.528061 20.470047
7.818893 0.524033 20.444992
7.839096 0.548630 20.448563
7.836655 0.554367 20.460190
7.835770 0.559372 20.454636
7.847275 0.540634 20.498184
7.784256 0.564407 20.482101
7.760117 0.567642 20.458939
7.752213 0.570969 20.460037
7.804398 0.593430 20.445694
7.806259 0.574997 20.447037
7.782425 0.585098 20.440903
7.782669 0.579788 20.454147
7.798508 0.622696 20.441635
7.787399 0.602341 20.467545
7.792557 0.616898 20.469131
7.785995 0.603958 20.472427
7.850235 0.585861 20.470352
7.831009 0.580338 20.446365
7.833542 0.569656 20.448959
7.834732 0.564346 20.451065
7.813828 0.592331 20.452988
7.822281 0.589157 20.448654
7.839859 0.584396 20.448929
7.831650 0.575241 20.454697
7.840469 0.578629 20.453812
7.831741 0.588120 20.456375
7.829971 0.585678 20.461899
7.867233 0.593674 20.462753
7.857559 0.586960 20.453445
7.858841 0.583054 20.468643
7.855667 0.590591 20.465317
7.824326 0.606796 20.449295
7.824478 0.601883 20.462357
7.874405 0.596664 20.452011
7.872910 0.595871 20.449753
7.868942 0.583755 20.486130
7.818771 0.623062 20.471420
7.819412 0.599838 20.474258
7.961868 0.574814 20.411331
7.891922 0.509567 20.415207
7.904007 0.508133 20.377548
7.898087 0.523911 20.395523
7.909195 0.531143 20.380325
7.909744 0.503372 20.404922
7.891464 0.549240 20.389603
7.890091 0.554398 20.389389
7.888290 0.559555 20.394760
7.875626 0.514938 20.411423
7.890427 0.511978 20.422531
7.885971 0.515305 20.428299
7.916977 0.521469 20.432602
7.915604 0.513382 20.425583
7.929764 0.502670 20.431808
7.909531 0.561600 20.435928
7.942459 0.513657 20.411819
7.942276 0.536606 20.399979
7.997177 0.557999 20.403214
7.993271 0.525375 20.423660
7.982040 0.543503 20.416580
7.983231 0.544540 20.418442
7.883804 0.570297 20.416580
7.886978 0.564896 20.393143
7.905838 0.618973 20.394363
7.879349 0.585922 20.421982
7.881180 0.575577 20.433273
7.879807 0.580795 20.433640
7.877182 0.591324 20.432968
7.922958 0.608902 20.408737
7.981247 0.583755 20.421768
7.965347 0.602219 20.384811
7.958847 0.595383 20.421310
7.949448 0.597549 20.417892
7.940689 0.601486 20.423782
7.994217 0.606583 20.425308
7.976639 0.599197 20.422043
7.931198 0.553055 20.489029
7.897537 0.519913 20.468063
7.905319 0.515457 20.457870
7.931747 0.557632 20.463882
7.957321 0.555984 20.480026
7.966751 0.531296 20.440750
7.937851 0.557602 20.458572
7.998398 0.535934 20.446884
7.983322 0.547073 20.477036
7.929520 0.562912 20.474533
7.927383 0.572800 20.467331
7.891769 0.599716 20.462357
7.933121 0.607040 20.439316
7.909286 0.608261 20.462204
7.933517 0.597549 20.461166
7.927567 0.568130 20.482376
7.918930 0.603378 20.474472
7.906967 0.613968 20.498611
7.991409 0.600815 20.496353
7.988205 0.624130 20.447311
7.969864 0.597641 20.448685
7.986160 0.594406 20.443954
7.980118 0.598038 20.465897
7.843430 0.693069 20.421585
7.770004 0.654617 20.400101
7.870346 0.626938 20.409195
7.872208 0.668289 20.399734
7.865189 0.657455 20.434860
7.810349 0.691452 20.430344
7.843826 0.747574 20.436203
7.849564 0.726364 20.401352
7.781967 0.639236 20.493118
7.832169 0.662918 20.469864
7.871017 0.634415 20.453232
7.851700 0.640335 20.460159
7.804642 0.702377 20.475693
7.803513 0.707779 20.440475
7.801102 0.713486 20.457047
7.797440 0.719467 20.489151
7.835556 0.744400 20.468857
7.822189 0.695328 20.463974
7.893051 0.690201 20.389175
7.880234 0.663467 20.387558
7.898849 0.659378 20.393539
7.965561 0.628220 20.415512
7.959854 0.641556 20.378647
7.987534 0.687119 20.405258
7.988663 0.631363 20.422134
7.905228 0.654587 20.495499
7.893112 0.670425 20.438217
7.926956 0.657242 20.462906
7.902298 0.674606 20.475449
7.904312 0.664505 20.477921
7.904800 0.659317 20.486649
7.902298 0.669693 20.489792
7.892380 0.683212 20.491806
7.981247 0.629044 20.497208
7.941422 0.640732 20.438492
7.951981 0.671158 20.484146
7.977768 0.677139 20.490158
7.892593 0.722488 20.497238
7.932419 0.740860 20.447220
7.541275 0.839737 20.475418
7.738266 0.845230 20.347153
7.704025 0.783096 20.354599
7.709518 0.805405 20.368301
7.742599 0.849716 20.347336
7.749649 0.847153 20.368637
7.583817 0.802567 20.471878
7.716751 0.838211 20.409775
7.697464 0.790573 20.418472
7.643112 0.864243 20.400070
7.691422 0.830368 20.426682
7.717545 0.817947 20.406113
7.738297 0.856674 20.388504
7.738266 0.846237 20.403824
7.737411 0.862289 20.391708
7.735001 0.868668 20.412003
7.733109 0.859543 20.408524
7.705765 0.778336 20.478561
7.695999 0.778275 20.467697
7.692703 0.808548 20.444778
7.693253 0.802933 20.447311
7.693222 0.797531 20.456314
7.745621 0.758743 20.494522
7.662399 0.830215 20.492844
7.686935 0.837418 20.468674
7.635910 0.861313 20.483414
7.670700 0.868576 20.495438
7.689499 0.814804 20.472397
7.690567 0.819901 20.452133
7.727219 0.823135 20.441513
7.745651 0.826065 20.455948
7.734024 0.842606 20.459061
7.729538 0.859756 20.449387
7.694229 0.813095 20.471725
7.701767 0.825516 20.482742
7.719559 0.849228 20.483932
7.743179 0.869156 20.491165
7.716476 0.877426 20.420425
7.721481 0.914841 20.497116
7.839584 0.844101 20.380234
7.819443 0.840958 20.357376
7.830521 0.773270 20.356430
7.843552 0.783310 20.363419
7.755753 0.842422 20.358810
7.793350 0.827560 20.329880
7.788956 0.834396 20.373184
7.819046 0.828659 20.365921
7.838974 0.828323 20.340652
7.839432 0.813339 20.360550
7.838181 0.818893 20.366776
7.837448 0.824234 20.366959
7.968491 0.824478 20.293167
7.889999 0.841904 20.259750
7.899002 0.751938 20.318619
7.924667 0.836014 20.360367
7.903763 0.827255 20.343552
7.983078 0.832138 20.353165
7.958878 0.834366 20.326889
7.949051 0.835739 20.320236
7.856308 0.848526 20.389572
7.840347 0.768509 20.436020
7.843643 0.772293 20.385544
7.855545 0.782272 20.429520
7.769394 0.867599 20.406631
7.776810 0.864975 20.419907
7.760269 0.855911 20.417679
7.763504 0.856949 20.429611
7.797684 0.851944 20.407028
7.832718 0.768478 20.489761
7.858261 0.758102 20.468399
7.776993 0.842636 20.452377
7.761276 0.832596 20.458359
7.809006 0.862167 20.442703
