3.981199600000000061e+01 6.610000999999999571e+00 1.495698499999999953e+01
3.980400099999999952e+01 6.585007000000000055e+00 1.497898900000000033e+01
3.981599400000000344e+01 6.603989000000000331e+00 1.493800399999999939e+01
3.982301300000000310e+01 6.582993000000000094e+00 1.495100399999999929e+01
3.981700099999999765e+01 6.589005000000000223e+00 1.495298799999999950e+01
3.981800799999999896e+01 6.574996999999999758e+00 1.496400500000000022e+01
3.986698899999999668e+01 6.577988000000000390e+00 1.496800200000000025e+01
3.987400800000000345e+01 6.565993999999999886e+00 1.496000699999999917e+01
3.983198500000000308e+01 6.617995999999999768e+00 1.494999699999999976e+01
3.987998999999999938e+01 6.559006000000000114e+00 1.497300700000000084e+01
3.988600199999999774e+01 6.525985999999999621e+00 1.497401400000000038e+01
3.990098600000000317e+01 6.517013999999999641e+00 1.494099399999999989e+01
3.987998999999999938e+01 6.554001000000000410e+00 1.495899999999999963e+01
3.975401300000000049e+01 6.675003000000000242e+00 1.493901100000000071e+01
3.978898600000000130e+01 6.668991000000000113e+00 1.494801299999999955e+01
3.975801100000000332e+01 6.650985999999999621e+00 1.494801299999999955e+01
3.977699299999999738e+01 6.650985999999999621e+00 1.494999699999999976e+01
3.977598600000000317e+01 6.629990000000000272e+00 1.496199000000000012e+01
3.980198699999999690e+01 6.629012999999999600e+00 1.495298799999999950e+01
3.980500800000000083e+01 6.634994999999999976e+00 1.494899000000000022e+01
3.979798900000000117e+01 6.642013999999999641e+00 1.494999699999999976e+01
3.979701200000000227e+01 6.654007000000000005e+00 1.494801299999999955e+01
3.979099999999999682e+01 6.655014000000000429e+00 1.495500200000000035e+01
3.978498799999999846e+01 6.682998999999999690e+00 1.494499199999999917e+01
3.975099199999999655e+01 6.698013000000000439e+00 1.493998700000000035e+01
3.963200400000000201e+01 6.917006999999999906e+00 1.486900299999999930e+01
3.959001200000000154e+01 6.867995999999999768e+00 1.491700699999999991e+01
3.958198500000000308e+01 6.870987000000000400e+00 1.491099499999999978e+01
3.958699000000000012e+01 6.857009999999999827e+00 1.490599100000000021e+01
3.959700000000000131e+01 6.844985999999999571e+00 1.489100600000000085e+01
3.961698899999999668e+01 6.823013000000000439e+00 1.493000800000000083e+01
3.961299100000000095e+01 6.862015000000000420e+00 1.491499300000000083e+01
3.960301199999999966e+01 6.844985999999999571e+00 1.492201200000000050e+01
3.956199600000000061e+01 6.874007999999999896e+00 1.495298799999999950e+01
3.962400800000000345e+01 6.870987000000000400e+00 1.496900899999999979e+01
3.970201099999999883e+01 6.789992999999999945e+00 1.493000800000000083e+01
3.965299999999999869e+01 6.802993999999999986e+00 1.491300999999999988e+01
3.966099499999999978e+01 6.775985999999999621e+00 1.491600000000000037e+01
3.965599100000000021e+01 6.787003000000000341e+00 1.492500300000000024e+01
3.962901300000000049e+01 6.798995999999999817e+00 1.493400600000000011e+01
3.965699800000000153e+01 6.788986000000000409e+00 1.491499300000000083e+01
3.967298900000000117e+01 6.785994999999999777e+00 1.492600999999999978e+01
3.968598899999999929e+01 6.802993999999999986e+00 1.493000800000000083e+01
3.971101399999999870e+01 6.762008999999999936e+00 1.493101500000000037e+01
3.970799300000000187e+01 6.776993000000000045e+00 1.492500300000000024e+01
3.963899200000000178e+01 6.844008999999999787e+00 1.491600000000000037e+01
3.963798500000000047e+01 6.857986000000000359e+00 1.490501399999999954e+01
3.963499500000000353e+01 6.871993999999999936e+00 1.490000900000000073e+01
3.964799500000000165e+01 6.817001000000000310e+00 1.491600000000000037e+01
3.964201400000000319e+01 6.830002000000000351e+00 1.491899100000000011e+01
3.963499500000000353e+01 6.837996999999999659e+00 1.492600999999999978e+01
3.963999900000000309e+01 6.843002000000000251e+00 1.492600999999999978e+01
3.962901300000000049e+01 6.858994000000000035e+00 1.492399600000000071e+01
3.964298999999999751e+01 6.777999999999999581e+00 1.494300800000000073e+01
3.956999199999999917e+01 6.912003000000000341e+00 1.490800499999999928e+01
3.951298500000000047e+01 6.919997999999999649e+00 1.492698700000000045e+01
3.955601500000000215e+01 6.909988000000000241e+00 1.489298999999999928e+01
3.956498700000000213e+01 6.926986999999999561e+00 1.490800499999999928e+01
3.956300399999999939e+01 6.901993000000000045e+00 1.490501399999999954e+01
3.957099900000000048e+01 6.927993999999999986e+00 1.489500400000000013e+01
3.957798799999999773e+01 6.884994999999999976e+00 1.490800499999999928e+01
3.958601399999999870e+01 6.880996999999999808e+00 1.491300999999999988e+01
3.957499700000000331e+01 6.892990000000000173e+00 1.491099499999999978e+01
3.957301300000000310e+01 6.897994999999999877e+00 1.490998800000000024e+01
3.958500699999999739e+01 6.900985999999999621e+00 1.491099499999999978e+01
3.961799599999999799e+01 6.896988000000000341e+00 1.492600999999999978e+01
3.950199899999999786e+01 6.968002000000000251e+00 1.490998800000000024e+01
3.954099999999999682e+01 6.952988000000000390e+00 1.490599100000000021e+01
3.956199600000000061e+01 6.940993999999999886e+00 1.490501399999999954e+01
3.950099199999999655e+01 6.943984999999999630e+00 1.492399600000000071e+01
3.950199899999999786e+01 6.952988000000000390e+00 1.492399600000000071e+01
3.953401199999999704e+01 6.948013000000000439e+00 1.490901200000000060e+01
3.960701000000000249e+01 6.913986000000000409e+00 1.494999699999999976e+01
3.961799599999999799e+01 6.882004000000000232e+00 1.493998700000000035e+01
3.849501000000000062e+01 7.745987000000000400e+00 1.478099100000000021e+01
3.801600599999999730e+01 7.698013000000000439e+00 1.411900299999999930e+01
3.896998599999999868e+01 7.435012999999999650e+00 1.484400899999999979e+01
3.857301300000000310e+01 7.284988000000000241e+00 1.452800000000000047e+01
3.897999599999999987e+01 7.412003000000000341e+00 1.484199500000000072e+01
3.887098699999999951e+01 7.499007999999999896e+00 1.483900500000000022e+01
3.899198899999999668e+01 7.435989000000000182e+00 1.482899500000000081e+01
3.898500099999999691e+01 7.386002000000000400e+00 1.483000200000000035e+01
3.888600199999999774e+01 7.478989000000000331e+00 1.484599299999999999e+01
3.891599999999999682e+01 7.498001000000000360e+00 1.482301299999999955e+01
3.891200299999999856e+01 7.499007999999999896e+00 1.482600399999999929e+01
3.892298900000000117e+01 7.496993999999999936e+00 1.481999199999999917e+01
3.891700699999999813e+01 7.482986000000000359e+00 1.483399999999999963e+01
3.891300999999999988e+01 7.482986000000000359e+00 1.483000200000000035e+01
3.892600999999999800e+01 7.474991000000000163e+00 1.483799699999999966e+01
3.891599999999999682e+01 7.499007999999999896e+00 1.483000200000000035e+01
3.894499199999999917e+01 7.486007999999999996e+00 1.482099900000000048e+01
3.896800199999999847e+01 7.461013999999999591e+00 1.482798799999999950e+01
3.895399499999999904e+01 7.453994999999999926e+00 1.483399999999999963e+01
3.896400500000000022e+01 7.461013999999999591e+00 1.483299300000000009e+01
3.897099299999999999e+01 7.445998999999999590e+00 1.482701100000000061e+01
3.899101300000000236e+01 7.444992000000000054e+00 1.482798799999999950e+01
3.899900800000000345e+01 7.455002000000000351e+00 1.483000200000000035e+01
3.893800399999999939e+01 7.474991000000000163e+00 1.483198499999999953e+01
3.893998700000000213e+01 7.475997999999999699e+00 1.483000200000000035e+01
3.896598800000000296e+01 7.483994000000000035e+00 1.483799699999999966e+01
3.896400500000000022e+01 7.475997999999999699e+00 1.483000200000000035e+01
3.895900000000000318e+01 7.491012999999999700e+00 1.483699000000000012e+01
3.847300700000000262e+01 7.781997999999999749e+00 1.479100000000000037e+01
3.806401100000000071e+01 7.974014000000000379e+00 1.461000100000000046e+01
3.808900500000000022e+01 7.977005000000000123e+00 1.461601300000000059e+01
3.800999500000000353e+01 7.969008999999999787e+00 1.462199400000000082e+01
3.800999500000000353e+01 7.998001000000000360e+00 1.458900500000000022e+01
3.800401300000000049e+01 7.987015000000000420e+00 1.457899500000000081e+01
3.803700299999999856e+01 7.986007999999999996e+00 1.458299300000000009e+01
3.804499799999999965e+01 7.955002000000000351e+00 1.460600299999999940e+01
3.805900599999999656e+01 7.968002000000000251e+00 1.461399800000000049e+01
3.804701200000000227e+01 7.973006999999999955e+00 1.459800700000000084e+01
3.804600500000000096e+01 7.991012999999999700e+00 1.459599299999999999e+01
3.809001200000000154e+01 7.940993999999999886e+00 1.462199400000000082e+01
3.809001200000000154e+01 7.958999999999999631e+00 1.461698900000000023e+01
3.812400800000000345e+01 7.925003000000000242e+00 1.465300000000000047e+01
3.808601399999999870e+01 7.957993000000000094e+00 1.462800599999999918e+01
3.812199400000000082e+01 7.956008999999999887e+00 1.462998999999999938e+01
3.810600300000000118e+01 7.940993999999999886e+00 1.464100600000000085e+01
3.819300799999999896e+01 7.906997999999999749e+00 1.466899100000000011e+01
3.812800599999999918e+01 7.921005000000000074e+00 1.468199199999999927e+01
3.813398699999999764e+01 7.927993999999999986e+00 1.463899200000000000e+01
3.817900099999999952e+01 7.913986000000000409e+00 1.465501399999999954e+01
3.817799399999999821e+01 7.931992000000000154e+00 1.465098599999999962e+01
3.814698800000000034e+01 7.913009999999999877e+00 1.467600999999999978e+01
3.816700699999999813e+01 7.921005000000000074e+00 1.466499300000000083e+01
3.820201099999999883e+01 7.917006999999999906e+00 1.466801500000000047e+01
3.822300700000000262e+01 7.900985999999999621e+00 1.468199199999999927e+01
3.821998599999999868e+01 7.900985999999999621e+00 1.467799399999999999e+01
3.824198899999999668e+01 7.905991000000000213e+00 1.468000800000000083e+01
3.821998599999999868e+01 7.918014999999999581e+00 1.467399600000000071e+01
3.823600799999999822e+01 7.909988000000000241e+00 1.467799399999999999e+01
3.822401399999999683e+01 7.930007999999999946e+00 1.468299900000000058e+01
3.818101500000000215e+01 7.958999999999999631e+00 1.466398599999999952e+01
3.813600199999999774e+01 7.945998999999999590e+00 1.462998999999999938e+01
3.812998999999999938e+01 7.956008999999999887e+00 1.463398699999999941e+01
3.813099700000000070e+01 7.962996999999999659e+00 1.463798500000000047e+01
3.815098600000000317e+01 7.957993000000000094e+00 1.464601099999999967e+01
3.816801499999999692e+01 7.951004000000000183e+00 1.464698800000000034e+01
3.817799399999999821e+01 7.949996999999999758e+00 1.464698800000000034e+01
3.819099400000000344e+01 7.952010999999999719e+00 1.466899100000000011e+01
3.823100300000000118e+01 7.940993999999999886e+00 1.467600999999999978e+01
3.820799300000000187e+01 7.918014999999999581e+00 1.470698499999999953e+01
3.821400500000000022e+01 7.883010999999999768e+00 1.469801299999999955e+01
3.824198899999999668e+01 7.884994999999999976e+00 1.469700600000000001e+01
3.821400500000000022e+01 7.953994999999999926e+00 1.469398499999999963e+01
3.840901199999999704e+01 7.811995999999999718e+00 1.474598699999999951e+01
3.835398899999999855e+01 7.847000000000000419e+00 1.473201000000000072e+01
3.827900700000000001e+01 7.850997999999999699e+00 1.472199999999999953e+01
3.831199600000000061e+01 7.841994999999999827e+00 1.471299699999999966e+01
3.826701400000000319e+01 7.870987000000000400e+00 1.469300800000000073e+01
3.825898699999999764e+01 7.866989000000000232e+00 1.470500200000000035e+01
3.831001299999999787e+01 7.858994000000000035e+00 1.471199000000000012e+01
3.830601500000000215e+01 7.837996999999999659e+00 1.474900799999999990e+01
3.834999100000000283e+01 7.857009999999999827e+00 1.472801199999999966e+01
3.837400800000000345e+01 7.866012999999999700e+00 1.471800200000000025e+01
3.835798599999999681e+01 7.813004000000000282e+00 1.472999599999999987e+01
3.835499599999999987e+01 7.830002000000000351e+00 1.473298600000000036e+01
3.835099799999999703e+01 7.862991000000000064e+00 1.473298600000000036e+01
3.835499599999999987e+01 7.857009999999999827e+00 1.474000500000000002e+01
3.838200400000000201e+01 7.823013000000000439e+00 1.474900799999999990e+01
3.840000899999999717e+01 7.818007999999999846e+00 1.474900799999999990e+01
3.839298999999999751e+01 7.817001000000000310e+00 1.474900799999999990e+01
3.834400899999999979e+01 7.882004000000000232e+00 1.472700500000000012e+01
3.829701200000000227e+01 7.906997999999999749e+00 1.472300700000000084e+01
3.826701400000000319e+01 7.888992000000000004e+00 1.468800399999999939e+01
3.826399200000000178e+01 7.905991000000000213e+00 1.469099399999999989e+01
3.826200899999999905e+01 7.878006000000000064e+00 1.470500200000000035e+01
3.831199600000000061e+01 7.875992000000000104e+00 1.470399500000000081e+01
3.830799900000000235e+01 7.892990000000000173e+00 1.470799300000000009e+01
3.830900599999999656e+01 7.895004000000000133e+00 1.470399500000000081e+01
3.826399200000000178e+01 7.913986000000000409e+00 1.469200099999999942e+01
3.827101100000000145e+01 7.879012999999999600e+00 1.472300700000000084e+01
3.848799100000000095e+01 7.794997999999999649e+00 1.478498800000000024e+01
3.844700600000000179e+01 7.789992999999999945e+00 1.476298500000000047e+01
3.840000899999999717e+01 7.801009999999999778e+00 1.475300599999999918e+01
3.843101500000000215e+01 7.780991000000000213e+00 1.477699299999999916e+01
3.839399699999999882e+01 7.784011999999999709e+00 1.477400199999999941e+01
3.844099400000000344e+01 7.810012999999999650e+00 1.477101099999999967e+01
3.844999700000000331e+01 7.774002000000000301e+00 1.476200900000000082e+01
3.849501000000000062e+01 7.762008999999999936e+00 1.477500900000000073e+01
3.849198899999999668e+01 7.779007000000000005e+00 1.477800000000000047e+01
3.848899800000000226e+01 7.774002000000000301e+00 1.477598599999999962e+01
3.844300799999999896e+01 7.806015000000000370e+00 1.476899700000000060e+01
3.846101399999999870e+01 7.806015000000000370e+00 1.477198800000000034e+01
3.847499100000000283e+01 7.793014999999999581e+00 1.477101099999999967e+01
3.838499500000000353e+01 7.858994000000000035e+00 1.475700400000000023e+01
3.839601100000000145e+01 7.835007000000000055e+00 1.475401300000000049e+01
3.843101500000000215e+01 7.823013000000000439e+00 1.477000400000000013e+01
3.839201400000000319e+01 7.850997999999999699e+00 1.475801099999999977e+01
3.847099299999999999e+01 7.813004000000000282e+00 1.478800999999999988e+01
3.870201099999999883e+01 7.608994000000000035e+00 1.481001299999999965e+01
3.869899000000000200e+01 7.624007999999999896e+00 1.481199600000000061e+01
3.870600900000000166e+01 7.623001000000000360e+00 1.480900600000000011e+01
3.865901199999999704e+01 7.612015000000000420e+00 1.480100999999999978e+01
3.872599799999999703e+01 7.619003000000000192e+00 1.481098899999999929e+01
3.874299599999999799e+01 7.602005000000000123e+00 1.482200600000000001e+01
3.873500099999999691e+01 7.603011999999999659e+00 1.482099900000000048e+01
3.874800100000000214e+01 7.616012999999999700e+00 1.481700099999999942e+01
3.858900500000000022e+01 7.686995999999999718e+00 1.481098899999999929e+01
3.860099799999999703e+01 7.675003000000000242e+00 1.478800999999999988e+01
3.852299500000000165e+01 7.736007999999999996e+00 1.479399100000000011e+01
3.854499799999999965e+01 7.718002000000000251e+00 1.479100000000000037e+01
3.853898600000000130e+01 7.718002000000000251e+00 1.480299399999999999e+01
3.854200699999999813e+01 7.733994000000000035e+00 1.479200699999999991e+01
3.854899600000000248e+01 7.737015000000000420e+00 1.479100000000000037e+01
3.854899600000000248e+01 7.723006999999999955e+00 1.481001299999999965e+01
3.858799700000000144e+01 7.724014000000000379e+00 1.480500800000000083e+01
3.857200600000000179e+01 7.715988000000000291e+00 1.479399100000000011e+01
3.859098800000000296e+01 7.707993000000000094e+00 1.480400099999999952e+01
3.859400899999999979e+01 7.690993999999999886e+00 1.480000300000000024e+01
3.861698899999999668e+01 7.701004000000000183e+00 1.480900600000000011e+01
3.858000200000000035e+01 7.719985999999999571e+00 1.480500800000000083e+01
3.858198500000000308e+01 7.746993999999999936e+00 1.480100999999999978e+01
3.858000200000000035e+01 7.681015000000000370e+00 1.483198499999999953e+01
3.859999100000000283e+01 7.656997999999999749e+00 1.483399999999999963e+01
3.855799900000000235e+01 7.698990000000000222e+00 1.481498700000000035e+01
3.858100900000000166e+01 7.738997999999999600e+00 1.481700099999999942e+01
3.856401100000000071e+01 7.707993000000000094e+00 1.481700099999999942e+01
3.861100799999999822e+01 7.722000000000000419e+00 1.482301299999999955e+01
3.868901100000000071e+01 7.637008999999999936e+00 1.481001299999999965e+01
3.864399699999999882e+01 7.656997999999999749e+00 1.479600499999999919e+01
3.862800599999999918e+01 7.685012999999999650e+00 1.477900700000000001e+01
3.864601100000000145e+01 7.649002000000000301e+00 1.481199600000000061e+01
3.864100599999999730e+01 7.659011999999999709e+00 1.481098899999999929e+01
3.864399699999999882e+01 7.664992999999999945e+00 1.481098899999999929e+01
3.863398699999999764e+01 7.676986999999999561e+00 1.481001299999999965e+01
3.864100599999999730e+01 7.681015000000000370e+00 1.481199600000000061e+01
3.864500400000000013e+01 7.698990000000000222e+00 1.479600499999999919e+01
3.863099700000000070e+01 7.701004000000000183e+00 1.481098899999999929e+01
3.863099700000000070e+01 7.681015000000000370e+00 1.481498700000000035e+01
3.865901199999999704e+01 7.641005999999999965e+00 1.482301299999999955e+01
3.868501299999999787e+01 7.650008999999999837e+00 1.481401100000000071e+01
3.868199200000000104e+01 7.649002000000000301e+00 1.483000200000000035e+01
3.868598899999999929e+01 7.655014000000000429e+00 1.483198499999999953e+01
3.866599999999999682e+01 7.681015000000000370e+00 1.482499699999999976e+01
3.868800399999999939e+01 7.664992999999999945e+00 1.483900500000000022e+01
3.869499199999999917e+01 7.641005999999999965e+00 1.481599399999999989e+01
3.871900899999999979e+01 7.643996999999999709e+00 1.482099900000000048e+01
3.872099299999999999e+01 7.655014000000000429e+00 1.482200600000000001e+01
3.873899800000000226e+01 7.626998999999999640e+00 1.483900500000000022e+01
3.874000499999999647e+01 7.630996999999999808e+00 1.483100899999999989e+01
3.870298799999999773e+01 7.662003000000000341e+00 1.483399999999999963e+01
3.891499300000000261e+01 7.530991000000000213e+00 1.480299399999999999e+01
3.878099100000000021e+01 7.543014999999999581e+00 1.481001299999999965e+01
3.877299500000000165e+01 7.619003000000000192e+00 1.480198700000000045e+01
3.881001299999999787e+01 7.581008999999999887e+00 1.481098899999999929e+01
3.879499799999999965e+01 7.543014999999999581e+00 1.485301199999999966e+01
3.877198800000000034e+01 7.560012999999999650e+00 1.483198499999999953e+01
3.880198699999999690e+01 7.560012999999999650e+00 1.482701100000000061e+01
3.881001299999999787e+01 7.559006000000000114e+00 1.483198499999999953e+01
3.882600399999999752e+01 7.560989000000000182e+00 1.482301299999999955e+01
3.885301199999999966e+01 7.526993000000000045e+00 1.482798799999999950e+01
3.887001000000000062e+01 7.526993000000000045e+00 1.482200600000000001e+01
3.885899400000000270e+01 7.520004000000000133e+00 1.483601400000000048e+01
3.885798599999999681e+01 7.521010999999999669e+00 1.482899500000000081e+01
3.884098800000000296e+01 7.555007999999999946e+00 1.483100899999999989e+01
3.885499599999999987e+01 7.537003000000000341e+00 1.482798799999999950e+01
3.886799599999999799e+01 7.541000000000000369e+00 1.482399000000000022e+01
3.884498599999999868e+01 7.541000000000000369e+00 1.483198499999999953e+01
3.885200499999999835e+01 7.551986999999999561e+00 1.483000200000000035e+01
3.875999500000000353e+01 7.604995999999999867e+00 1.484400899999999979e+01
3.875401300000000049e+01 7.583999999999999631e+00 1.481498700000000035e+01
3.875801100000000332e+01 7.581985000000000419e+00 1.483000200000000035e+01
3.880100999999999800e+01 7.573990000000000222e+00 1.482798799999999950e+01
3.880299399999999821e+01 7.576004000000000183e+00 1.481800800000000073e+01
3.879899600000000248e+01 7.590988000000000291e+00 1.482301299999999955e+01
3.875099199999999655e+01 7.599991000000000163e+00 1.481498700000000035e+01
3.877299500000000165e+01 7.600997999999999699e+00 1.482301299999999955e+01
3.877198800000000034e+01 7.603989000000000331e+00 1.481700099999999942e+01
3.879399099999999834e+01 7.598006999999999955e+00 1.482301299999999955e+01
3.879798900000000117e+01 7.607986000000000359e+00 1.481700099999999942e+01
3.880100999999999800e+01 7.607986000000000359e+00 1.483500699999999917e+01
3.881700099999999765e+01 7.576004000000000183e+00 1.482701100000000061e+01
3.881599400000000344e+01 7.577988000000000390e+00 1.481999199999999917e+01
3.883299300000000187e+01 7.563004000000000282e+00 1.483100899999999989e+01
3.885499599999999987e+01 7.568007999999999846e+00 1.483299300000000009e+01
3.884800700000000262e+01 7.567001000000000310e+00 1.483500699999999917e+01
3.888099700000000070e+01 7.521010999999999669e+00 1.482301299999999955e+01
3.889201400000000319e+01 7.518996999999999709e+00 1.482701100000000061e+01
3.890901199999999704e+01 7.513992000000000004e+00 1.482701100000000061e+01
3.890998799999999846e+01 7.527999999999999581e+00 1.483399999999999963e+01
3.850599700000000070e+01 7.755996999999999808e+00 1.478599499999999978e+01
3.850999500000000353e+01 7.759994999999999976e+00 1.478199799999999975e+01
3.852500899999999717e+01 7.758010999999999768e+00 1.478898599999999952e+01
3.854200699999999813e+01 7.751998999999999640e+00 1.478599499999999978e+01
3.852699299999999738e+01 7.766005999999999965e+00 1.481999199999999917e+01
3.920298799999999773e+01 7.227005000000000123e+00 1.486000100000000046e+01
3.919899000000000200e+01 7.241989000000000232e+00 1.486100800000000000e+01
3.920900000000000318e+01 7.237991000000000064e+00 1.487098699999999951e+01
3.924900800000000345e+01 7.223006999999999955e+00 1.487199400000000082e+01
3.923298599999999681e+01 7.249007999999999896e+00 1.487001000000000062e+01
3.922801199999999966e+01 7.242995999999999768e+00 1.486399800000000049e+01
3.924598699999999951e+01 7.237015000000000420e+00 1.487098699999999951e+01
3.924800100000000214e+01 7.176986999999999561e+00 1.490501399999999954e+01
3.913899200000000178e+01 7.224991000000000163e+00 1.487501499999999943e+01
3.918199200000000104e+01 7.224014000000000379e+00 1.488700900000000082e+01
3.922999599999999987e+01 7.229995999999999867e+00 1.490998800000000024e+01
3.923899800000000226e+01 7.197006000000000014e+00 1.488700900000000082e+01
3.922401399999999683e+01 7.216994999999999827e+00 1.487699899999999964e+01
3.923500099999999691e+01 7.232009999999999827e+00 1.488301099999999977e+01
3.942399600000000248e+01 7.038986000000000409e+00 1.487400799999999990e+01
3.925300599999999918e+01 7.224014000000000379e+00 1.486500500000000002e+01
3.925199899999999786e+01 7.207993000000000094e+00 1.487300100000000036e+01
3.937098699999999951e+01 7.052993999999999986e+00 1.493101500000000037e+01
3.931999199999999917e+01 7.116989000000000232e+00 1.488700900000000082e+01
3.937400800000000345e+01 7.085007000000000055e+00 1.490000900000000073e+01
3.936399800000000226e+01 7.082993000000000094e+00 1.490300000000000047e+01
3.936900299999999930e+01 7.113997999999999600e+00 1.488899200000000000e+01
3.934800700000000262e+01 7.103989000000000331e+00 1.489201399999999964e+01
3.937001000000000062e+01 7.099014000000000379e+00 1.489900199999999941e+01
3.946299700000000144e+01 7.033005000000000173e+00 1.491999799999999965e+01
3.938099700000000070e+01 7.061995999999999718e+00 1.491499300000000083e+01
3.942298900000000117e+01 7.034988000000000241e+00 1.490400700000000001e+01
3.943598899999999929e+01 7.025008999999999837e+00 1.490800499999999928e+01
3.941200299999999856e+01 7.018996999999999709e+00 1.493199199999999927e+01
3.939698800000000034e+01 7.041000000000000369e+00 1.492399600000000071e+01
3.943199200000000104e+01 7.038986000000000409e+00 1.491099499999999978e+01
3.942600999999999800e+01 7.052993999999999986e+00 1.491499300000000083e+01
3.943000800000000083e+01 7.047011999999999610e+00 1.490901200000000060e+01
3.943501299999999787e+01 7.060012999999999650e+00 1.493501299999999965e+01
3.945399499999999904e+01 7.042006999999999906e+00 1.491700699999999991e+01
3.943901100000000071e+01 7.012008999999999936e+00 1.491200300000000034e+01
3.946299700000000144e+01 7.012008999999999936e+00 1.491099499999999978e+01
3.948399400000000270e+01 7.008010999999999768e+00 1.492799399999999999e+01
3.948100300000000118e+01 7.022994999999999877e+00 1.492399600000000071e+01
3.940400700000000001e+01 7.069992000000000054e+00 1.490901200000000060e+01
3.937599199999999655e+01 7.069992000000000054e+00 1.490199299999999916e+01
3.937998999999999938e+01 7.094008999999999787e+00 1.490400700000000001e+01
3.939500400000000013e+01 7.083999999999999631e+00 1.491499300000000083e+01
3.942201200000000227e+01 7.067001000000000310e+00 1.491700699999999991e+01
3.940501400000000132e+01 7.077988000000000390e+00 1.495500200000000035e+01
3.932099900000000048e+01 7.156997999999999749e+00 1.488798500000000047e+01
3.925199899999999786e+01 7.173995999999999817e+00 1.488999899999999954e+01
3.926200899999999905e+01 7.150008999999999837e+00 1.488899200000000000e+01
3.925599700000000070e+01 7.150985999999999621e+00 1.488099700000000070e+01
3.930100999999999800e+01 7.149002000000000301e+00 1.488899200000000000e+01
3.925199899999999786e+01 7.176986999999999561e+00 1.489601099999999967e+01
3.931098899999999929e+01 7.160994999999999777e+00 1.488099700000000070e+01
3.929499799999999965e+01 7.176986999999999561e+00 1.488499499999999998e+01
3.930699200000000104e+01 7.175003000000000242e+00 1.488301099999999977e+01
3.931700099999999765e+01 7.130996999999999808e+00 1.488301099999999977e+01
3.931599400000000344e+01 7.146010999999999669e+00 1.487800599999999918e+01
3.934098800000000296e+01 7.129990000000000272e+00 1.490000900000000073e+01
3.933400000000000318e+01 7.137984999999999580e+00 1.489298999999999928e+01
3.936900299999999930e+01 7.129012999999999600e+00 1.487998999999999938e+01
3.927598600000000317e+01 7.205002000000000351e+00 1.490800499999999928e+01
3.925300599999999918e+01 7.193007999999999846e+00 1.487998999999999938e+01
3.927198800000000034e+01 7.198013000000000439e+00 1.487998999999999938e+01
3.928001400000000132e+01 7.189010999999999818e+00 1.489500400000000013e+01
3.915901199999999704e+01 7.294997999999999649e+00 1.480198700000000045e+01
3.911500499999999647e+01 7.306015000000000370e+00 1.487098699999999951e+01
3.908400000000000318e+01 7.349014000000000379e+00 1.485600299999999940e+01
3.908400000000000318e+01 7.340988000000000291e+00 1.484400899999999979e+01
3.908100900000000166e+01 7.324996999999999758e+00 1.486299099999999918e+01
3.911399800000000226e+01 7.341994999999999827e+00 1.485099800000000059e+01
3.909999100000000283e+01 7.327010999999999719e+00 1.486399800000000049e+01
3.908100900000000166e+01 7.357009999999999827e+00 1.484498600000000046e+01
3.907701099999999883e+01 7.370987000000000400e+00 1.484699999999999953e+01
3.906999199999999917e+01 7.370987000000000400e+00 1.485099800000000059e+01
3.908400000000000318e+01 7.361007999999999996e+00 1.484599299999999999e+01
3.909599299999999999e+01 7.363997999999999600e+00 1.484699999999999953e+01
3.918901100000000071e+01 7.301986999999999561e+00 1.485099800000000059e+01
3.913700899999999905e+01 7.306992000000000154e+00 1.485600299999999940e+01
3.917500299999999669e+01 7.274002000000000301e+00 1.487098699999999951e+01
3.915199299999999738e+01 7.306015000000000370e+00 1.484901400000000038e+01
3.915800500000000284e+01 7.306015000000000370e+00 1.484800700000000084e+01
3.918699600000000061e+01 7.285994999999999777e+00 1.486799599999999977e+01
3.918501299999999787e+01 7.284011999999999709e+00 1.486601300000000059e+01
3.917600999999999800e+01 7.291000000000000369e+00 1.486799599999999977e+01
3.919499199999999917e+01 7.257004000000000232e+00 1.486201499999999953e+01
3.919499199999999917e+01 7.258987000000000300e+00 1.486500500000000002e+01
3.920399499999999904e+01 7.262984999999999580e+00 1.486000100000000046e+01
3.919099400000000344e+01 7.271010999999999669e+00 1.486500500000000002e+01
3.913398699999999764e+01 7.320998999999999590e+00 1.485600299999999940e+01
3.913398699999999764e+01 7.326004000000000183e+00 1.484599299999999999e+01
3.912901300000000049e+01 7.335007000000000055e+00 1.486100800000000000e+01
3.907200600000000179e+01 7.386002000000000400e+00 1.485200500000000012e+01
3.905400099999999952e+01 7.386002000000000400e+00 1.484498600000000046e+01
3.902598600000000317e+01 7.392990000000000173e+00 1.484098799999999940e+01
3.906001299999999787e+01 7.382004000000000232e+00 1.484098799999999940e+01
3.903599499999999978e+01 7.400985999999999621e+00 1.484001199999999976e+01
3.902400200000000297e+01 7.408005000000000173e+00 1.483799699999999966e+01
3.901200899999999905e+01 7.422011999999999610e+00 1.483699000000000012e+01
3.902299500000000165e+01 7.422989000000000281e+00 1.483299300000000009e+01
3.904499799999999965e+01 7.410994999999999777e+00 1.484199500000000072e+01
3.903800999999999988e+01 7.412003000000000341e+00 1.483399999999999963e+01
3.903199800000000153e+01 7.399002000000000301e+00 1.485099800000000059e+01
3.905500800000000083e+01 7.392013999999999641e+00 1.484400899999999979e+01
3.908900500000000022e+01 7.386002000000000400e+00 1.486900299999999930e+01
3.907399000000000200e+01 7.401993000000000045e+00 1.483900500000000022e+01
3.902400200000000297e+01 7.440993999999999886e+00 1.484400899999999979e+01
3.901798999999999751e+01 7.439010999999999818e+00 1.483699000000000012e+01
3.912400800000000345e+01 7.336990000000000123e+00 1.488999899999999954e+01
3.913099700000000070e+01 7.287003000000000341e+00 1.488099700000000070e+01
3.917900099999999952e+01 7.284011999999999709e+00 1.488600199999999951e+01
3.914399699999999882e+01 7.263992000000000004e+00 1.488499499999999998e+01
3.916801499999999692e+01 7.304001000000000410e+00 1.490199299999999916e+01
3.915098600000000317e+01 7.335007000000000055e+00 1.488398699999999941e+01
3.952598600000000317e+01 7.129012999999999600e+00 1.494300800000000073e+01
3.870698500000000308e+01 6.292006999999999906e+00 1.526600600000000085e+01
3.889500400000000013e+01 6.076004000000000183e+00 1.501100199999999951e+01
3.897700499999999835e+01 6.099991000000000163e+00 1.511601300000000059e+01
3.898201000000000249e+01 6.123001000000000360e+00 1.511299099999999918e+01
3.899800100000000214e+01 6.117995999999999768e+00 1.511201499999999953e+01
3.895298799999999773e+01 6.142013999999999641e+00 1.511299099999999918e+01
3.898201000000000249e+01 6.146988000000000341e+00 1.512199400000000082e+01
3.885499599999999987e+01 6.081008999999999887e+00 1.516099499999999978e+01
3.899299599999999799e+01 6.020004000000000133e+00 1.512599200000000010e+01
3.899101300000000236e+01 6.021988000000000341e+00 1.513200400000000023e+01
3.887800599999999918e+01 6.104995999999999867e+00 1.515501399999999954e+01
3.887501499999999766e+01 6.121993999999999936e+00 1.514500400000000013e+01
3.899198899999999668e+01 6.095992999999999995e+00 1.513301099999999977e+01
3.899900800000000345e+01 6.089005000000000223e+00 1.513899200000000000e+01
3.886100799999999822e+01 6.249007999999999896e+00 1.515300000000000047e+01
3.896598800000000296e+01 6.150008999999999837e+00 1.514201399999999964e+01
3.888200400000000201e+01 6.181992000000000154e+00 1.516200300000000034e+01
3.891700699999999813e+01 6.155991000000000213e+00 1.513899200000000000e+01
3.887599199999999655e+01 6.185012999999999650e+00 1.513600199999999951e+01
3.890098600000000317e+01 6.185989000000000182e+00 1.515000900000000073e+01
3.891200299999999856e+01 6.172011999999999610e+00 1.513798500000000047e+01
3.898500099999999691e+01 6.129990000000000272e+00 1.513200400000000023e+01
3.898201000000000249e+01 6.126998999999999640e+00 1.514100600000000085e+01
3.888099700000000070e+01 6.232009999999999827e+00 1.515599100000000021e+01
3.889399699999999882e+01 6.199996999999999758e+00 1.515599100000000021e+01
3.888899200000000178e+01 6.216994999999999827e+00 1.515098599999999962e+01
3.890901199999999704e+01 6.190993999999999886e+00 1.514698800000000034e+01
3.887901300000000049e+01 6.249007999999999896e+00 1.514601099999999967e+01
3.874598699999999951e+01 6.474991000000000163e+00 1.516200300000000034e+01
3.874299599999999799e+01 6.492995999999999768e+00 1.515800499999999928e+01
3.873701499999999953e+01 6.496993999999999936e+00 1.516200300000000034e+01
3.881999199999999917e+01 6.298995999999999817e+00 1.517201200000000050e+01
3.884300199999999847e+01 6.259994999999999976e+00 1.517100499999999919e+01
3.882099900000000048e+01 6.274002000000000301e+00 1.515699799999999975e+01
3.887098699999999951e+01 6.262984999999999580e+00 1.515098599999999962e+01
3.883400000000000318e+01 6.311995999999999718e+00 1.513099700000000070e+01
3.884300199999999847e+01 6.294997999999999649e+00 1.515199299999999916e+01
3.886399800000000226e+01 6.277999999999999581e+00 1.515699799999999975e+01
3.880500800000000083e+01 6.344008999999999787e+00 1.517500300000000024e+01
3.877799999999999869e+01 6.336013999999999591e+00 1.518299900000000058e+01
3.879899600000000248e+01 6.367995999999999768e+00 1.518101500000000037e+01
3.876600599999999730e+01 6.349991000000000163e+00 1.520100399999999929e+01
3.882399000000000200e+01 6.326004000000000183e+00 1.519499199999999917e+01
3.883100900000000166e+01 6.319992000000000054e+00 1.519801299999999955e+01
3.876399200000000178e+01 6.431015000000000370e+00 1.516300999999999988e+01
3.877799999999999869e+01 6.410994999999999777e+00 1.517201200000000050e+01
3.879399099999999834e+01 6.391005999999999965e+00 1.514201399999999964e+01
3.878498799999999846e+01 6.387008999999999936e+00 1.516999799999999965e+01
3.878700299999999856e+01 6.378006000000000064e+00 1.515901200000000060e+01
3.876100199999999774e+01 6.499007999999999896e+00 1.512998999999999938e+01
3.875599700000000070e+01 6.452988000000000390e+00 1.513600199999999951e+01
3.876200899999999905e+01 6.464005000000000223e+00 1.513999899999999954e+01
3.875199899999999786e+01 6.451004000000000183e+00 1.515599100000000021e+01
3.892298900000000117e+01 6.423995999999999817e+00 1.527400199999999941e+01
3.894398499999999785e+01 6.488997999999999600e+00 1.528700300000000034e+01
3.897999599999999987e+01 6.481003000000000291e+00 1.528199799999999975e+01
3.895698500000000308e+01 6.487015000000000420e+00 1.526798999999999928e+01
3.889799500000000165e+01 6.482009999999999827e+00 1.532899500000000081e+01
3.849101300000000236e+01 6.725997999999999699e+00 1.511500500000000002e+01
3.847999599999999987e+01 6.748001000000000360e+00 1.511201499999999953e+01
3.844700600000000179e+01 6.529007000000000005e+00 1.519700600000000001e+01
3.849800100000000214e+01 6.798995999999999817e+00 1.512300100000000036e+01
3.849000499999999647e+01 6.876998999999999640e+00 1.512400799999999990e+01
3.849299599999999799e+01 6.918014999999999581e+00 1.515699799999999975e+01
3.849299599999999799e+01 6.932998999999999690e+00 1.517100499999999919e+01
3.849299599999999799e+01 6.935012999999999650e+00 1.515199299999999916e+01
3.849800100000000214e+01 6.975997999999999699e+00 1.517600999999999978e+01
3.848600799999999822e+01 6.956985000000000419e+00 1.517799399999999999e+01
3.848600799999999822e+01 6.981003000000000291e+00 1.519899000000000022e+01
3.874699400000000082e+01 6.742995999999999768e+00 1.526399200000000000e+01
3.872499100000000283e+01 6.542006999999999906e+00 1.517201200000000050e+01
3.872700499999999835e+01 6.517990000000000173e+00 1.515998800000000024e+01
3.872700499999999835e+01 6.531997999999999749e+00 1.514298999999999928e+01
3.874000499999999647e+01 6.543014999999999581e+00 1.515300000000000047e+01
3.869398499999999785e+01 6.607986000000000359e+00 1.516499300000000083e+01
3.870298799999999773e+01 6.607986000000000359e+00 1.515599100000000021e+01
3.870799300000000187e+01 6.594985999999999571e+00 1.514201399999999964e+01
3.869899000000000200e+01 6.611007999999999996e+00 1.515098599999999962e+01
3.871101399999999870e+01 6.563004000000000282e+00 1.516398599999999952e+01
3.870100399999999752e+01 6.583999999999999631e+00 1.516200300000000034e+01
3.871501200000000154e+01 6.595992999999999995e+00 1.516099499999999978e+01
3.851399200000000178e+01 6.732009999999999827e+00 1.513099700000000070e+01
3.868800399999999939e+01 6.650008999999999837e+00 1.516600000000000037e+01
3.867600999999999800e+01 6.685989000000000182e+00 1.518400600000000011e+01
3.867900099999999952e+01 6.652999999999999581e+00 1.517298899999999939e+01
3.868800399999999939e+01 6.629990000000000272e+00 1.517201200000000050e+01
3.866300999999999988e+01 6.732986000000000359e+00 1.517799399999999999e+01
3.866700699999999813e+01 6.689010999999999818e+00 1.517201200000000050e+01
3.865901199999999704e+01 6.703994999999999926e+00 1.518199199999999927e+01
3.867799399999999821e+01 6.677993999999999986e+00 1.518800399999999939e+01
3.867399600000000248e+01 6.728989000000000331e+00 1.521800200000000025e+01
3.867698699999999690e+01 6.703994999999999926e+00 1.520399500000000081e+01
3.874000499999999647e+01 6.728011999999999659e+00 1.522199999999999953e+01
3.872801199999999966e+01 6.741989000000000232e+00 1.524198900000000023e+01
3.851200899999999905e+01 6.750015000000000320e+00 1.512199400000000082e+01
3.850700400000000201e+01 6.750015000000000320e+00 1.511201499999999953e+01
3.850999500000000353e+01 6.767013999999999641e+00 1.511601300000000059e+01
3.855699200000000104e+01 6.768996999999999709e+00 1.516999799999999965e+01
3.861500499999999647e+01 6.858994000000000035e+00 1.521501199999999976e+01
3.860200499999999835e+01 6.862015000000000420e+00 1.521199000000000012e+01
3.861900299999999930e+01 6.866012999999999700e+00 1.521101400000000048e+01
3.870298799999999773e+01 6.776993000000000045e+00 1.524800100000000036e+01
3.866700699999999813e+01 6.793991000000000113e+00 1.522700500000000012e+01
3.865501400000000132e+01 6.768996999999999709e+00 1.520100399999999929e+01
3.865501400000000132e+01 6.771988000000000341e+00 1.521598799999999940e+01
3.864601100000000145e+01 6.793991000000000113e+00 1.521800200000000025e+01
3.864698800000000034e+01 6.809006000000000114e+00 1.521000699999999917e+01
3.866801499999999692e+01 6.751998999999999640e+00 1.522300700000000084e+01
3.867399600000000248e+01 6.777999999999999581e+00 1.522099299999999999e+01
3.866499300000000261e+01 6.810012999999999650e+00 1.521900899999999979e+01
3.868501299999999787e+01 6.810012999999999650e+00 1.522499099999999927e+01
3.867900099999999952e+01 6.811995999999999718e+00 1.522599800000000059e+01
3.873399400000000270e+01 6.766005999999999965e+00 1.523399399999999915e+01
3.872099299999999999e+01 6.757004000000000232e+00 1.524900799999999990e+01
3.863499500000000353e+01 6.852005000000000123e+00 1.521998600000000046e+01
3.863499500000000353e+01 6.817001000000000310e+00 1.521598799999999940e+01
3.866999799999999965e+01 6.828994999999999926e+00 1.519398499999999963e+01
3.863499500000000353e+01 6.852005000000000123e+00 1.520899999999999963e+01
3.866499300000000261e+01 6.844008999999999787e+00 1.519700600000000001e+01
3.862699899999999786e+01 6.837996999999999659e+00 1.521900899999999979e+01
3.856498700000000213e+01 6.935989000000000182e+00 1.518699600000000061e+01
3.851100199999999774e+01 6.908005000000000173e+00 1.514900199999999941e+01
3.851499900000000309e+01 6.892013999999999641e+00 1.515000900000000073e+01
3.850401300000000049e+01 6.923995999999999817e+00 1.515599100000000021e+01
3.853001400000000132e+01 6.983994000000000035e+00 1.518400600000000011e+01
3.856098899999999929e+01 6.939010999999999818e+00 1.518699600000000061e+01
3.853599499999999978e+01 6.968002000000000251e+00 1.517799399999999999e+01
3.852799999999999869e+01 6.983994000000000035e+00 1.518299900000000058e+01
3.859300199999999847e+01 6.945998999999999590e+00 1.517799399999999999e+01
3.860899400000000270e+01 6.883010999999999768e+00 1.522199999999999953e+01
3.859199499999999716e+01 6.900985999999999621e+00 1.520799300000000009e+01
3.860200499999999835e+01 6.879012999999999600e+00 1.520100399999999929e+01
3.859800700000000262e+01 6.896010999999999669e+00 1.519999699999999976e+01
3.857301300000000310e+01 6.918014999999999581e+00 1.518998700000000035e+01
3.856599400000000344e+01 6.925003000000000242e+00 1.519499199999999917e+01
3.859199499999999716e+01 6.929001000000000410e+00 1.519398499999999963e+01
3.858500699999999739e+01 6.935989000000000182e+00 1.519099399999999989e+01
3.859498599999999868e+01 6.912003000000000341e+00 1.519700600000000001e+01
3.859400899999999979e+01 6.906997999999999749e+00 1.519300800000000073e+01
3.850401300000000049e+01 6.991012999999999700e+00 1.523201000000000072e+01
3.850700400000000201e+01 6.953994999999999926e+00 1.520298799999999950e+01
3.854200699999999813e+01 6.947006000000000014e+00 1.518998700000000035e+01
3.855400099999999952e+01 6.961013999999999591e+00 1.519200099999999942e+01
3.852299500000000165e+01 6.999007999999999896e+00 1.518998700000000035e+01
3.854499799999999965e+01 6.983994000000000035e+00 1.519499199999999917e+01
3.855299399999999821e+01 6.969985999999999571e+00 1.519599900000000048e+01
3.894999700000000331e+01 6.501998999999999640e+00 1.527101099999999967e+01
3.886601300000000236e+01 6.594008999999999787e+00 1.527400199999999941e+01
3.886201499999999953e+01 6.608994000000000035e+00 1.527198800000000034e+01
3.885398899999999855e+01 6.624007999999999896e+00 1.528001399999999954e+01
3.885099799999999703e+01 6.617995999999999768e+00 1.527299499999999988e+01
3.894200099999999765e+01 6.516005999999999965e+00 1.528099100000000021e+01
3.891700699999999813e+01 6.559006000000000114e+00 1.530900600000000011e+01
3.889799500000000165e+01 6.599991000000000163e+00 1.529100000000000037e+01
3.887901300000000049e+01 6.581985000000000419e+00 1.525001499999999943e+01
3.889799500000000165e+01 6.577010999999999719e+00 1.529301500000000047e+01
3.888899200000000178e+01 6.585007000000000055e+00 1.530198700000000045e+01
3.893000800000000083e+01 6.530014000000000429e+00 1.534400899999999979e+01
3.897599799999999703e+01 6.527999999999999581e+00 1.531800800000000073e+01
3.899598699999999951e+01 6.517990000000000173e+00 1.533500699999999917e+01
3.890199299999999738e+01 6.589005000000000223e+00 1.532099900000000048e+01
3.895799300000000187e+01 6.620009999999999728e+00 1.535701000000000072e+01
3.894801300000000310e+01 6.586990000000000123e+00 1.534199500000000072e+01
3.899598699999999951e+01 6.603011999999999659e+00 1.533799699999999966e+01
3.898201000000000249e+01 6.615005000000000024e+00 1.536601300000000059e+01
3.881700099999999765e+01 6.632004000000000232e+00 1.528300499999999928e+01
3.879899600000000248e+01 6.659011999999999709e+00 1.525898699999999941e+01
3.880500800000000083e+01 6.654007000000000005e+00 1.528001399999999954e+01
3.879399099999999834e+01 6.675003000000000242e+00 1.525898699999999941e+01
3.879099999999999682e+01 6.673995999999999817e+00 1.527000400000000013e+01
3.883000200000000035e+01 6.641005999999999965e+00 1.526200900000000082e+01
3.878099100000000021e+01 6.706008999999999887e+00 1.526798999999999928e+01
3.878800999999999988e+01 6.698013000000000439e+00 1.528099100000000021e+01
3.878498799999999846e+01 6.689010999999999818e+00 1.527000400000000013e+01
3.890901199999999704e+01 6.590988000000000291e+00 1.543800399999999939e+01
3.871501200000000154e+01 6.771988000000000341e+00 1.525300599999999918e+01
3.866599999999999682e+01 6.482009999999999827e+00 1.572199999999999953e+01
3.934400899999999979e+01 6.547989000000000281e+00 1.588301099999999977e+01
3.945399499999999904e+01 6.137008999999999936e+00 1.530100999999999978e+01
3.912300100000000214e+01 6.046005000000000074e+00 1.501100199999999951e+01
3.908000200000000035e+01 6.044997999999999649e+00 1.511698900000000023e+01
3.902799999999999869e+01 6.041000000000000369e+00 1.511698900000000023e+01
3.900401300000000049e+01 6.103011999999999659e+00 1.511201499999999953e+01
3.907200600000000179e+01 6.077988000000000390e+00 1.510301199999999966e+01
3.908799700000000144e+01 6.037003000000000341e+00 1.516700699999999991e+01
3.906999199999999917e+01 6.059006000000000114e+00 1.512699899999999964e+01
3.908198500000000308e+01 6.030014000000000429e+00 1.514399700000000060e+01
3.906599400000000344e+01 6.056015000000000370e+00 1.514100600000000085e+01
3.908601399999999870e+01 6.051009999999999778e+00 1.515199299999999916e+01
3.902299500000000165e+01 6.104995999999999867e+00 1.513999899999999954e+01
3.903001400000000132e+01 6.077010999999999719e+00 1.512901300000000049e+01
3.900498999999999938e+01 6.086013999999999591e+00 1.512699899999999964e+01
3.900001499999999766e+01 6.082993000000000094e+00 1.514399700000000060e+01
3.908299300000000187e+01 6.063004000000000282e+00 1.513899200000000000e+01
3.915299999999999869e+01 6.007004000000000232e+00 1.515998800000000024e+01
3.918598899999999929e+01 6.001998999999999640e+00 1.516999799999999965e+01
3.914399699999999882e+01 6.000992000000000104e+00 1.513999899999999954e+01
3.913099700000000070e+01 6.030991000000000213e+00 1.513999899999999954e+01
3.913700899999999905e+01 6.014999000000000429e+00 1.514201399999999964e+01
3.917399600000000248e+01 6.021010999999999669e+00 1.514900199999999941e+01
3.938398699999999764e+01 6.003006000000000064e+00 1.521699500000000072e+01
3.934300199999999847e+01 6.120009999999999728e+00 1.522099299999999999e+01
3.933299300000000187e+01 6.120009999999999728e+00 1.522300700000000084e+01
3.933900500000000022e+01 6.068984999999999630e+00 1.520600899999999989e+01
3.934498599999999868e+01 6.098006999999999955e+00 1.523100299999999940e+01
3.932099900000000048e+01 6.163986000000000409e+00 1.524501000000000062e+01
3.928498799999999846e+01 6.224991000000000163e+00 1.524101300000000059e+01
3.946000699999999739e+01 6.176009999999999778e+00 1.531401100000000071e+01
3.933699000000000012e+01 6.172989000000000281e+00 1.525801099999999977e+01
3.934599299999999999e+01 6.150985999999999621e+00 1.526100199999999951e+01
3.927699299999999738e+01 6.231003000000000291e+00 1.529100000000000037e+01
3.929301499999999692e+01 6.216994999999999827e+00 1.525401300000000049e+01
3.926399200000000178e+01 6.242995999999999768e+00 1.525898699999999941e+01
3.928700299999999856e+01 6.245009999999999728e+00 1.527299499999999988e+01
3.932099900000000048e+01 6.220992999999999995e+00 1.531098899999999929e+01
3.935899400000000270e+01 6.198013000000000439e+00 1.533900500000000022e+01
3.948100300000000118e+01 6.181992000000000154e+00 1.532099900000000048e+01
3.948899800000000226e+01 6.151993000000000045e+00 1.533601400000000048e+01
3.940501400000000132e+01 6.201004000000000183e+00 1.535798600000000036e+01
3.949699400000000082e+01 6.223006999999999955e+00 1.537400799999999990e+01
3.921501200000000154e+01 6.298995999999999817e+00 1.528700300000000034e+01
3.906800799999999896e+01 6.336990000000000123e+00 1.525898699999999941e+01
3.920900000000000318e+01 6.294997999999999649e+00 1.530799900000000058e+01
3.917100500000000096e+01 6.307998999999999690e+00 1.529499799999999965e+01
3.917799399999999821e+01 6.301009999999999778e+00 1.526899700000000060e+01
3.922401399999999683e+01 6.311995999999999718e+00 1.529399100000000011e+01
3.916398600000000130e+01 6.349991000000000163e+00 1.530000300000000024e+01
3.916801499999999692e+01 6.323990000000000222e+00 1.528599499999999978e+01
3.916099499999999978e+01 6.339005000000000223e+00 1.528999300000000083e+01
3.915699800000000153e+01 6.340988000000000291e+00 1.528999300000000083e+01
3.909300199999999847e+01 6.379990000000000272e+00 1.528999300000000083e+01
3.903999300000000261e+01 6.430007999999999946e+00 1.529100000000000037e+01
3.901200899999999905e+01 6.396988000000000341e+00 1.525199899999999964e+01
3.904798900000000117e+01 6.399002000000000301e+00 1.525001499999999943e+01
3.902799999999999869e+01 6.426009999999999778e+00 1.527699299999999916e+01
3.903300500000000284e+01 6.409988000000000241e+00 1.527699299999999916e+01
3.904701200000000227e+01 6.383987000000000300e+00 1.530198700000000045e+01
3.908198500000000308e+01 6.393996999999999709e+00 1.530400099999999952e+01
3.907899499999999904e+01 6.426986999999999561e+00 1.528099100000000021e+01
3.910701000000000249e+01 6.375992000000000104e+00 1.529100000000000037e+01
