6.939849900000000238e-01 2.985798644999999851e+01 9.362014770000000041e+00
7.010040300000000002e-01 2.987098694000000165e+01 9.366012570000000537e+00
6.899870000000000170e-01 2.985700989000000050e+01 9.393997190000000330e+00
7.140049899999999505e-01 2.982200622999999950e+01 9.396011350000000206e+00
5.789949899999999872e-01 2.999400329999999926e+01 9.435012820000000744e+00
5.969999999999999751e-01 2.999000549000000149e+01 9.430007930000000371e+00
6.030120300000000322e-01 2.998799132999999983e+01 9.401992800000000372e+00
6.089940099999999745e-01 2.996199036000000149e+01 9.439987179999999256e+00
6.439970099999999809e-01 2.992201233000000116e+01 9.405014039999999298e+00
6.429899900000000112e-01 2.993598937999999876e+01 9.401992800000000372e+00
6.660000099999999756e-01 2.990000915999999975e+01 9.387008670000000166e+00
6.819919899999999924e-01 2.989299010999999950e+01 9.397994999999999877e+00
6.660000099999999756e-01 2.991700744999999984e+01 9.405990600000000867e+00
6.259919999999999929e-01 2.996998595999999893e+01 9.406997679999999917e+00
6.250150199999999767e-01 2.995500183000000050e+01 9.417007449999999835e+00
6.439970099999999809e-01 2.992900085000000132e+01 9.447006229999999505e+00
9.560089699999999580e-01 2.980000305000000083e+01 9.328994749999999669e+00
7.700039699999999820e-01 2.975199890000000025e+01 9.294998169999999504e+00
7.710109899999999516e-01 2.980400085000000132e+01 9.254013060000000124e+00
7.859950100000000495e-01 2.986399841000000066e+01 9.274002080000000703e+00
9.640049899999999505e-01 2.981199645999999959e+01 9.332992550000000165e+00
9.810029900000000191e-01 2.985200499999999835e+01 9.354995730000000620e+00
9.709929800000000055e-01 2.982301331000000033e+01 9.336013790000000867e+00
9.749910200000000415e-01 2.983799743999999876e+01 9.347000120000000578e+00
9.879909799999999631e-01 2.986299132999999983e+01 9.358993529999999339e+00
8.050079900000000066e-01 2.997401427999999868e+01 9.254989619999999917e+00
7.960050100000000128e-01 2.996299743999999876e+01 9.253005979999999298e+00
9.980009800000000375e-01 2.990800476000000074e+01 9.344009399999999133e+00
9.919890199999999991e-01 2.989601134999999843e+01 9.337997440000000537e+00
1.970059999999999867e-01 2.917900085000000132e+01 9.858993529999999339e+00
4.850010000000000154e-01 2.923100280999999967e+01 9.668991090000000455e+00
4.420009899999999825e-01 2.922099303999999975e+01 9.746994020000000702e+00
4.409939900000000024e-01 2.921000670999999826e+01 9.735000610000000165e+00
4.929960099999999845e-01 2.923200989000000050e+01 9.706008909999999545e+00
4.669949999999999934e-01 2.920899963000000099e+01 9.744003299999999257e+00
4.810029900000000191e-01 2.920698546999999934e+01 9.725997919999999297e+00
4.990080000000000071e-01 2.919300842000000173e+01 9.741989139999999381e+00
1.899700000000000000e-02 2.929200744999999984e+01 9.517990109999999504e+00
2.989959999999999840e-01 2.947700499999999835e+01 9.716995239999999256e+00
1.880040000000000044e-01 2.916700744999999984e+01 9.873001099999999752e+00
8.601399999999999324e-02 2.917201233000000116e+01 9.781997679999999917e+00
5.400100000000000039e-02 2.917500305000000083e+01 9.810989380000000537e+00
3.801000000000000212e-02 2.922999572999999884e+01 9.810012820000000744e+00
1.899700000000000000e-02 2.922401427999999868e+01 9.777999879999999422e+00
2.400199999999999903e-02 2.922599792000000107e+01 9.771987920000000827e+00
2.500899999999999998e-02 2.923701476999999826e+01 9.780014039999999298e+00
2.500899999999999998e-02 2.920799255000000016e+01 9.788986209999999133e+00
5.198699999999999849e-02 2.919700622999999950e+01 9.784011839999999793e+00
4.499800000000000327e-02 2.920899963000000099e+01 9.783004760000000744e+00
6.199600000000000249e-02 2.919898986999999835e+01 9.802993770000000495e+00
7.399000000000000021e-02 2.920899963000000099e+01 9.794998169999999504e+00
6.401099999999999846e-02 2.920899963000000099e+01 9.797988889999999174e+00
9.901400000000000479e-02 2.919398499000000058e+01 9.801010129999999876e+00
1.070099999999999940e-01 2.920698546999999934e+01 9.801010129999999876e+00
9.599299999999999500e-02 2.918598937999999876e+01 9.844985960000000702e+00
1.160130000000000050e-01 2.918199157999999827e+01 9.822006229999999505e+00
1.190029999999999977e-01 2.918199157999999827e+01 9.817001339999999132e+00
1.209869999999999973e-01 2.918101500999999942e+01 9.835006710000000041e+00
2.039950000000000097e-01 2.916600036999999901e+01 9.861007689999999215e+00
1.299899999999999944e-01 2.917399597000000000e+01 9.845993039999999752e+00
1.509860000000000091e-01 2.918101500999999942e+01 9.824996949999999174e+00
1.639859999999999929e-01 2.918000792999999859e+01 9.826004030000000000e+00
1.630099999999999882e-01 2.917100525000000033e+01 9.836013790000000867e+00
1.699980100000000049e-01 2.917500305000000083e+01 9.857009890000000496e+00
1.760099999999999998e-01 2.918199157999999827e+01 9.844985960000000702e+00
2.050019899999999951e-01 2.918101500999999942e+01 9.873001099999999752e+00
2.100069999999999992e-01 2.917399597000000000e+01 9.866012570000000537e+00
2.370149900000000087e-01 2.917799377000000050e+01 9.861007689999999215e+00
2.440029999999999977e-01 2.918000792999999859e+01 9.865004539999999267e+00
1.290129999999999888e-01 2.919398499000000058e+01 9.813003540000000413e+00
1.559909999999999908e-01 2.919398499000000058e+01 9.827987670000000620e+00
1.349950000000000039e-01 2.920600891000000132e+01 9.814010619999999463e+00
1.490019999999999956e-01 2.920698546999999934e+01 9.822006229999999505e+00
1.869959999999999956e-01 2.919099426000000008e+01 9.836013790000000867e+00
2.039950000000000097e-01 2.919801331000000033e+01 9.871994020000000702e+00
1.920010000000000050e-01 2.920600891000000132e+01 9.841995239999999256e+00
2.469939999999999913e-01 2.918901062000000124e+01 9.857009890000000496e+00
2.429960100000000123e-01 2.918501282000000074e+01 9.922988889999999174e+00
2.010039999999999882e-01 2.919099426000000008e+01 9.935012820000000744e+00
1.469880000000000075e-01 2.916600036999999901e+01 9.982986450000000289e+00
1.410059899999999977e-01 2.915400696000000025e+01 9.983993529999999339e+00
1.680149999999999977e-01 2.915299987999999942e+01 9.996994020000000702e+00
1.609950099999999940e-01 2.915199279999999860e+01 9.996994020000000702e+00
1.689910000000000023e-01 2.916398621000000091e+01 9.981002809999999670e+00
1.810150000000000092e-01 2.916300963999999851e+01 9.987014770000000041e+00
1.959990000000000065e-01 2.916999816999999950e+01 9.969985960000000702e+00
2.119900000000000118e-01 2.917601013000000165e+01 9.952011110000000826e+00
2.050019899999999951e-01 2.918101500999999942e+01 9.951004030000000000e+00
2.090000100000000138e-01 2.917100525000000033e+01 9.968002320000000083e+00
1.980129899999999998e-01 2.918000792999999859e+01 9.966995239999999256e+00
2.259980000000000044e-01 2.918501282000000074e+01 9.939987179999999256e+00
2.079930000000000112e-01 2.917201233000000116e+01 9.978012079999999173e+00
2.389979999999999882e-01 2.920298766999999884e+01 9.939010619999999463e+00
4.569849999999999746e-01 2.918598937999999876e+01 9.780014039999999298e+00
3.620150100000000259e-01 2.920698546999999934e+01 9.802993770000000495e+00
2.509919999999999929e-01 2.917601013000000165e+01 9.867996220000000207e+00
2.800140099999999799e-01 2.918598937999999876e+01 9.867996220000000207e+00
3.090060099999999976e-01 2.918501282000000074e+01 9.873001099999999752e+00
3.029940099999999803e-01 2.918699645999999959e+01 9.871994020000000702e+00
3.719939899999999966e-01 2.917500305000000083e+01 9.854995730000000620e+00
3.539890099999999928e-01 2.918199157999999827e+01 9.867996220000000207e+00
2.540129999999999888e-01 2.920201111000000083e+01 9.857986450000000289e+00
2.759859900000000144e-01 2.918800354000000041e+01 9.867996220000000207e+00
3.090060099999999976e-01 2.921699523999999926e+01 9.845993039999999752e+00
2.840119899999999920e-01 2.919499207000000141e+01 9.866989139999999381e+00
2.849879900000000243e-01 2.919898986999999835e+01 9.866012570000000537e+00
2.930150000000000254e-01 2.921101378999999909e+01 9.865004539999999267e+00
3.260040000000000160e-01 2.919099426000000008e+01 9.856002809999999670e+00
3.379969899999999972e-01 2.919898986999999835e+01 9.843002320000000083e+00
3.440090100000000040e-01 2.920201111000000083e+01 9.827987670000000620e+00
3.530119999999999925e-01 2.920600891000000132e+01 9.827987670000000620e+00
3.669889900000000149e-01 2.921400451999999959e+01 9.814010619999999463e+00
3.620150100000000259e-01 2.922401427999999868e+01 9.840988160000000207e+00
3.230130099999999893e-01 2.919200134000000091e+01 9.858993529999999339e+00
3.400120099999999757e-01 2.918998717999999926e+01 9.856002809999999670e+00
3.159939900000000024e-01 2.919801331000000033e+01 9.866989139999999381e+00
3.669889900000000149e-01 2.919099426000000008e+01 9.847000120000000578e+00
4.439849900000000238e-01 2.920100403000000000e+01 9.784011839999999793e+00
4.050140099999999799e-01 2.919999694999999917e+01 9.801010129999999876e+00
4.239959999999999840e-01 2.920201111000000083e+01 9.780014039999999298e+00
4.109950099999999940e-01 2.919099426000000008e+01 9.784011839999999793e+00
4.279940099999999803e-01 2.918998717999999926e+01 9.787002559999999463e+00
4.409939900000000024e-01 2.921998595999999893e+01 9.768997190000000330e+00
4.480130099999999893e-01 2.920600891000000132e+01 9.753005979999999298e+00
4.730069900000000160e-01 2.918998717999999926e+01 9.775985719999999546e+00
4.820100099999999888e-01 2.920100403000000000e+01 9.768997190000000330e+00
4.030000000000000249e-01 2.917399597000000000e+01 9.824996949999999174e+00
4.139860000000000206e-01 2.917900085000000132e+01 9.817001339999999132e+00
3.809969999999999746e-01 2.919599914999999868e+01 9.818008419999999958e+00
3.830110099999999851e-01 2.918800354000000041e+01 9.840988160000000207e+00
2.710109900000000072e-01 2.916899108999999868e+01 9.929000849999999545e+00
2.530060100000000034e-01 2.917601013000000165e+01 9.930007930000000371e+00
2.639920099999999992e-01 2.917900085000000132e+01 9.886001589999999339e+00
2.629849899999999741e-01 2.918000792999999859e+01 9.879989619999999917e+00
2.549900099999999892e-01 2.918000792999999859e+01 9.880996700000000743e+00
2.759859900000000144e-01 2.917601013000000165e+01 9.896011350000000206e+00
2.939910000000000023e-01 2.917601013000000165e+01 9.887985229999999959e+00
2.859950099999999940e-01 2.918199157999999827e+01 9.904006960000000248e+00
2.629849899999999741e-01 2.918000792999999859e+01 9.935989380000000537e+00
2.870030100000000028e-01 2.918400573999999992e+01 9.913986209999999133e+00
2.870030100000000028e-01 2.922599792000000107e+01 9.934005739999999918e+00
2.530060100000000034e-01 2.917500305000000083e+01 9.981002809999999670e+00
2.629849899999999741e-01 2.916899108999999868e+01 9.940994260000000082e+00
2.800140099999999799e-01 2.918101500999999942e+01 9.952011110000000826e+00
2.649989999999999846e-01 2.918000792999999859e+01 9.961990359999999711e+00
2.780000000000000249e-01 2.918699645999999959e+01 9.977005000000000123e+00
2.710109900000000072e-01 2.917201233000000116e+01 9.974990840000000247e+00
2.629849899999999741e-01 2.916899108999999868e+01 9.995010380000000083e+00
2.769930099999999840e-01 2.916700744999999984e+01 9.996994020000000702e+00
2.769930099999999840e-01 2.918901062000000124e+01 9.990004539999999267e+00
2.849879900000000243e-01 2.919300842000000173e+01 9.975997919999999297e+00
2.870030100000000028e-01 2.919801331000000033e+01 9.974014280000000454e+00
3.990019899999999731e-01 2.918299865999999909e+01 9.875991819999999421e+00
3.369900000000000118e-01 2.925700378000000157e+01 9.858993529999999339e+00
7.110139699999999952e-01 2.917601013000000165e+01 9.557998660000000868e+00
7.329859699999999867e-01 2.917500305000000083e+01 9.534988399999999586e+00
5.879970199999999814e-01 2.920100403000000000e+01 9.624008180000000579e+00
5.900120100000000312e-01 2.921299743999999876e+01 9.621994020000000702e+00
6.230009800000000375e-01 2.919300842000000173e+01 9.568008419999999958e+00
6.049960300000000180e-01 2.921101378999999909e+01 9.595993039999999752e+00
6.219940200000000363e-01 2.919099426000000008e+01 9.617996220000000207e+00
5.990139799999999459e-01 2.921000670999999826e+01 9.624008180000000579e+00
7.320100099999999888e-01 2.918699645999999959e+01 9.505996700000000743e+00
7.440029999999999699e-01 2.916700744999999984e+01 9.530990600000000867e+00
6.639860300000000048e-01 2.920100403000000000e+01 9.541000370000000785e+00
6.819919899999999924e-01 2.920799255000000016e+01 9.552993770000000495e+00
7.020109900000000014e-01 2.919398499000000058e+01 9.538009640000000289e+00
7.480009800000000375e-01 2.920799255000000016e+01 9.505996700000000743e+00
7.400050200000000133e-01 2.919200134000000091e+01 9.521011350000000206e+00
6.959990299999999630e-01 2.918101500999999942e+01 9.580001830000000496e+00
6.530000000000000249e-01 2.919200134000000091e+01 9.590011600000000414e+00
6.460109899999999516e-01 2.920500183000000050e+01 9.585006710000000041e+00
6.630099999999999882e-01 2.919300842000000173e+01 9.577987670000000620e+00
6.869959799999999506e-01 2.918800354000000041e+01 9.564010619999999463e+00
6.729890099999999986e-01 2.918800354000000041e+01 9.565994260000000082e+00
6.939849900000000238e-01 2.919099426000000008e+01 9.572006229999999505e+00
6.909940199999999866e-01 2.919898986999999835e+01 9.573989870000000124e+00
5.699920099999999934e-01 2.919398499000000058e+01 9.659988399999999586e+00
5.560150099999999762e-01 2.923600769000000099e+01 9.663986209999999133e+00
5.579990099999999620e-01 2.922599792000000107e+01 9.636001589999999339e+00
5.479890099999999986e-01 2.921299743999999876e+01 9.663009640000000289e+00
5.810089699999999580e-01 2.919099426000000008e+01 9.659011839999999793e+00
5.760040300000000002e-01 2.920799255000000016e+01 9.625991819999999421e+00
5.649870000000000170e-01 2.920500183000000050e+01 9.655014039999999298e+00
6.190029999999999699e-01 2.919398499000000058e+01 9.633010860000000619e+00
6.079859699999999867e-01 2.919898986999999835e+01 9.642990109999999504e+00
6.120150100000000259e-01 2.918998717999999926e+01 9.663986209999999133e+00
5.410000099999999756e-01 2.916999816999999950e+01 9.736007689999999215e+00
5.059970000000000301e-01 2.920799255000000016e+01 9.701004030000000000e+00
5.179899900000000112e-01 2.921501160000000041e+01 9.695999150000000455e+00
5.269929800000000553e-01 2.919700622999999950e+01 9.711013790000000867e+00
5.070040199999999997e-01 2.920799255000000016e+01 9.708999629999999215e+00
5.380099999999999882e-01 2.919099426000000008e+01 9.698989870000000124e+00
5.399929900000000060e-01 2.920100403000000000e+01 9.714005470000000031e+00
5.519869899999999552e-01 2.920899963000000099e+01 9.705001830000000496e+00
6.620029800000000186e-01 2.919200134000000091e+01 9.628005979999999298e+00
7.689970099999999809e-01 2.916600036999999901e+01 9.538986209999999133e+00
7.729949999999999877e-01 2.916999816999999950e+01 9.507003779999999793e+00
7.719879699999999678e-01 2.915998839999999959e+01 9.527999879999999422e+00
7.889860300000000048e-01 2.922801207999999917e+01 9.505996700000000743e+00
7.020109900000000014e-01 2.931700134000000091e+01 9.534988399999999586e+00
6.379849899999999741e-01 2.932099914999999868e+01 9.539993289999999959e+00
5.630040200000000494e-01 2.943501282000000074e+01 9.610000610000000165e+00
5.980070199999999447e-01 2.941801453000000066e+01 9.585006710000000041e+00
5.219879699999999678e-01 2.948600769000000099e+01 9.611007689999999215e+00
5.659940199999999866e-01 2.947300720000000140e+01 9.595993039999999752e+00
5.640109800000000506e-01 2.946501160000000041e+01 9.608993529999999339e+00
5.800020099999999568e-01 2.946800232000000008e+01 9.607986450000000289e+00
6.859890199999999494e-01 2.942799377000000050e+01 9.563003540000000413e+00
6.370090200000000369e-01 2.937800598000000107e+01 9.574996949999999174e+00
6.250150199999999767e-01 2.938600158999999934e+01 9.573989870000000124e+00
7.429959800000000003e-01 2.946998595999999893e+01 9.581008909999999545e+00
9.098799999999999943e-02 2.972599792000000107e+01 9.956008909999999545e+00
3.870089899999999972e-01 2.952101134999999843e+01 9.533004760000000744e+00
3.849950100000000264e-01 2.950401305999999835e+01 9.518997190000000330e+00
3.740080000000000071e-01 2.963499450999999851e+01 9.551986689999999669e+00
4.009859900000000144e-01 2.963301085999999884e+01 9.513992310000000785e+00
4.059909899999999960e-01 2.964698792000000083e+01 9.521987920000000827e+00
4.149929900000000060e-01 2.971299743999999876e+01 9.521011350000000206e+00
3.499909900000000018e-01 2.950199890000000025e+01 9.706985469999999339e+00
4.569849999999999746e-01 2.956001282000000074e+01 9.666000370000000785e+00
4.560089999999999977e-01 2.955699157999999827e+01 9.680007930000000371e+00
4.829860000000000264e-01 2.952400207999999893e+01 9.667007449999999835e+00
4.699859900000000201e-01 2.951399230999999901e+01 9.679000849999999545e+00
4.499970099999999751e-01 2.958100891000000132e+01 9.663009640000000289e+00
4.040069900000000103e-01 2.950898743000000124e+01 9.711013790000000867e+00
3.809969999999999746e-01 2.952900696000000025e+01 9.716995239999999256e+00
4.359889900000000207e-01 2.960798644999999851e+01 9.703994749999999669e+00
2.570039900000000155e-01 2.970201111000000083e+01 9.663009640000000289e+00
3.379969899999999972e-01 2.973200989000000050e+01 9.744003299999999257e+00
3.409880100000000080e-01 2.969999694999999917e+01 9.741012570000000537e+00
4.279940099999999803e-01 2.963099670000000074e+01 9.686996459999999587e+00
4.030000000000000249e-01 2.963899230999999901e+01 9.698013310000000331e+00
4.059909899999999960e-01 2.964100647000000066e+01 9.715011600000000414e+00
4.550020100000000123e-01 2.968299865999999909e+01 9.702987670000000620e+00
3.579860000000000264e-01 2.979100036999999901e+01 9.512985229999999959e+00
3.809969999999999746e-01 2.967399597000000000e+01 9.751998900000000248e+00
2.169949999999999934e-01 2.991499329000000174e+01 9.810012820000000744e+00
1.150049999999999961e-01 2.999198914000000116e+01 9.849990840000000247e+00
2.110140000000000071e-01 2.991999816999999950e+01 9.849990840000000247e+00
2.169949999999999934e-01 2.993400573999999992e+01 9.827987670000000620e+00
2.209929999999999950e-01 2.989299010999999950e+01 9.814987179999999256e+00
2.310029999999999861e-01 2.990400696000000025e+01 9.833999629999999215e+00
1.299899999999999944e-01 2.997999572999999884e+01 9.844009399999999133e+00
1.790009999999999935e-01 2.994898986999999835e+01 9.844009399999999133e+00
1.689910000000000023e-01 2.999198914000000116e+01 9.850997919999999297e+00
1.980129899999999998e-01 2.994898986999999835e+01 9.813003540000000413e+00
2.010039999999999882e-01 2.994700622999999950e+01 9.840988160000000207e+00
1.970059999999999867e-01 2.996800232000000008e+01 9.831985469999999339e+00
3.498799999999999827e-02 2.976100158999999934e+01 9.942001339999999132e+00
1.840060099999999976e-01 2.977101134999999843e+01 9.875991819999999421e+00
3.010100099999999945e-01 2.978700256000000124e+01 9.771987920000000827e+00
3.249970099999999751e-01 2.981498717999999926e+01 9.788009640000000289e+00
2.889860000000000206e-01 2.981800842000000173e+01 9.802993770000000495e+00
2.830050000000000066e-01 2.982899474999999967e+01 9.802993770000000495e+00
3.360139999999999794e-01 2.982499694999999917e+01 9.784011839999999793e+00
3.620150100000000259e-01 2.984300232000000008e+01 9.767990109999999504e+00
5.550079900000000066e-01 2.950401305999999835e+01 9.621994020000000702e+00
6.399989699999999448e-01 2.963301085999999884e+01 9.620010380000000083e+00
5.120090200000000369e-01 2.952000427000000116e+01 9.626998900000000248e+00
6.230009800000000375e-01 2.962699890000000025e+01 9.636001589999999339e+00
7.889860300000000048e-01 2.956999207000000141e+01 9.621994020000000702e+00
7.570040199999999997e-01 2.954301453000000066e+01 9.637008670000000166e+00
7.629849899999999741e-01 2.976399230999999901e+01 9.701004030000000000e+00
1.306015010000000087e+00 2.954798888999999917e+01 9.943984990000000579e+00
1.201004030000000000e+00 2.901399230999999901e+01 9.401992800000000372e+00
1.003005979999999964e+00 2.906401062000000124e+01 9.003005979999999298e+00
1.337996959999999902e+00 2.909199523999999926e+01 9.185989380000000537e+00
1.206984999999999975e+00 2.937300109999999975e+01 9.143997190000000330e+00
1.241989020000000110e+00 2.936100769000000099e+01 9.133987429999999463e+00
1.081984999999999975e+00 2.940901184000000157e+01 9.149002080000000703e+00
1.031998039999999950e+00 2.940000915999999975e+01 9.156997679999999917e+00
1.026993040000000024e+00 2.941899108999999868e+01 9.132003779999999793e+00
1.030014039999999964e+00 2.949900818000000058e+01 9.214005470000000031e+00
1.293015000000000025e+00 2.934999084000000025e+01 9.155990600000000867e+00
1.418015000000000025e+00 2.909999084000000025e+01 9.387985229999999959e+00
1.721999999999999975e+00 2.905601500999999942e+01 9.253005979999999298e+00
1.711014030000000075e+00 2.903800963999999851e+01 9.245010380000000083e+00
1.716995000000000049e+00 2.904499816999999950e+01 9.245010380000000083e+00
1.693007949999999928e+00 2.900999450999999851e+01 9.237991329999999834e+00
1.694991949999999914e+00 2.902101134999999843e+01 9.249008180000000579e+00
1.702988029999999986e+00 2.903001404000000107e+01 9.249008180000000579e+00
1.729995970000000050e+00 2.906300354000000041e+01 9.248001099999999752e+00
1.737015009999999915e+00 2.907099914999999868e+01 9.248001099999999752e+00
1.693984989999999913e+00 2.931999207000000141e+01 9.094985960000000702e+00
1.672989009999999999e+00 2.901200867000000017e+01 9.271987920000000827e+00
1.744003060000000049e+00 2.909498595999999893e+01 9.267990109999999504e+00
1.706009029999999926e+00 2.908399963000000099e+01 9.255996700000000743e+00
1.741013050000000062e+00 2.908299255000000016e+01 9.257003779999999793e+00
1.753005979999999964e+00 2.910099792000000107e+01 9.263992310000000785e+00
1.762009020000000037e+00 2.910700989000000050e+01 9.257003779999999793e+00
1.767989990000000011e+00 2.911698914000000116e+01 9.262008670000000166e+00
1.778000000000000025e+00 2.912300109999999975e+01 9.254013060000000124e+00
1.791000010000000087e+00 2.915501404000000107e+01 9.277999879999999422e+00
1.788010000000000099e+00 2.914399719000000033e+01 9.267013549999999711e+00
1.827988029999999986e+00 2.922599792000000107e+01 9.292007449999999835e+00
1.827010990000000001e+00 2.921299743999999876e+01 9.275009159999999753e+00
1.895004029999999950e+00 2.929600525000000033e+01 9.317001339999999132e+00
1.858994009999999975e+00 2.928401184000000157e+01 9.294998169999999504e+00
1.853989010000000048e+00 2.926200867000000017e+01 9.302993770000000495e+00
1.865005019999999902e+00 2.928099059999999909e+01 9.311996459999999587e+00
1.844985960000000036e+00 2.928498839999999959e+01 9.349014280000000454e+00
1.878005979999999964e+00 2.929899597000000000e+01 9.318984990000000579e+00
1.918015000000000025e+00 2.938398743000000124e+01 9.382003779999999793e+00
1.129012939999999965e+00 2.999198914000000116e+01 9.357986450000000289e+00
1.081009029999999926e+00 2.953999329000000174e+01 9.189987179999999256e+00
1.041000010000000087e+00 2.950599670000000074e+01 9.206985469999999339e+00
1.057999010000000073e+00 2.952598572000000132e+01 9.206985469999999339e+00
1.223006959999999976e+00 2.965699767999999992e+01 9.172988889999999174e+00
1.126999019999999962e+00 2.984700012000000058e+01 9.116012570000000537e+00
1.012009020000000037e+00 2.980101013000000165e+01 9.117996220000000207e+00
1.012009020000000037e+00 2.980601500999999942e+01 9.112014770000000041e+00
1.025009040000000038e+00 2.983100891000000132e+01 9.121994020000000702e+00
1.034988049999999937e+00 2.984001160000000041e+01 9.120010380000000083e+00
1.063004019999999938e+00 2.987098694000000165e+01 9.097000120000000578e+00
1.138991950000000086e+00 2.983900451999999959e+01 9.068008419999999958e+00
1.108994009999999975e+00 2.988301085999999884e+01 9.054000849999999545e+00
1.060013059999999951e+00 2.988700867000000017e+01 9.120986939999999876e+00
1.068984989999999913e+00 2.991999816999999950e+01 9.094009399999999133e+00
1.086989999999999901e+00 2.988499450999999851e+01 9.083999629999999215e+00
1.073012950000000076e+00 2.989601134999999843e+01 9.086013790000000867e+00
1.083999989999999913e+00 2.990400696000000025e+01 9.081985469999999339e+00
1.102004999999999901e+00 2.988798523000000174e+01 9.080001830000000496e+00
1.070999030000000074e+00 2.988200378000000157e+01 9.099990840000000247e+00
1.061995980000000062e+00 2.996101378999999909e+01 9.120986939999999876e+00
1.093001960000000050e+00 2.997200012000000058e+01 9.123001099999999752e+00
1.068984989999999913e+00 2.993800354000000041e+01 9.113998410000000661e+00
1.077988029999999986e+00 2.994898986999999835e+01 9.116012570000000537e+00
1.073989990000000061e+00 2.996800232000000008e+01 9.113998410000000661e+00
1.086989999999999901e+00 2.995899963000000099e+01 9.116012570000000537e+00
1.082993029999999912e+00 2.997801207999999917e+01 9.113998410000000661e+00
1.072005990000000075e+00 2.999198914000000116e+01 9.120986939999999876e+00
1.091995000000000049e+00 2.998799132999999983e+01 9.115004539999999267e+00
1.100998039999999900e+00 2.999900818000000058e+01 9.116012570000000537e+00
1.203994989999999987e+00 2.988301085999999884e+01 9.060989380000000537e+00
1.138991950000000086e+00 2.991099548000000041e+01 9.048995970000000000e+00
1.126999019999999962e+00 2.990400696000000025e+01 9.056015009999999421e+00
1.164993050000000085e+00 2.992900085000000132e+01 9.063003540000000413e+00
1.211989999999999901e+00 2.993199157999999827e+01 9.107986450000000289e+00
1.189010979999999940e+00 2.991600036999999901e+01 9.117996220000000207e+00
1.220993039999999974e+00 2.992500305000000083e+01 9.116989139999999381e+00
1.039993050000000085e+00 2.985301207999999917e+01 9.128005979999999298e+00
1.050003049999999938e+00 2.986201476999999826e+01 9.125991819999999421e+00
1.013991950000000086e+00 2.982301331000000033e+01 9.128005979999999298e+00
1.030990960000000012e+00 2.982499694999999917e+01 9.133987429999999463e+00
1.004012939999999965e+00 2.999800109999999975e+01 9.158004760000000744e+00
1.021010989999999952e+00 2.999800109999999975e+01 9.160994529999999969e+00
1.055008050000000086e+00 2.998899841000000066e+01 9.136001589999999339e+00
1.060013059999999951e+00 2.997200012000000058e+01 9.142990109999999504e+00
1.035995009999999938e+00 2.998701476999999826e+01 9.158004760000000744e+00
1.206009029999999926e+00 2.991999816999999950e+01 9.128005979999999298e+00
1.003005979999999964e+00 2.992201233000000116e+01 9.353012079999999173e+00
1.012984990000000085e+00 2.991600036999999901e+01 9.362014770000000041e+00
1.008010979999999890e+00 2.993598937999999876e+01 9.362991329999999834e+00
1.025009040000000038e+00 2.997898865000000157e+01 9.366012570000000537e+00
1.051010009999999939e+00 2.999000549000000149e+01 9.370986939999999876e+00
1.076004030000000000e+00 2.998399352999999934e+01 9.384995460000000733e+00
1.008010979999999890e+00 2.997599792000000107e+01 9.383987429999999463e+00
1.025009040000000038e+00 2.997700499999999835e+01 9.387985229999999959e+00
1.085006949999999915e+00 2.999400329999999926e+01 9.386001589999999339e+00
1.073989990000000061e+00 2.997099303999999975e+01 9.401992800000000372e+00
1.107010009999999989e+00 2.999501038000000008e+01 9.388992310000000785e+00
1.125991940000000024e+00 2.999299621999999843e+01 9.387008670000000166e+00
1.143996950000000012e+00 2.999800109999999975e+01 9.399002080000000703e+00
1.335006949999999915e+00 2.999900818000000058e+01 9.482986450000000289e+00
1.315994019999999987e+00 2.999900818000000058e+01 9.452987670000000620e+00
1.908004999999999951e+00 2.961601256999999876e+01 9.315994260000000082e+00
1.716995000000000049e+00 2.975898743000000124e+01 9.156997679999999917e+00
1.136001940000000099e+00 2.905900573999999992e+01 9.972000120000000578e+00
1.078994989999999987e+00 2.917799377000000050e+01 9.996994020000000702e+00
1.095993039999999974e+00 2.913200378000000157e+01 9.999008180000000579e+00
1.205001949999999988e+00 2.935798644999999851e+01 9.916000370000000785e+00
1.246994020000000036e+00 2.932398986999999835e+01 9.930007930000000371e+00
1.188004019999999938e+00 2.937098694000000165e+01 9.899002080000000703e+00
1.201004030000000000e+00 2.928199767999999992e+01 9.951004030000000000e+00
1.228989010000000048e+00 2.927598572000000132e+01 9.961013790000000867e+00
1.248000980000000038e+00 2.941899108999999868e+01 9.927993770000000495e+00
1.168990970000000074e+00 2.940299987999999942e+01 9.906997679999999917e+00
1.245010020000000051e+00 2.940501404000000107e+01 9.914993289999999959e+00
1.279006960000000026e+00 2.943998717999999926e+01 9.966995239999999256e+00
1.650985960000000086e+00 2.905699157999999827e+01 9.669998169999999504e+00
1.572005990000000075e+00 2.900599670000000074e+01 9.748001099999999752e+00
1.043015000000000025e+00 2.976399230999999901e+01 9.565994260000000082e+00
1.110000969999999976e+00 2.976100158999999934e+01 9.649002080000000703e+00
1.048995970000000000e+00 2.978099059999999909e+01 9.647994999999999877e+00
1.047011970000000014e+00 2.977400207999999893e+01 9.722000120000000578e+00
1.660995009999999938e+00 2.999198914000000116e+01 9.732009890000000496e+00
3.014998910000000087e+00 2.910398865000000157e+01 9.585006710000000041e+00
2.000015020000000199e+00 2.898399352999999934e+01 8.931015009999999421e+00
2.014998910000000087e+00 2.805299377000000050e+01 8.918014530000000661e+00
2.068007950000000150e+00 2.898100280999999967e+01 8.969985960000000702e+00
2.065994020000000209e+00 2.899299621999999843e+01 8.960006710000000041e+00
2.242995979999999889e+00 2.953099059999999909e+01 8.977005000000000123e+00
2.125992060000000183e+00 2.905000305000000083e+01 8.978988649999999794e+00
2.133011100000000049e+00 2.905699157999999827e+01 8.978012079999999173e+00
2.095993040000000196e+00 2.903401184000000157e+01 8.972000120000000578e+00
2.048995970000000000e+00 2.903898621000000091e+01 8.969985960000000702e+00
2.030014040000000186e+00 2.900099181999999942e+01 8.945999150000000455e+00
2.013992070000000023e+00 2.901298523000000174e+01 8.956008909999999545e+00
2.046005010000000013e+00 2.901200867000000017e+01 8.961013790000000867e+00
2.033005000000000173e+00 2.901100158999999934e+01 8.953994749999999669e+00
2.044997930000000075e+00 2.902799987999999942e+01 8.961013790000000867e+00
2.039993050000000085e+00 2.901899719000000033e+01 8.953994749999999669e+00
2.054001089999999863e+00 2.901899719000000033e+01 8.958999629999999215e+00
2.061995979999999840e+00 2.902500915999999975e+01 8.956008909999999545e+00
2.102005000000000123e+00 2.904200744999999984e+01 8.974014280000000454e+00
2.070998910000000137e+00 2.901799010999999950e+01 8.961990359999999711e+00
2.077987910000000049e+00 2.902598572000000132e+01 8.961013790000000867e+00
2.067001100000000147e+00 2.903300476000000074e+01 8.965011600000000414e+00
2.068007950000000150e+00 2.903300476000000074e+01 8.957992550000000165e+00
2.065994020000000209e+00 2.904100036999999901e+01 8.956985469999999339e+00
2.074996950000000062e+00 2.903999329000000174e+01 8.956985469999999339e+00
2.090012070000000222e+00 2.904200744999999984e+01 8.966995239999999256e+00
2.085006949999999915e+00 2.903300476000000074e+01 8.960006710000000041e+00
2.081008909999999990e+00 2.904798888999999917e+01 8.957992550000000165e+00
2.096999879999999816e+00 2.905000305000000083e+01 8.968002320000000083e+00
2.112015009999999915e+00 2.904798888999999917e+01 8.968002320000000083e+00
2.094985959999999814e+00 2.904798888999999917e+01 8.992996220000000207e+00
2.107985970000000098e+00 2.906700134000000091e+01 8.975997919999999297e+00
2.098006960000000198e+00 2.907499694999999917e+01 8.973007199999999628e+00
2.112015009999999915e+00 2.907701111000000083e+01 8.983993529999999339e+00
2.124007939999999817e+00 2.906401062000000124e+01 8.973007199999999628e+00
2.112015009999999915e+00 2.909001160000000041e+01 8.972000120000000578e+00
2.163009880000000162e+00 2.905799865999999909e+01 8.991012570000000537e+00
2.137984990000000085e+00 2.905900573999999992e+01 8.958999629999999215e+00
2.168015000000000025e+00 2.909999084000000025e+01 8.978988649999999794e+00
2.138992070000000023e+00 2.907701111000000083e+01 8.968002320000000083e+00
2.139998910000000087e+00 2.906498717999999926e+01 8.979995730000000620e+00
2.130996940000000173e+00 2.907200622999999950e+01 8.973007199999999628e+00
2.153000120000000184e+00 2.906401062000000124e+01 8.982986450000000289e+00
2.155991080000000171e+00 2.907798766999999884e+01 8.974990840000000247e+00
2.145004029999999950e+00 2.907398986999999835e+01 8.985000610000000165e+00
2.159987929999999778e+00 2.908699036000000149e+01 8.981002809999999670e+00
2.182998899999999853e+00 2.907899474999999967e+01 8.991012570000000537e+00
2.169997930000000075e+00 2.910600280999999967e+01 8.995986939999999876e+00
2.188004020000000160e+00 2.908799743999999876e+01 8.996994020000000702e+00
2.004990100000000108e+00 2.913398743000000124e+01 8.918991090000000455e+00
2.086990119999999838e+00 2.924699401999999893e+01 8.879013060000000124e+00
2.103988890000000112e+00 2.922999572999999884e+01 8.883010860000000619e+00
2.024002079999999815e+00 2.931001282000000074e+01 8.841995239999999256e+00
2.047012089999999951e+00 2.934800720000000140e+01 8.862991329999999834e+00
2.029006959999999804e+00 2.931999207000000141e+01 8.847000120000000578e+00
2.030991080000000171e+00 2.933299255000000016e+01 8.862991329999999834e+00
2.038009880000000162e+00 2.934098815999999843e+01 8.866012570000000537e+00
2.048995970000000000e+00 2.946998595999999893e+01 8.873001099999999752e+00
2.067001100000000147e+00 2.926701355000000149e+01 8.879989619999999917e+00
2.048995970000000000e+00 2.925498961999999992e+01 8.889999389999999835e+00
2.048995970000000000e+00 2.936000061000000017e+01 8.876998900000000248e+00
2.107009890000000052e+00 2.933198546999999934e+01 8.918014530000000661e+00
2.067001100000000147e+00 2.934098815999999843e+01 8.878005979999999298e+00
2.086990119999999838e+00 2.933601378999999909e+01 8.899002080000000703e+00
2.073990109999999998e+00 2.934901427999999868e+01 8.880996700000000743e+00
2.081008909999999990e+00 2.935798644999999851e+01 8.883987429999999463e+00
2.077011109999999938e+00 2.936399841000000066e+01 8.887008670000000166e+00
2.086990119999999838e+00 2.936799621999999843e+01 8.889999389999999835e+00
2.094985959999999814e+00 2.937400818000000058e+01 8.887008670000000166e+00
2.133986950000000160e+00 2.931898499000000058e+01 8.916000370000000785e+00
2.107009890000000052e+00 2.940699767999999992e+01 8.908004760000000744e+00
2.076004030000000000e+00 2.942601013000000165e+01 8.882003779999999793e+00
2.085006949999999915e+00 2.940098572000000132e+01 8.887008670000000166e+00
2.110001089999999913e+00 2.938999938999999983e+01 8.889999389999999835e+00
2.120009899999999892e+00 2.939500427000000116e+01 8.883010860000000619e+00
2.100997920000000185e+00 2.938398743000000124e+01 8.892990109999999504e+00
2.103988890000000112e+00 2.941200256000000124e+01 8.875991819999999421e+00
2.121994019999999814e+00 2.940901184000000157e+01 8.900009159999999753e+00
2.043991090000000010e+00 2.947898865000000157e+01 8.906997679999999917e+00
2.068984990000000135e+00 2.949800109999999975e+01 8.887008670000000166e+00
2.072005990000000075e+00 2.946199036000000149e+01 8.883987429999999463e+00
2.077011109999999938e+00 2.947300720000000140e+01 8.895004269999999380e+00
2.099991080000000121e+00 2.949598694000000165e+01 8.896011350000000206e+00
2.142990109999999948e+00 2.942399597000000000e+01 8.913009640000000289e+00
2.149002079999999815e+00 2.941200256000000124e+01 8.925003050000000826e+00
2.142014029999999902e+00 2.940299987999999942e+01 8.918991090000000455e+00
2.155991080000000171e+00 2.941999816999999950e+01 8.926986689999999669e+00
2.169997930000000075e+00 2.943598937999999876e+01 8.930007930000000371e+00
2.163985970000000147e+00 2.942698668999999967e+01 8.925003050000000826e+00
2.176009890000000002e+00 2.944499207000000141e+01 8.935012820000000744e+00
2.184005979999999791e+00 2.945298766999999884e+01 8.936996459999999587e+00
2.176986929999999987e+00 2.945298766999999884e+01 8.926010129999999876e+00
2.212996959999999902e+00 2.947099303999999975e+01 8.931991580000000042e+00
2.233994009999999975e+00 2.941300963999999851e+01 8.974014280000000454e+00
2.215012070000000222e+00 2.938700867000000017e+01 8.961013790000000867e+00
2.228988890000000112e+00 2.940299987999999942e+01 8.965988160000000207e+00
2.223006960000000198e+00 2.939299010999999950e+01 8.958999629999999215e+00
2.198990109999999998e+00 2.943598937999999876e+01 8.944992069999999629e+00
2.212996959999999902e+00 2.942100525000000033e+01 8.958999629999999215e+00
2.202011109999999938e+00 2.938499450999999851e+01 8.974990840000000247e+00
2.146011109999999888e+00 2.946199036000000149e+01 8.948013310000000331e+00
2.185013060000000173e+00 2.946699523999999926e+01 8.956008909999999545e+00
2.241013049999999840e+00 2.948399352999999934e+01 8.961990359999999711e+00
2.203994989999999987e+00 2.944599914999999868e+01 8.953994749999999669e+00
2.211990119999999838e+00 2.945399474999999967e+01 8.953994749999999669e+00
2.220993040000000196e+00 2.946000670999999826e+01 8.952011110000000826e+00
2.227005000000000123e+00 2.946800232000000008e+01 8.956985469999999339e+00
2.235001089999999913e+00 2.947599792000000107e+01 8.957992550000000165e+00
2.249007939999999817e+00 2.949198914000000116e+01 8.964005470000000031e+00
2.276993039999999802e+00 2.938099670000000074e+01 8.975997919999999297e+00
2.254990100000000108e+00 2.938899230999999901e+01 8.964005470000000031e+00
2.255996940000000173e+00 2.946699523999999926e+01 8.970993039999999752e+00
2.326004030000000000e+00 2.946800232000000008e+01 8.990004539999999267e+00
2.245986939999999876e+00 2.950898743000000124e+01 8.951004030000000000e+00
2.241988899999999951e+00 2.959999084000000025e+01 8.974990840000000247e+00
2.059005979999999791e+00 2.952500915999999975e+01 8.884995460000000733e+00
2.030991080000000171e+00 2.962199401999999893e+01 8.900985719999999546e+00
2.054001089999999863e+00 2.956300354000000041e+01 8.892990109999999504e+00
2.043015000000000025e+00 2.959199523999999926e+01 8.895004269999999380e+00
2.090012070000000222e+00 2.960600280999999967e+01 8.909011839999999793e+00
2.084000109999999850e+00 2.959700012000000058e+01 8.905014039999999298e+00
2.093002080000000209e+00 2.962001038000000008e+01 8.926010129999999876e+00
2.106003049999999988e+00 2.962199401999999893e+01 8.912002559999999463e+00
2.245986939999999876e+00 2.961100769000000099e+01 8.987014770000000041e+00
2.245009899999999892e+00 2.956300354000000041e+01 8.969009399999999133e+00
2.224991080000000121e+00 2.958699036000000149e+01 8.975997919999999297e+00
2.025985959999999864e+00 2.966200256000000124e+01 8.910994529999999969e+00
2.038985970000000147e+00 2.968101500999999942e+01 8.921005250000000331e+00
2.022994999999999877e+00 2.964799500000000165e+01 8.895004269999999380e+00
2.037003040000000098e+00 2.966700744999999984e+01 8.905014039999999298e+00
2.047012089999999951e+00 2.968901062000000124e+01 8.923995970000000000e+00
2.054001089999999863e+00 2.969700622999999950e+01 8.926986689999999669e+00
2.060988899999999902e+00 2.970799255000000016e+01 8.932998660000000868e+00
2.073013070000000013e+00 2.971101378999999909e+01 8.922012329999999380e+00
2.220993040000000196e+00 2.965800476000000074e+01 8.979995730000000620e+00
2.214004989999999840e+00 2.964900207999999893e+01 8.975997919999999297e+00
2.229995970000000050e+00 2.962998961999999992e+01 8.981002809999999670e+00
2.219008919999999829e+00 2.969499207000000141e+01 8.983993529999999339e+00
2.320998910000000137e+00 2.953898621000000091e+01 8.998001099999999752e+00
2.314011100000000098e+00 2.953099059999999909e+01 8.992996220000000207e+00
2.254013060000000124e+00 2.953599548000000041e+01 8.969985960000000702e+00
2.254990100000000108e+00 2.950099181999999942e+01 8.969009399999999133e+00
2.262008910000000039e+00 2.950999450999999851e+01 8.974990840000000247e+00
2.268996950000000012e+00 2.951799010999999950e+01 8.978012079999999173e+00
2.289993050000000085e+00 2.950999450999999851e+01 8.992996220000000207e+00
2.283005000000000173e+00 2.950199890000000025e+01 8.988998410000000661e+00
2.306015009999999865e+00 2.952299500000000165e+01 8.991989139999999381e+00
2.298995970000000000e+00 2.951600647000000066e+01 8.990004539999999267e+00
2.294997930000000075e+00 2.955299377000000050e+01 8.999008180000000579e+00
2.250015020000000199e+00 2.969300842000000173e+01 8.996994020000000702e+00
2.206008909999999990e+00 2.976499938999999983e+01 8.999008180000000579e+00
2.198013070000000013e+00 2.982701111000000083e+01 8.992996220000000207e+00
2.017014029999999902e+00 2.812901305999999835e+01 9.250015259999999628e+00
2.220993040000000196e+00 2.802400207999999893e+01 9.056015009999999421e+00
2.067001100000000147e+00 2.801799010999999950e+01 9.061996459999999587e+00
2.030014040000000186e+00 2.803898621000000091e+01 9.041000370000000785e+00
2.007004020000000111e+00 2.801200867000000017e+01 9.056991580000000042e+00
2.012008910000000039e+00 2.802000427000000116e+01 9.055007930000000371e+00
2.017014029999999902e+00 2.802699279999999860e+01 9.054000849999999545e+00
2.013992070000000023e+00 2.803800963999999851e+01 9.073989870000000124e+00
2.030991080000000171e+00 2.800898743000000124e+01 9.064010619999999463e+00
2.060013060000000173e+00 2.801200867000000017e+01 9.069992069999999629e+00
2.034987929999999778e+00 2.801600647000000066e+01 9.063003540000000413e+00
2.095993040000000196e+00 2.802101134999999843e+01 9.067001339999999132e+00
2.120986939999999876e+00 2.802598572000000132e+01 9.081985469999999339e+00
2.159012080000000111e+00 2.801298523000000174e+01 9.047012329999999380e+00
2.186995979999999840e+00 2.806498717999999926e+01 9.056015009999999421e+00
2.159012080000000111e+00 2.803300476000000074e+01 9.073013310000000331e+00
2.141005990000000025e+00 2.800401305999999835e+01 9.074996949999999174e+00
2.156997919999999791e+00 2.802400207999999893e+01 9.065994260000000082e+00
2.181015009999999865e+00 2.802000427000000116e+01 9.073989870000000124e+00
2.186995979999999840e+00 2.802598572000000132e+01 9.067001339999999132e+00
2.211990119999999838e+00 2.802000427000000116e+01 9.070999150000000455e+00
2.241013049999999840e+00 2.802198792000000083e+01 9.076004030000000000e+00
2.246994019999999814e+00 2.802799987999999942e+01 9.068984990000000579e+00
2.060988899999999902e+00 2.818501282000000074e+01 9.099990840000000247e+00
2.005996940000000173e+00 2.817799377000000050e+01 9.077987670000000620e+00
2.046005010000000013e+00 2.820500183000000050e+01 9.094009399999999133e+00
2.047012089999999951e+00 2.819499207000000141e+01 9.077987670000000620e+00
2.074996950000000062e+00 2.802198792000000083e+01 9.249008180000000579e+00
2.056015009999999865e+00 2.808500670999999826e+01 9.240004539999999267e+00
2.068007950000000150e+00 2.808799743999999876e+01 9.218002320000000083e+00
2.043991090000000010e+00 2.818598937999999876e+01 9.137008670000000166e+00
2.064011100000000098e+00 2.819398499000000058e+01 9.172012329999999380e+00
2.064986939999999827e+00 2.820399474999999967e+01 9.181991580000000042e+00
2.060013060000000173e+00 2.818598937999999876e+01 9.232986450000000289e+00
2.029006959999999804e+00 2.813200378000000157e+01 9.229995730000000620e+00
2.054001089999999863e+00 2.813700867000000017e+01 9.248001099999999752e+00
2.060013060000000173e+00 2.817601013000000165e+01 9.219009399999999133e+00
2.096999879999999816e+00 2.814201355000000149e+01 9.227005000000000123e+00
2.082993029999999912e+00 2.815098572000000132e+01 9.202987670000000620e+00
2.004013060000000124e+00 2.820100403000000000e+01 9.241012570000000537e+00
2.119003059999999827e+00 2.822099303999999975e+01 9.222000120000000578e+00
2.063004020000000160e+00 2.821598815999999843e+01 9.202011110000000826e+00
2.064011100000000098e+00 2.822599792000000107e+01 9.214005470000000031e+00
2.099991080000000121e+00 2.822401427999999868e+01 9.199996949999999174e+00
2.064011100000000098e+00 2.819398499000000058e+01 9.237991329999999834e+00
2.474014040000000136e+00 2.804301453000000066e+01 9.121994020000000702e+00
2.314011100000000098e+00 2.803401184000000157e+01 9.061996459999999587e+00
2.280991080000000171e+00 2.802598572000000132e+01 9.057998660000000868e+00
2.302994009999999925e+00 2.803199767999999992e+01 9.083999629999999215e+00
2.271011109999999888e+00 2.802299500000000165e+01 9.076004030000000000e+00
2.301009890000000002e+00 2.802299500000000165e+01 9.074996949999999174e+00
2.288985970000000147e+00 2.801100158999999934e+01 9.086013790000000867e+00
2.318007950000000150e+00 2.805101013000000165e+01 9.077987670000000620e+00
2.335006949999999915e+00 2.803001404000000107e+01 9.074996949999999174e+00
2.363997939999999964e+00 2.803099059999999909e+01 9.081008909999999545e+00
2.313004020000000160e+00 2.804399108999999868e+01 9.078994749999999669e+00
2.319992070000000073e+00 2.805900573999999992e+01 9.083999629999999215e+00
2.473006960000000198e+00 2.803401184000000157e+01 9.111007689999999215e+00
2.397994999999999877e+00 2.804701233000000116e+01 9.094985960000000702e+00
2.380996940000000173e+00 2.800999450999999851e+01 9.077011110000000826e+00
2.393996950000000012e+00 2.803999329000000174e+01 9.093002320000000083e+00
2.423995970000000000e+00 2.803898621000000091e+01 9.091995239999999256e+00
2.478988890000000112e+00 2.804899597000000000e+01 9.120010380000000083e+00
2.456008909999999990e+00 2.803599548000000041e+01 9.083999629999999215e+00
2.281997919999999791e+00 2.824598694000000165e+01 9.246994020000000702e+00
2.106003049999999988e+00 2.829399108999999868e+01 9.220993039999999752e+00
2.108994009999999975e+00 2.830198668999999967e+01 9.212997440000000537e+00
2.047988890000000062e+00 2.825801085999999884e+01 9.224990840000000247e+00
2.115005019999999902e+00 2.829899597000000000e+01 9.210006710000000041e+00
2.025985959999999864e+00 2.837199401999999893e+01 9.235000610000000165e+00
2.069992070000000073e+00 2.833000183000000050e+01 9.215011600000000414e+00
2.076004030000000000e+00 2.833699036000000149e+01 9.211990359999999711e+00
2.065994020000000209e+00 2.838899230999999901e+01 9.177993770000000495e+00
2.057998899999999853e+00 2.842799377000000050e+01 9.185989380000000537e+00
2.059005979999999791e+00 2.847200012000000058e+01 9.181991580000000042e+00
2.063004020000000160e+00 2.848100280999999967e+01 9.186996459999999587e+00
2.035995010000000160e+00 2.837599181999999942e+01 9.219009399999999133e+00
2.056015009999999865e+00 2.838398743000000124e+01 9.190994260000000082e+00
2.043991090000000010e+00 2.838200378000000157e+01 9.212997440000000537e+00
2.081008909999999990e+00 2.841099548000000041e+01 9.244003299999999257e+00
2.073013070000000013e+00 2.838398743000000124e+01 9.220993039999999752e+00
2.074996950000000062e+00 2.839299010999999950e+01 9.229995730000000620e+00
2.077987910000000049e+00 2.840299987999999942e+01 9.238998410000000661e+00
2.051986929999999987e+00 2.844398499000000058e+01 9.220993039999999752e+00
2.051009890000000002e+00 2.845600891000000132e+01 9.240004539999999267e+00
2.076004030000000000e+00 2.844801331000000033e+01 9.242996220000000207e+00
2.063004020000000160e+00 2.845799255000000016e+01 9.216995239999999256e+00
2.086990119999999838e+00 2.846400451999999959e+01 9.245010380000000083e+00
2.250992060000000183e+00 2.828999329000000174e+01 9.245010380000000083e+00
2.357985970000000098e+00 2.832798766999999884e+01 9.248001099999999752e+00
2.280991080000000171e+00 2.837501526000000140e+01 9.244003299999999257e+00
2.279006959999999804e+00 2.811601256999999876e+01 9.262008670000000166e+00
2.284012080000000111e+00 2.812199401999999893e+01 9.261001589999999339e+00
2.279006959999999804e+00 2.816600036999999901e+01 9.270004269999999380e+00
2.267990109999999948e+00 2.814299010999999950e+01 9.258987429999999463e+00
2.283005000000000173e+00 2.821400451999999959e+01 9.263992310000000785e+00
2.366013049999999840e+00 2.823701476999999826e+01 9.258010860000000619e+00
2.421005010000000013e+00 2.824800109999999975e+01 9.293991090000000455e+00
2.498001100000000196e+00 2.824101256999999876e+01 9.327011110000000826e+00
2.485001089999999913e+00 2.818998717999999926e+01 9.340988160000000207e+00
2.485001089999999913e+00 2.823500061000000017e+01 9.324996949999999174e+00
