-0.718918 0.771469 14.732071
-0.732559 0.758743 14.734207
-0.728165 0.761887 14.723343
-0.730118 0.760117 14.724197
-0.726242 0.763779 14.724014
-0.720657 0.769608 14.729813
-0.724380 0.765732 14.725601
-0.738693 0.753647 14.742691
-0.734695 0.757248 14.739700
-0.722916 0.768051 14.735367
-0.716904 0.773117 14.729568
-0.711136 0.778671 14.732101
-0.713028 0.776718 14.730209
-0.714890 0.774765 14.727310
-0.709213 0.780380 14.731888
-0.728653 0.809219 14.733261
-0.745560 0.796188 14.718826
-0.736038 0.805954 14.728714
-0.743759 0.798141 14.721481
-0.737930 0.803848 14.724808
-0.739853 0.801834 14.722519
-0.741867 0.800034 14.722885
-0.730240 0.811600 14.732162
-0.732132 0.809555 14.729202
-0.734024 0.807693 14.727585
-0.703079 0.790817 14.725235
-0.703781 0.786148 14.740616
-0.705704 0.784317 14.739944
-0.707504 0.782303 14.735764
-0.696091 0.793411 14.745285
-0.701767 0.787766 14.738968
-0.699783 0.789536 14.738998
-0.697952 0.791580 14.743484
-0.694016 0.795181 14.745255
-0.692093 0.797104 14.747513
-0.748795 0.840591 14.689896
-0.746628 0.842422 14.689133
-0.720718 0.864548 14.687637
-0.744553 0.844467 14.691025
-0.742447 0.846268 14.690323
-0.738297 0.850357 14.694962
-0.740311 0.848251 14.691483
-0.736069 0.852097 14.693283
-0.727524 0.859268 14.691910
-0.733963 0.853897 14.693069
-0.731735 0.855606 14.691147
-0.712143 0.871872 14.690079
-0.716537 0.868271 14.689865
-0.710098 0.873734 14.691910
-0.722763 0.819717 14.747147
-0.720627 0.821396 14.745071
-0.728317 0.813583 14.734940
-0.726517 0.815598 14.739059
-0.724380 0.817307 14.737076
-0.664810 0.952225 14.670486
-0.703079 0.878525 14.683090
-0.689926 0.889297 14.687454
-0.705429 0.876999 14.686783
-0.691818 0.887131 14.680069
-0.695847 0.883194 14.672287
-0.693954 0.885483 14.680588
-0.701065 0.927536 14.687180
-0.698563 0.928940 14.682480
-0.695999 0.930344 14.677414
-0.688858 0.935806 14.679092
-0.703018 0.925461 14.681198
-0.691330 0.934250 14.681595
-0.693649 0.932388 14.680008
-0.686600 0.937454 14.678787
-0.660751 0.956497 14.685257
-0.662979 0.954575 14.681381
-0.679855 0.942734 14.682510
-0.681931 0.940750 14.677719
-0.677200 0.944351 14.679581
-0.674515 0.945755 14.674393
-0.684494 0.939407 14.682999
-0.672562 0.947769 14.680679
-0.667770 0.951096 14.680161
-0.658127 0.957687 14.679092
-0.648666 0.964798 14.686264
-0.653610 0.961441 14.685989
-0.655380 0.959061 14.673843
-0.633316 0.973190 14.667709
-0.625900 0.977859 14.666306
-0.630569 0.974380 14.661514
-0.638809 0.970963 14.682083
-0.636093 0.972122 14.675400
-0.628738 0.976852 14.675095
-0.687698 0.891251 14.689590
-0.701401 0.880997 14.694962
-0.707779 0.875381 14.689896
-0.698898 0.882370 14.688461
-0.705826 0.924393 14.692001
-0.671097 0.950668 14.699997
-0.646835 0.967209 14.698746
-0.642166 0.970566 14.701035
-0.653366 0.966324 14.735214
-0.645279 0.970291 14.720200
-0.614761 0.999344 14.628525
-0.603073 0.990707 14.651596
-0.605423 0.989182 14.650375
-0.623642 0.975357 14.655807
-0.617905 0.981583 14.651932
-0.615585 0.983292 14.654526
-0.609543 0.979477 14.655075
-0.613174 0.984818 14.655045
-0.610611 0.986404 14.654739
-0.607925 0.987656 14.650589
-0.600357 0.991989 14.647202
-0.597763 0.993484 14.646500
-0.595139 0.994522 14.640915
-0.587540 0.998947 14.639969
-0.590378 0.998032 14.648270
-0.592667 0.996231 14.643509
-0.620773 0.980484 14.659622
-0.623184 0.978867 14.658524
-0.638290 0.853195 14.886032
-0.677567 0.814163 14.759354
-0.688522 0.800980 14.755905
-0.690231 0.799026 14.750839
-0.667099 0.772232 14.777664
-0.670853 0.768631 14.773788
-0.674362 0.764816 14.766129
-0.676437 0.763199 14.768234
-0.672714 0.766739 14.771225
-0.665268 0.773911 14.778854
-0.684586 0.804581 14.758560
-0.659409 0.789536 14.763107
-0.682724 0.806381 14.760941
-0.686447 0.802628 14.754654
-0.680984 0.808365 14.766037
-0.677109 0.812241 14.773117
-0.678940 0.810226 14.768021
-0.669357 0.770920 14.784836
-0.657944 0.781021 14.788712
-0.659897 0.779404 14.788773
-0.663559 0.775864 14.784317
-0.661606 0.777542 14.784103
-0.652328 0.786453 14.796768
-0.654007 0.784500 14.790573
-0.655899 0.782730 14.788315
-0.650497 0.788223 14.799789
-0.642746 0.794907 14.803299
-0.648422 0.789688 14.796890
-0.644608 0.793137 14.800644
-0.646561 0.791580 14.801010
-0.640701 0.796494 14.802902
-0.638779 0.798141 14.804184
-0.669235 0.819321 14.779434
-0.671127 0.817337 14.774612
-0.675156 0.814011 14.774612
-0.673172 0.815720 14.775253
-0.663651 0.825027 14.792099
-0.667526 0.821365 14.786453
-0.665482 0.823044 14.786636
-0.662064 0.827225 14.802353
-0.656815 0.833725 14.800858
-0.657974 0.830704 14.804459
-0.659866 0.828812 14.800278
-0.632889 0.813766 14.795609
-0.633408 0.803909 14.820908
-0.627609 0.808945 14.826706
-0.629532 0.807205 14.824112
-0.635422 0.802231 14.820236
-0.637161 0.800278 14.813461
-0.631363 0.805527 14.820938
-0.625687 0.810867 14.831741
-0.656296 0.832993 14.815292
-0.654465 0.835098 14.822403
-0.652695 0.836929 14.827469
-0.650436 0.838364 14.823990
-0.648270 0.840134 14.825027
-0.646469 0.842239 14.832809
-0.640457 0.847336 14.838577
-0.644547 0.844101 14.836990
-0.642380 0.845627 14.835892
-0.639023 0.849747 14.853409
-0.632614 0.854874 14.857315
-0.628281 0.857834 14.854813
-0.630264 0.856186 14.852707
-0.626389 0.859634 14.859604
-0.610397 0.834793 14.834396
-0.599960 0.802658 14.851486
-0.617996 0.817612 14.841995
-0.619949 0.816086 14.841507
-0.621964 0.814499 14.840622
-0.623917 0.812820 14.838425
-0.614029 0.820724 14.843277
-0.604080 0.829025 14.854355
-0.616104 0.819290 14.844650
-0.609940 0.824203 14.848190
-0.611923 0.822495 14.845657
-0.606186 0.827621 14.855820
-0.607803 0.825668 14.846970
-0.600174 0.832199 14.858536
-0.602249 0.830765 14.859451
-0.595993 0.835587 14.862900
-0.598068 0.833939 14.860916
-0.594131 0.837204 14.866409
-0.565811 0.833206 14.871964
-0.590134 0.840469 14.871780
-0.592148 0.838821 14.868881
-0.624252 0.861160 14.859207
-0.620377 0.865097 14.872055
-0.622360 0.862961 14.863785
-0.609482 0.872971 14.873947
-0.611649 0.871170 14.870743
-0.586655 0.856827 14.871323
-0.635757 0.854568 14.880142
-0.555893 0.822067 14.916122
-0.571274 0.809219 14.888779
-0.573227 0.807724 14.887497
-0.587051 0.797440 14.883804
-0.577103 0.804733 14.884506
-0.574966 0.806107 14.882797
-0.567123 0.812271 14.890457
-0.588211 0.842484 14.879745
-0.565598 0.814285 14.902267
-0.618546 0.867233 14.881638
-0.580124 0.848892 14.889572
-0.582138 0.847092 14.884171
-0.586136 0.843918 14.879562
-0.584122 0.845505 14.881668
-0.578140 0.850388 14.891190
-0.571976 0.855240 14.899429
-0.574051 0.853745 14.898117
-0.576035 0.851883 14.891830
-0.569809 0.856796 14.900864
-0.567795 0.858109 14.900253
-0.563553 0.861191 14.904129
-0.565628 0.859726 14.902939
-0.563919 0.816269 14.912430
-0.553909 0.823776 14.920700
-0.561874 0.817581 14.911270
-0.559738 0.819077 14.911484
-0.557846 0.820511 14.913376
-0.557480 0.866135 14.916153
-0.543045 0.854568 14.910446
-0.555496 0.867783 14.920944
-0.559433 0.864426 14.910965
-0.561539 0.862808 14.907791
-0.551559 0.871140 14.930923
-0.553513 0.869400 14.925125
-0.535538 0.871170 14.934555
-0.544662 0.832291 14.950760
-0.546707 0.830917 14.950180
-0.552597 0.826248 14.940598
-0.536331 0.837845 14.952835
-0.549088 0.829819 14.956375
-0.551010 0.828506 14.955887
-0.543106 0.834518 14.965805
-0.532364 0.840805 14.957901
-0.534439 0.839401 14.957016
-0.540848 0.835709 14.962387
-0.528214 0.843643 14.961197
-0.530167 0.842117 14.957321
-0.547592 0.874619 14.943192
-0.549576 0.873001 14.938705
-0.505325 0.850632 14.956467
-0.524002 0.846420 14.962997
-0.526108 0.844894 14.960312
-0.539413 0.838028 14.980179
-0.503281 0.860428 14.982986
-0.522385 0.848618 14.978500
-0.520065 0.849625 14.973007
-0.517960 0.850815 14.971817
-0.515701 0.852036 14.970047
-0.505386 0.859207 14.983170
-0.509415 0.856186 14.974808
-0.511520 0.854721 14.971909
-0.513626 0.853561 14.973526
-0.507278 0.857468 14.974777
-0.501144 0.861801 14.984573
-0.539078 0.880692 14.953110
-0.541153 0.879135 14.949600
-0.543411 0.877762 14.949875
-0.545517 0.876083 14.945206
-0.532791 0.885452 14.964981
-0.537033 0.882187 14.956100
-0.534775 0.883591 14.956619
-0.521439 0.875015 14.950790
-0.530655 0.886734 14.964676
-0.513290 0.898209 14.981339
-0.526321 0.889664 14.969345
-0.528580 0.888443 14.970657
-0.517624 0.895401 14.977463
-0.524124 0.891068 14.970627
-0.522018 0.892502 14.972946
-0.519791 0.893875 14.973923
-0.515427 0.896713 14.977646
-0.511124 0.899551 14.982529
-0.508896 0.901077 14.985733
-0.502304 0.905014 14.988998
-0.504440 0.903702 14.987320
-0.506699 0.902420 14.987503
-0.500046 0.906601 14.993393
-0.496780 0.864243 14.983383
-0.486404 0.871384 14.999863
-0.370071 0.995529 14.837814
-0.362717 0.998459 14.840805
-0.367508 0.995987 14.831131
-0.372391 0.994095 14.830460
-0.374924 0.993088 14.829758
-0.365768 0.999313 14.866501
-0.490494 0.868484 14.992294
-0.494888 0.865921 14.991074
-0.492661 0.867020 14.988968
-0.498978 0.863052 14.984604
-0.488358 0.869705 14.992142
-0.498215 0.896713 14.988724
-0.478500 0.875412 14.988510
-0.497971 0.908066 14.997513
-1.863480 1.351181 14.550400
-1.785751 1.407455 14.142685
-1.703018 1.114975 14.005295
-1.688431 1.016556 14.055923
-1.691086 1.012161 14.056107
-1.703659 1.060959 14.057022
-1.642715 1.011581 14.014969
-1.642044 1.016861 14.030991
-1.640366 1.021561 14.038712
-1.637833 1.025681 14.038986
-1.666702 1.049393 14.046677
-1.670486 1.046127 14.057266
-1.653305 1.041214 14.056381
-1.650558 1.038254 14.048813
-1.701645 1.065659 14.062363
-1.697891 1.069016 14.052780
-1.698410 1.010880 14.096115
-1.678421 1.030533 14.091599
-1.674179 1.042587 14.066269
-1.681656 1.035568 14.085159
-1.678421 1.039413 14.079971
-1.685837 1.032455 14.099106
-1.696396 1.080338 14.086319
-1.624649 1.017624 14.040726
-1.561386 1.199234 14.041245
-1.733536 1.359238 14.155411
-1.522903 1.316238 14.098160
-1.445816 1.157181 14.247665
-1.488358 1.179092 14.055527
-1.363541 1.097092 14.307388
-1.289658 1.021652 14.347183
-1.444351 1.162125 14.262558
-1.204636 1.073135 14.387833
-1.751175 1.751450 14.050247
-1.781998 1.524643 14.133713
-1.756241 1.585831 14.060501
-1.787094 1.521347 14.144241
-1.852768 1.552902 14.129196
-1.560806 1.335342 14.649734
-1.534622 1.124191 14.635818
-1.510147 1.077499 14.558731
-1.504379 1.022995 14.568863
-1.511032 1.016586 14.584274
-1.503342 1.027817 14.583755
-1.511093 1.022141 14.609573
-1.513596 1.074234 14.566055
-1.517136 1.071243 14.574997
-1.521439 1.068497 14.590256
-1.545181 1.102524 14.603897
-1.542923 1.172775 14.622910
-1.538925 1.175858 14.612991
-1.544907 1.168167 14.613907
-1.548691 1.164993 14.622238
-1.501846 1.159592 14.597916
-1.670364 1.129898 14.650192
-1.560165 1.217026 14.646927
-1.598404 1.234146 14.670456
-1.597549 1.239914 14.691086
-1.554550 1.343582 14.654068
-1.559891 1.268082 14.604263
-1.564468 1.265182 14.616684
-1.557449 1.272598 14.611252
-1.546280 1.282974 14.596451
-1.552505 1.281387 14.623978
-1.548782 1.337875 14.648453
-1.555710 1.277725 14.625015
-1.563644 1.317215 14.636673
-1.582108 1.365250 14.667923
-1.542892 1.353806 14.639420
-1.539902 1.358139 14.643753
-1.574997 1.438858 14.677750
-1.578537 1.435104 14.678421
-1.580551 1.386826 14.727280
-1.403885 1.282486 14.922501
-1.423203 1.070572 14.559280
-1.362991 1.090897 14.576126
-1.369339 1.084763 14.585648
-1.366653 1.088120 14.585556
-1.468704 1.382828 14.654648
-1.344376 1.449997 14.636826
-1.889389 1.871017 14.653580
-1.914444 1.580154 14.730789
-1.991348 1.730362 14.590256
-1.858292 1.590866 14.702347
-1.856979 1.615280 14.692459
-1.866318 1.580795 14.739975
-1.921768 1.660141 14.651535
-1.968307 1.674545 14.653397
-1.961899 1.678574 14.647415
-1.924637 1.663498 14.646561
-1.854874 1.688858 14.660477
-1.865341 1.670059 14.633163
-1.852951 1.638840 14.687332
-1.853592 1.663467 14.674576
-1.865341 1.628616 14.694748
-1.596756 1.534592 14.717392
-1.678848 1.713211 14.684280
-1.735428 1.701462 14.646927
-1.716141 1.725357 14.665970
-1.692245 1.701340 14.690109
-1.690506 1.707718 14.710434
-1.804581 1.946579 14.627792
-1.888657 1.860580 14.610184
-1.794205 1.849655 14.618607
-1.831070 1.859177 14.589005
-1.952560 1.992661 14.540787
-1.911514 1.892960 14.616074
-1.780014 1.998764 14.541519
-1.854630 1.931290 14.547623
-1.850571 1.936813 14.554031
-1.844925 1.940750 14.548325
-1.862686 1.929855 14.572342
-1.785080 1.955032 14.589249
-1.779709 1.958786 14.584702
-1.835098 1.920609 14.638748
-1.826309 1.930984 14.646896
-1.833450 1.928665 14.664719
-1.708969 1.871689 14.592514
-1.735275 1.890823 14.559036
-1.741867 1.888199 14.573410
-1.694138 1.931412 14.574600
-1.697708 1.887253 14.615341
-1.728683 1.950851 14.572617
-1.691208 1.938126 14.592300
-1.595749 1.847610 14.712997
-1.583267 1.861252 14.726364
-1.588791 1.858139 14.733780
-1.579636 1.866226 14.735123
-0.881088 1.447586 14.777573
-0.538956 1.025406 14.633743
-0.548874 1.019302 14.624252
-0.551407 1.017807 14.622665
-0.544662 1.061783 14.607986
-0.555161 1.056229 14.606552
-0.547134 1.059860 14.600784
-0.549637 1.058365 14.598709
-0.557724 1.054764 14.605362
-0.552963 1.058578 14.619919
-0.560623 1.053665 14.610428
-0.546921 1.021683 14.639114
-0.582443 1.001663 14.637009
-0.579758 1.002914 14.633835
-0.585129 1.000443 14.640701
-0.577805 1.005295 14.647202
-0.575729 1.007523 14.658768
-0.573349 1.009109 14.661240
-0.523666 1.033463 14.635239
-0.515854 1.037796 14.640244
-0.521103 1.034988 14.637924
-0.526962 1.033585 14.655685
-0.518906 1.037186 14.650192
-0.537430 1.028854 14.663345
-0.514114 1.040726 14.663559
-0.530563 1.034317 14.684586
-0.511948 1.042801 14.674728
-0.501724 1.048569 14.684189
-0.504471 1.047348 14.685257
-0.533829 1.034073 14.700729
-0.535873 1.031876 14.688095
-0.509933 1.045120 14.689987
-0.507248 1.046616 14.692245
-0.767166 1.366531 14.640152
-0.732895 1.305466 14.682877
-0.407974 1.018570 14.805984
-0.477310 1.058182 14.664169
-0.482315 1.055283 14.656998
-0.499130 1.049759 14.683456
-0.496902 1.052017 14.697128
-0.494064 1.052841 14.691330
-0.491898 1.055038 14.705063
-0.451584 1.035599 14.742691
-0.410599 1.017624 14.807693
-0.402512 1.019577 14.791489
-0.405655 1.019974 14.812271
-0.400223 1.021317 14.802353
-0.397507 1.021988 14.797226
-0.437119 1.045212 14.783646
-0.405777 1.058914 14.797714
-0.444016 1.046799 14.837692
-0.395767 1.025131 14.828262
-0.412003 1.059280 14.831436
-0.404373 1.063126 14.842575
-0.360489 1.000320 14.854446
-0.803421 1.519608 14.663712
-1.750290 0.355301 15.927658
-1.613632 0.227554 15.223495
-1.425430 0.858139 15.182510
-1.424911 0.744888 15.020309
-1.338943 0.669998 15.058456
-1.076035 0.688766 15.169632
-1.206955 0.685806 15.119003
-1.115280 0.686691 15.097214
-1.074905 0.695877 15.203873
-1.449295 0.823563 15.211136
-1.410110 0.868301 15.111160
-1.421127 0.850510 15.113144
-1.423508 0.847214 15.116226
-1.447098 0.827194 15.210129
-1.464798 0.793961 15.203751
-1.250107 0.765518 15.129562
-1.413528 0.875290 15.171280
-1.281540 0.943649 15.228958
-1.345749 0.920029 15.228928
-1.289566 0.929886 15.213577
-1.176956 0.946884 15.192917
-1.247879 0.923874 15.227371
-1.171036 0.961716 15.240677
-1.762070 0.293808 15.931442
-1.781021 0.057175 15.538803
-1.941483 0.268845 15.696182
-1.615707 0.113052 15.884659
-1.573105 0.066391 15.836044
-1.536484 0.018539 15.859329
-1.535873 0.006882 15.852158
-1.535904 0.014694 15.852859
-1.536758 0.003098 15.861191
-1.536606 0.010757 15.859818
-1.537033 0.022507 15.865494
-1.537064 0.026413 15.866501
-1.526016 0.019211 15.870132
-1.574173 0.086349 15.856369
-1.574020 0.078384 15.850815
-1.574875 0.070328 15.855484
-1.574509 0.074417 15.853592
-1.575607 0.090225 15.873001
-1.574966 0.082382 15.862167
-1.614578 0.104874 15.868057
-1.648911 0.177719 15.869888
-1.611130 0.153397 15.872391
-1.611252 0.149155 15.869614
-1.615463 0.121078 15.887863
-1.614944 0.116928 15.879807
-1.616409 0.109116 15.888748
-1.647568 0.207321 15.889908
-1.625534 0.179184 15.880203
-1.651138 0.173904 15.887192
-1.650101 0.186508 15.890366
-1.649826 0.182205 15.883194
-1.654099 0.170242 15.911850
-1.647781 0.202927 15.886734
-1.647232 0.198715 15.876572
-1.650040 0.194748 15.898972
-1.650375 0.190628 15.897354
-1.647812 0.211288 15.897110
-1.666794 0.223160 15.884842
-1.660172 0.223160 15.887558
-1.686172 0.242050 15.913467
-1.685257 0.246140 15.910385
-1.612656 0.145248 15.879929
-1.612991 0.141464 15.879959
-1.615158 0.125290 15.888046
-1.614151 0.129318 15.881363
-1.613510 0.137222 15.881332
-1.613693 0.133194 15.879745
-1.611832 0.157394 15.883011
-1.611008 0.161331 15.878647
-1.899307 0.455795 15.968246
-1.898209 0.460648 15.968735
-1.991226 0.430679 15.988174
-1.895279 0.470108 15.963974
-1.897995 0.465714 15.976761
-1.821152 0.495712 15.981522
-1.818588 0.432999 15.952652
-1.823502 0.413498 15.950912
-1.822128 0.422775 15.957016
-1.787064 0.390915 15.952194
-1.788559 0.382126 15.948715
-1.786789 0.386459 15.941360
-1.800949 0.400406 15.954727
-1.746384 0.359268 15.900711
-1.740829 0.367081 15.866226
-1.749954 0.350876 15.916916
-1.719498 0.277847 15.894119
-1.719803 0.282364 15.903580
-1.719376 0.291306 15.913223
-1.721481 0.287033 15.925644
-1.681015 0.267288 15.900955
-1.679733 0.271408 15.895462
-1.684097 0.250381 15.905594
-1.681595 0.263046 15.900375
-1.679123 0.275681 15.896164
-1.683609 0.254593 15.906723
-1.683182 0.258865 15.908920
-1.628738 0.352188 15.945511
-1.549881 0.314590 15.906052
-1.595352 0.303055 15.926010
-1.593796 0.311234 15.926193
-1.594467 0.307327 15.925308
-1.593399 0.315323 15.930069
-1.592239 0.319260 15.926376
-1.593002 0.323349 15.941818
-1.624924 0.372757 15.952866
-1.624985 0.368454 15.944321
-1.730606 0.400497 15.885544
-1.694809 0.411270 15.914169
-1.694138 0.415604 15.917557
-1.616684 0.392288 15.919052
-1.617386 0.396774 15.935562
-1.617630 0.401199 15.948135
-1.624680 0.376938 15.959549
-1.619583 0.405899 15.977158
-1.612045 0.434433 15.976151
-1.618088 0.409866 15.972610
-1.616928 0.413773 15.970901
-1.612900 0.430222 15.973404
-1.616776 0.422409 15.990097
-1.533127 0.404709 15.947952
-1.532944 0.408890 15.956894
-1.594620 0.490311 15.964005
-1.593521 0.485641 15.940750
-1.611374 0.438400 15.979843
-1.607407 0.459244 15.996750
-1.346664 0.474075 15.548843
-1.350906 0.471909 15.584610
-1.970657 0.520248 15.995071
-1.678024 0.736923 15.634354
-1.627853 0.744308 15.608841
-1.626816 0.748672 15.616318
-1.512863 0.664413 15.671249
-1.582748 0.666916 15.672653
-1.556473 0.700974 15.714859
-1.909683 0.998367 15.654709
-1.769882 0.798477 15.549362
-1.809341 0.816299 15.577560
-1.775436 0.985672 15.623184
-1.757217 0.952499 15.685959
-1.778854 0.907150 15.670700
-1.776260 0.911392 15.667526
-1.774429 0.915970 15.671219
-1.866226 0.993393 15.649551
-1.867935 0.988358 15.643295
-1.638779 0.825424 15.653244
-1.625046 0.849533 15.642807
-1.711594 0.756821 15.625168
-1.638748 0.830490 15.672470
-1.628952 0.846481 15.660599
-1.596420 0.824051 15.666245
-1.564804 0.797958 15.664932
-1.562698 0.801804 15.663864
-1.559769 0.805099 15.653915
-1.598068 0.819962 15.662857
-1.744034 0.968246 15.654617
-1.719498 0.932053 15.662827
-1.729538 0.915115 15.669907
-1.734940 0.906998 15.677780
-1.732437 0.911087 15.675278
-1.687607 0.909409 15.672256
-1.657547 0.894363 15.681534
-1.746994 0.964157 15.659500
-1.633286 0.878769 15.708755
-1.620773 0.958969 15.723526
-1.548050 0.926498 15.732407
-1.513016 0.910873 15.749710
-1.973526 0.510422 15.997421
-1.971786 0.515213 15.993637
-1.940842 0.512466 15.980331
-1.825485 0.576492 15.983322
-1.841995 0.521225 15.983231
-1.841476 0.526169 15.990372
-1.839737 0.530472 15.986221
-1.837753 0.534836 15.980453
-1.836411 0.539597 15.980942
-1.832565 0.558517 15.995438
-1.823898 0.585892 15.994614
-1.824417 0.581131 15.986588
-1.831314 0.563126 15.996689
-1.829239 0.567581 15.991196
-1.827744 0.572037 15.990311
-1.859512 0.602432 15.979904
-1.813553 0.607742 15.969406
-1.818375 0.604416 15.998947
-1.400558 0.972885 15.930862
-1.318039 0.567123 15.627151
-1.434677 0.579147 15.560928
-1.409012 0.523911 15.515427
-1.415359 0.506088 15.513779
-1.416580 0.502945 15.514877
-1.414932 0.509933 15.523056
-1.415848 0.514236 15.547256
-1.435684 0.575424 15.556351
-1.436539 0.571579 15.550095
-1.414963 0.522141 15.566452
-1.433609 0.582962 15.565506
-1.432327 0.586533 15.566910
-1.432510 0.590988 15.585800
-1.433670 0.595627 15.614456
-1.294418 0.503677 15.556412
-1.292953 0.506912 15.554520
-1.290787 0.517319 15.574600
-1.291367 0.513779 15.566055
-1.290909 0.521072 15.591812
-1.407761 0.652267 15.604843
-1.452377 0.646591 15.591812
-1.450363 0.649887 15.586838
-1.455765 0.639297 15.593246
-1.454208 0.642990 15.593704
-1.480728 0.649582 15.623550
-1.460007 0.636795 15.621414
-1.476639 0.670700 15.614700
-1.407761 0.656693 15.623734
-1.321457 0.564560 15.650497
-1.326065 0.554794 15.655441
-1.322067 0.560959 15.641251
-1.332748 0.537979 15.652908
-1.323593 0.557693 15.642654
-1.331528 0.545242 15.670547
-1.331680 0.541489 15.656693
-1.487259 0.728348 15.661362
-1.480606 0.676834 15.640213
-1.410019 0.653183 15.646622
-1.403885 0.676498 15.673813
-1.405746 0.672989 15.675400
-1.416946 0.652054 15.688004
-1.404373 0.681015 15.698013
-1.404892 0.685654 15.722977
-1.353317 0.698532 15.718735
-1.159103 0.709763 15.667160
-1.233139 0.556259 15.593765
-1.217850 0.594345 15.620834
-1.182297 0.660141 15.608963
-1.107803 0.705338 15.593460
-1.182602 0.664108 15.634445
-1.235214 0.653488 15.651230
-1.453568 0.840530 15.685776
-1.441452 0.857895 15.670395
-1.440720 0.862228 15.685318
-1.437790 0.865585 15.677933
-1.411758 0.835281 15.696640
-1.409500 0.838852 15.695328
-1.387741 0.873672 15.691849
-1.394516 0.863510 15.695328
-1.396133 0.859665 15.689285
-1.392380 0.866989 15.695511
-1.390671 0.870834 15.700974
-1.303177 0.862289 15.716537
-1.345505 0.866226 15.694107
-1.344162 0.870255 15.704483
-1.341721 0.873459 15.701431
-1.298538 0.868729 15.713547
-1.300491 0.865189 15.710068
-1.296860 0.872421 15.720230
-1.255630 0.862961 15.724991
-1.255295 0.867447 15.748611
-1.446762 0.999802 15.683670
-1.385452 0.877365 15.692062
-1.383163 0.880783 15.691208
-1.378860 0.887711 15.692307
-1.381027 0.884079 15.690994
-1.294205 0.875381 15.714645
-1.157791 0.866196 15.747849
-1.098709 0.796463 15.642563
-1.196548 0.881027 15.748367
-1.200882 0.875168 15.748795
-1.035049 0.999588 15.671280
-1.094894 0.995316 15.682388
-1.092789 0.998215 15.686600
-1.037704 0.997177 15.674057
-1.041275 0.995529 15.689713
-1.393112 0.538132 15.828079
-1.391891 0.541611 15.829483
-1.403702 0.697983 15.767288
-1.315720 0.704544 15.818039
-1.096237 0.705673 15.959213
-1.218491 0.716812 15.833633
-1.038956 0.650528 15.995773
-1.086411 0.650070 15.993271
-1.083206 0.655838 15.996078
-1.045670 0.640274 15.999893
-1.480087 0.921616 15.910324
-1.471329 0.831375 15.787399
-1.496078 0.786758 15.790909
-1.465317 0.842239 15.789078
-1.492172 0.799057 15.812576
-1.481033 0.822189 15.824570
-1.262711 0.799606 15.840256
-1.460281 0.924759 15.772385
-1.465439 0.922592 15.801773
-1.458603 0.933792 15.803940
-1.460770 0.930222 15.803055
-1.471512 0.921463 15.843216
-1.254440 0.876114 15.792221
-1.403702 0.970016 15.939621
-1.152603 0.831070 15.915115
-1.156540 0.869919 15.761276
-1.219589 0.851761 15.766159
-1.208298 0.866837 15.760818
-1.216690 0.854385 15.756943
-1.206161 0.869705 15.760147
-1.203720 0.872635 15.757431
-1.211197 0.864151 15.769211
-1.214859 0.862137 15.788498
-1.155167 0.873367 15.772141
-1.162643 0.865128 15.783432
-1.153030 0.880905 15.803299
-1.202194 0.880600 15.794083
-1.175583 0.921646 15.831863
-1.179825 0.920242 15.858353
-1.150009 0.833664 15.908646
-1.147873 0.836533 15.908066
-1.175125 0.869980 15.924026
-1.203049 0.962814 15.903732
-1.187637 0.916916 15.901962
-1.183792 0.918625 15.880875
-1.140060 0.912399 15.903214
-1.205948 0.960098 15.909683
-0.357010 0.322617 15.392715
-0.280441 0.236038 15.457108
-0.183395 0.170700 15.492111
-0.306778 0.262222 15.386368
-0.444962 0.329269 15.252060
-0.412064 0.311386 15.291367
-0.382217 0.287308 15.296005
-0.385513 0.283707 15.312119
-0.449112 0.323685 15.253677
-0.447433 0.327591 15.279648
-0.448959 0.325302 15.277084
-0.448410 0.326645 15.286575
-0.447403 0.329269 15.306625
-0.383926 0.287064 15.335678
-0.385208 0.285019 15.329208
-0.357620 0.256363 15.308212
-0.331284 0.291946 15.361374
-0.358170 0.320419 15.373520
-0.332687 0.291672 15.391983
-0.288284 0.972946 15.252579
-0.388412 0.969681 15.126755
-0.482071 0.874039 15.003250
-0.484329 0.872604 15.001022
-0.437088 0.943771 15.061691
-0.469284 0.881912 15.015610
-0.473587 0.879410 15.013016
-0.475754 0.878098 15.011215
-0.477890 0.876450 15.004745
-0.479935 0.875168 15.002670
-0.471512 0.880722 15.015823
-0.454239 0.890854 15.030411
-0.462875 0.886032 15.025711
-0.464951 0.884506 15.019516
-0.467117 0.883347 15.019516
-0.460648 0.886917 15.022018
-0.456375 0.889633 15.028824
-0.458664 0.888443 15.028793
-0.491409 0.912582 15.009567
-0.484665 0.916519 15.013779
-0.493515 0.910904 15.002762
-0.495926 0.909531 15.001877
-0.489334 0.914078 15.014359
-0.486893 0.914993 15.009567
-0.480270 0.919388 15.021042
-0.478073 0.920486 15.020157
-0.482529 0.917984 15.018143
-0.475906 0.921829 15.023239
-0.471390 0.924515 15.027847
-0.468918 0.925369 15.022751
-0.473495 0.922958 15.021866
-0.443253 0.906967 15.007034
-0.464401 0.928177 15.029831
-0.461990 0.929337 15.028946
-0.466599 0.926682 15.024551
-0.452286 0.892502 15.039169
-0.441025 0.898270 15.041092
-0.445389 0.895950 15.038986
-0.449905 0.893509 15.036575
-0.447647 0.894699 15.037491
-0.443192 0.897079 15.039597
-0.438889 0.899460 15.043289
-0.448471 0.937210 15.045792
-0.455521 0.933578 15.042923
-0.457657 0.932144 15.037827
-0.459793 0.930710 15.032944
-0.450790 0.935837 15.042587
-0.452988 0.934647 15.040695
-0.427933 0.905960 15.059921
-0.430099 0.904465 15.053696
-0.432266 0.903336 15.052139
-0.434464 0.901932 15.047440
-0.436661 0.900925 15.048355
-0.426071 0.923904 15.054642
-0.441788 0.941422 15.059647
-0.439377 0.942337 15.056625
-0.446304 0.938583 15.050247
-0.443893 0.939743 15.050461
-0.432388 0.945999 15.062485
-0.414780 0.913254 15.076523
-0.421494 0.910080 15.075119
-0.423660 0.908615 15.068680
-0.425919 0.907547 15.068680
-0.419022 0.910904 15.070724
-0.417191 0.912704 15.083908
-0.408005 0.916824 15.083725
-0.410324 0.915909 15.085403
-0.412643 0.914749 15.083511
-0.382980 0.934433 15.091476
-0.401413 0.920456 15.093430
-0.403549 0.918930 15.085434
-0.405899 0.918106 15.088425
-0.385513 0.928238 15.107773
-0.394669 0.924240 15.105698
-0.399307 0.921951 15.101517
-0.392349 0.924911 15.101120
-0.396835 0.922806 15.098526
-0.387833 0.927261 15.107407
-0.389999 0.926041 15.103195
-0.383286 0.929550 15.113144
-0.376328 0.932663 15.117081
-0.380997 0.930496 15.113083
-0.378647 0.931656 15.116074
-0.423325 0.951218 15.077469
-0.425491 0.949783 15.071243
-0.430252 0.947342 15.067490
-0.434860 0.945328 15.068649
-0.427872 0.948532 15.068649
-0.421066 0.952438 15.080063
-0.406998 0.959488 15.092758
-0.416336 0.954697 15.082779
-0.418839 0.953720 15.084457
-0.413956 0.955826 15.083786
-0.411636 0.957291 15.090164
-0.398117 0.949600 15.084946
-0.409378 0.958755 15.096939
-0.402512 0.962387 15.106400
-0.397659 0.964401 15.106186
-0.404739 0.961044 15.100815
-0.400192 0.963577 15.109573
-0.393021 0.966995 15.115707
-0.395462 0.965897 15.114304
-0.390549 0.967911 15.114700
-0.383469 0.971329 15.122635
-0.385849 0.970078 15.118607
-0.340683 0.984085 15.080643
-0.361923 0.937332 15.102737
-0.369400 0.935623 15.119400
-0.373978 0.933640 15.117264
-0.371658 0.934402 15.114975
-0.367081 0.936630 15.120987
-0.357315 0.939377 15.106583
-0.359451 0.937943 15.097916
-0.364670 0.937515 15.120285
-0.353043 0.952774 15.118546
-0.376328 0.974777 15.131699
-0.378738 0.973709 15.129471
-0.381271 0.972855 15.131393
-0.355453 0.941513 15.126541
-0.346573 0.946854 15.155441
-0.353470 0.943588 15.145218
-0.351151 0.944626 15.147781
-0.348862 0.945480 15.147781
-0.312820 0.957260 15.137192
-0.344193 0.986130 15.125320
-0.369125 0.977707 15.133835
-0.373795 0.975388 15.126755
-0.371567 0.976852 15.134842
-0.366745 0.979050 15.140152
-0.362045 0.981155 15.145004
-0.364426 0.980331 15.145401
-0.359451 0.982040 15.143997
-0.357193 0.983231 15.149094
-0.354660 0.984085 15.148178
-0.352219 0.985123 15.150284
-0.347183 0.986557 15.145401
-0.349533 0.985397 15.140823
-0.337204 0.990097 15.146591
-0.344406 0.948013 15.160751
-0.339767 0.950272 15.168839
-0.342087 0.949265 15.166336
-0.335068 0.952072 15.170944
-0.337448 0.951340 15.172531
-0.332809 0.953568 15.180771
-0.330338 0.954117 15.176407
-0.325638 0.956070 15.181107
-0.328018 0.954941 15.176895
-0.332718 0.993332 15.170242
-0.343521 0.981461 15.168015
-0.335129 0.992355 15.168137
-0.330551 0.994858 15.181107
-0.328110 0.995926 15.184677
-0.320969 0.958237 15.189682
-0.323318 0.957352 15.188095
-0.316208 0.959824 15.189865
-0.318954 0.959915 15.203751
-0.323502 0.998734 15.202744
-0.325974 0.997543 15.197464
-0.307175 0.964706 15.217789
-0.309341 0.963394 15.208633
-0.295273 0.969498 15.233109
-0.292679 0.969803 15.226425
-0.285324 0.971939 15.225540
-0.290543 0.971451 15.240616
-0.298080 0.969894 15.251419
-0.300400 0.969101 15.250046
-0.268845 0.979202 15.262955
-0.805313 0.019760 15.672623
-0.805130 0.031815 15.676559
-0.806503 0.027786 15.700119
-0.806320 0.021774 15.692886
-0.805862 0.033920 15.692337
-0.639877 0.088455 15.631027
-0.640091 0.083633 15.620834
-0.640732 0.082016 15.630844
-0.685806 0.025253 15.653214
-0.685837 0.023575 15.652481
-0.685837 0.015060 15.646469
-0.685654 0.021866 15.647018
-0.685623 0.020157 15.645065
-0.685593 0.018478 15.643295
-0.685593 0.016800 15.641769
-0.684738 0.046097 15.653397
-0.684799 0.044357 15.652115
-0.686111 0.030533 15.664810
-0.685989 0.028824 15.660599
-0.684921 0.054733 15.671646
-0.685715 0.042740 15.670578
-0.685867 0.034042 15.662735
-0.685776 0.032303 15.659225
-0.684128 0.056351 15.656662
-0.684006 0.058029 15.657028
-0.686325 0.035751 15.675339
-0.686295 0.039169 15.678696
-0.685593 0.047836 15.675461
-0.684464 0.061508 15.674515
-0.684494 0.059921 15.671951
-0.641830 0.078903 15.648392
-0.641373 0.080551 15.641678
-0.642288 0.077347 15.654343
-0.642563 0.074081 15.651657
-0.683914 0.063187 15.665634
-0.684189 0.066696 15.679611
-0.684341 0.065018 15.678940
-0.643417 0.072556 15.668350
-0.686813 0.037552 15.688400
-0.686935 0.053177 15.715225
-0.682877 0.082260 15.688156
-0.644211 0.075882 15.696365
-0.599411 0.101395 15.664902
-0.600235 0.099930 15.679398
-0.561081 0.099228 15.700546
-0.561111 0.097824 15.694656
-0.561417 0.100754 15.716354
-0.561203 0.102158 15.717941
-0.559799 0.110641 15.723709
-0.561447 0.103622 15.731430
-0.560165 0.109238 15.725815
-0.560287 0.112198 15.744583
-0.559494 0.114944 15.738785
-0.521469 0.101669 15.729782
-0.522293 0.096390 15.724411
-0.522232 0.099075 15.737900
-0.521988 0.100449 15.737686
-0.522415 0.097794 15.736313
-0.521469 0.103043 15.737900
-0.711868 0.142624 15.660233
-0.712357 0.144485 15.677933
-0.707809 0.162216 15.662827
-0.707352 0.163986 15.661850
-0.533798 0.196823 15.676926
-0.590836 0.146408 15.684769
-0.590927 0.147964 15.696548
-0.589645 0.152359 15.692642
-0.590469 0.149429 15.694473
-0.589859 0.150803 15.687973
-0.536484 0.191666 15.697281
-0.534866 0.195724 15.693619
-0.534592 0.200241 15.729568
-0.534897 0.198746 15.723740
-0.533249 0.202713 15.719162
-0.534378 0.201706 15.738663
-0.524460 0.092728 15.768875
-0.560318 0.113602 15.753586
-0.170822 0.234177 15.511734
-0.171494 0.233841 15.518814
-0.179977 0.176163 15.571976
-0.179550 0.176620 15.573837
-0.178757 0.177628 15.583023
-0.138412 0.161575 15.577164
-0.131821 0.167007 15.576859
-0.132156 0.166580 15.568069
-0.129654 0.168625 15.573410
-0.133621 0.165817 15.592209
-0.136856 0.163040 15.585678
-0.131516 0.167496 15.591080
-0.131088 0.167801 15.588760
-0.129349 0.169113 15.587387
-0.179337 0.177322 15.593948
-0.133347 0.166306 15.606766
-0.130692 0.168167 15.594070
-0.129105 0.169662 15.609787
-0.135513 0.342850 15.545456
-0.136520 0.342819 15.559830
-0.137466 0.342850 15.576218
-0.139145 0.341995 15.569717
-0.134903 0.343826 15.574448
-0.415512 0.013168 15.849594
-0.453049 0.041794 15.828354
-0.454086 0.039658 15.857742
-0.453445 0.043015 15.845963
-0.113419 0.078537 15.983688
-0.108810 0.085037 15.999008
-0.108139 0.085800 15.992691
-0.106644 0.087723 15.998001
-0.114853 0.076584 15.993149
-0.114639 0.076859 15.988358
-0.113846 0.077988 15.987137
-0.114059 0.077713 15.988022
-0.114426 0.077133 15.988022
-0.114243 0.077408 15.989731
-0.110886 0.082230 15.994827
-0.110641 0.082504 15.988785
-0.112473 0.079971 15.987839
-0.111221 0.081619 15.984604
-0.113052 0.079117 15.987442
-0.113266 0.078842 15.987381
-0.111435 0.081375 15.986618
-0.110397 0.082779 15.984787
-0.113663 0.078293 15.988388
-0.112869 0.079422 15.991165
-0.112686 0.079697 15.988815
-0.112076 0.080551 15.989426
-0.111893 0.080826 15.991348
-0.112289 0.080276 15.991531
-0.111069 0.081955 15.991104
-0.109818 0.083603 15.990189
-0.111679 0.081131 15.993149
-0.107925 0.086105 15.996201
-0.107010 0.087143 15.990433
-0.107193 0.086868 15.985703
-0.107712 0.086380 15.996445
-0.106827 0.087448 15.995438
-0.107498 0.086655 15.995224
-0.104904 0.190933 15.949753
-0.117264 0.134079 15.982285
-0.116562 0.134628 15.979080
-0.118027 0.133560 15.990921
-0.116989 0.134415 15.988358
-0.116287 0.134964 15.984879
-0.104477 0.191238 15.955521
-0.977890 0.997757 15.647354
-0.981461 0.996384 15.664505
-0.998611 0.978928 15.662186
-0.810287 0.938004 15.658096
-0.815689 0.934616 15.670334
-0.818069 0.932510 15.670273
-0.829391 0.921829 15.664566
-0.861130 0.996872 15.641006
-0.814041 0.937607 15.685287
-0.809128 0.941330 15.680496
-0.800034 0.949722 15.686844
-0.802383 0.947708 15.686325
-0.806534 0.943100 15.675980
-0.804062 0.944992 15.673965
-0.777237 0.966232 15.664749
-0.779251 0.963791 15.656693
-0.804764 0.995346 15.668655
-0.833969 0.922165 15.706131
-0.691452 0.984818 15.702347
-0.163651 0.677933 15.593430
-1.511032 1.061142 15.751297
-1.759018 1.451859 15.420425
-1.531113 1.024368 15.380905
-1.621994 1.213608 15.284622
-1.620316 1.162491 15.342361
-1.803452 1.473648 15.477188
-1.646805 1.401840 15.424149
-1.665054 1.453690 15.481033
-1.676773 1.441879 15.489029
-1.515488 1.485764 15.418015
-1.530319 1.470718 15.419083
-1.525955 1.473801 15.411758
-1.523605 1.478897 15.425339
-1.076370 1.454727 15.437637
-1.376236 1.046036 15.073990
-1.382950 1.045670 15.118912
-1.296738 1.075851 15.026535
-1.434525 1.148117 15.021255
-1.294388 1.256363 15.060837
-1.299637 1.312790 15.101944
-1.070877 1.462296 15.461838
-1.817459 1.902115 15.376053
-1.876968 1.974442 15.230576
-1.882919 1.970627 15.238052
-1.867416 1.984390 15.234207
-1.906418 1.681412 15.319534
-1.600296 1.545731 15.308151
-1.516495 1.524612 15.336563
-1.824417 1.899796 15.394363
-1.936295 1.768936 15.328415
-1.921555 1.941177 15.270554
-1.931870 1.981735 15.251511
-1.875626 1.983109 15.260483
-1.832047 1.976212 15.287277
-1.794418 1.906815 15.303391
-1.804489 1.907883 15.348160
-1.813522 1.907700 15.383835
-1.699539 1.908371 15.400711
-1.675156 1.919754 15.355026
-1.742233 1.908096 15.333206
-1.594681 1.952774 15.434311
-1.602127 1.951614 15.457657
-1.450851 1.533951 15.338547
-1.001541 1.522537 15.215775
-1.292130 1.511124 15.296646
-1.178543 1.519302 15.398331
-1.100174 1.525742 15.378006
-1.100632 1.534988 15.441422
-1.011307 1.597702 15.458267
-1.846451 1.374069 15.561111
-1.904007 1.001358 15.628342
-1.994919 1.431320 15.520615
-1.563675 1.251511 15.717819
-1.394913 1.280746 15.811050
-1.461594 1.122543 15.721542
-1.362320 1.118820 15.721390
-1.492538 1.152390 15.743790
-1.032364 1.001968 15.668472
-1.030045 1.004593 15.670242
-1.022171 1.012100 15.666367
-1.019302 1.014267 15.660873
-1.025345 1.009933 15.674423
-1.378433 1.331314 15.666824
-1.344864 1.407425 15.589432
-1.391708 1.317184 15.665482
-1.475510 1.341385 15.649216
-1.375626 1.335190 15.672256
-1.463882 1.304184 15.700760
-1.287827 1.320877 15.737442
-1.292435 1.312180 15.711960
-1.436508 1.097549 15.764572
-1.453079 1.081284 15.794296
-1.454117 1.087967 15.836594
-1.410416 1.194473 15.766983
-1.462082 1.128830 15.757492
-1.439621 1.158310 15.762802
-1.496414 1.216446 15.765671
-1.403763 1.207077 15.793655
-1.462204 1.206833 15.829544
-1.312637 1.193283 15.820511
-1.316116 1.190048 15.823990
-1.220657 1.007431 15.918289
-1.210007 1.003860 15.812943
-1.399094 1.278091 15.821671
-1.375839 1.302139 15.816299
-1.393448 1.285782 15.830429
-1.351639 1.318344 15.764297
-1.343979 1.323898 15.751083
-1.818954 1.992111 15.766464
-1.591263 1.918869 15.505478
-1.421860 1.531784 15.843918
-0.951523 1.312759 15.900986
-0.898605 1.246170 15.452347
-0.911667 1.348465 15.206131
-0.909012 1.352097 15.220261
-0.923203 1.294601 15.215439
-0.899948 1.398361 15.174332
-0.849869 1.230362 15.433548
-0.783707 1.231094 15.467392
-0.854294 1.230240 15.458633
-0.820877 1.207565 15.475510
-0.812820 1.215500 15.497482
-0.818588 1.210709 15.489426
-0.815201 1.212509 15.485214
-0.858231 1.229324 15.474136
-0.805923 1.218124 15.479996
-0.809464 1.217239 15.492935
-0.772903 1.194473 15.495010
-0.766556 1.197647 15.486740
-0.769516 1.195633 15.485641
-0.787003 1.229599 15.472549
-0.790787 1.228714 15.486313
-0.308731 1.004562 15.218704
-0.310989 1.003220 15.209915
-0.318710 1.000961 15.212418
-0.321121 1.000015 15.209915
-0.313492 1.002213 15.206619
-0.316025 1.001236 15.204453
-0.325943 1.019699 15.242416
-0.291214 1.010880 15.234299
-0.293777 1.009995 15.232407
-0.301315 1.007523 15.228531
-0.306198 1.005386 15.219437
-0.303757 1.006546 15.225540
-0.298660 1.007980 15.224045
-0.296219 1.009048 15.228928
-0.281326 1.014664 15.247910
-0.288895 1.012009 15.240524
-0.283829 1.013779 15.245438
-0.286362 1.013046 15.245102
-0.299545 1.386490 15.033768
-0.303421 1.388351 15.061569
-0.286667 1.395309 15.097031
-0.188370 1.290878 15.037491
-0.195511 1.294022 15.085495
-0.159714 1.299118 15.087631
-0.156326 1.298996 15.081802
-0.149979 1.300491 15.090256
-0.153183 1.299545 15.083786
-0.166397 1.298996 15.095840
-0.176102 1.297653 15.095352
-0.134048 1.339798 15.080948
-0.147507 1.339096 15.088821
-0.154556 1.340378 15.111923
-0.113876 1.342361 15.088638
-0.207230 1.445450 15.071060
-0.231766 1.484177 15.108322
-0.239151 1.481644 15.094986
-0.117844 1.310013 15.161636
-0.211594 1.450119 15.125320
-0.225021 1.489487 15.150833
-0.218674 1.498672 15.232956
-0.012924 1.395035 15.194229
-0.260727 1.063919 15.303238
-0.276443 1.016739 15.258041
-0.266373 1.019821 15.263840
-0.278824 1.015549 15.250900
-0.268845 1.019150 15.263443
-0.273941 1.017349 15.257370
-0.271347 1.018082 15.257675
-0.258743 1.022202 15.269852
-0.263962 1.021011 15.271530
-0.261368 1.021500 15.269119
-0.296402 1.039444 15.273788
-0.256577 1.024429 15.293289
-0.253922 1.024826 15.289474
-0.251450 1.025955 15.296982
-0.266190 1.062881 15.307358
-0.255905 1.066910 15.327774
-0.258316 1.065598 15.317795
-0.263626 1.064011 15.314316
-0.253250 1.068008 15.334122
-0.250473 1.068253 15.328842
-0.178421 1.079117 15.398941
-0.239365 1.020035 15.269241
-0.246506 1.027725 15.305038
-0.249039 1.027298 15.307510
-0.244095 1.029404 15.320480
-0.238998 1.030777 15.322800
-0.241562 1.030228 15.323471
-0.234238 1.034103 15.354691
-0.236771 1.032913 15.345749
-0.229324 1.036545 15.373459
-0.231766 1.035385 15.364883
-0.219070 1.038864 15.374802
-0.248062 1.069901 15.343613
-0.242874 1.072220 15.358871
-0.245499 1.070999 15.350204
-0.234970 1.074905 15.371628
-0.237534 1.073715 15.363083
-0.240189 1.073105 15.362656
-0.232437 1.075638 15.373703
-0.226761 1.037308 15.376144
-0.221634 1.038345 15.375259
-0.224289 1.037888 15.376907
-0.216446 1.039810 15.380325
-0.213974 1.041183 15.392838
-0.206100 1.042953 15.395218
-0.195938 1.046371 15.416153
-0.211624 1.042618 15.406296
-0.209091 1.043564 15.412491
-0.203720 1.044266 15.407181
-0.201279 1.045059 15.412064
-0.198563 1.045395 15.409500
-0.219070 1.079361 15.386703
-0.221664 1.078629 15.383926
-0.227188 1.077408 15.382675
-0.229813 1.076736 15.381302
-0.224319 1.077744 15.379288
-0.213577 1.080734 15.390305
-0.216415 1.080124 15.389725
-0.211044 1.081863 15.398972
-0.208420 1.082169 15.396194
-0.205734 1.083267 15.404282
-0.189590 1.087051 15.415756
-0.192215 1.086624 15.416367
-0.197617 1.085037 15.407913
-0.203018 1.084091 15.408432
-0.200302 1.084457 15.406570
-0.194870 1.085892 15.412766
-0.184158 1.088821 15.427292
-0.186813 1.088211 15.425278
-0.974167 1.343979 15.883743
-0.890091 1.025223 15.650284
-0.761856 1.203415 15.512314
-0.764328 1.200668 15.501266
-0.892685 1.022842 15.649185
-0.968155 1.008011 15.653824
-0.973770 1.003738 15.663101
-0.976242 1.001205 15.662094
-0.971085 1.005875 15.659103
-0.903366 1.014145 15.655472
-0.915329 1.054276 15.637466
-0.918198 1.052078 15.639969
-0.914230 1.006058 15.669907
-0.916733 1.003860 15.670425
-0.906723 1.012894 15.670395
-0.757309 1.078659 15.648972
-0.849503 1.008469 15.656204
-0.843979 1.012497 15.650803
-0.846542 1.010300 15.650101
-0.853806 1.003494 15.644119
-0.851395 1.005630 15.644913
-0.820633 1.030807 15.644241
-0.841354 1.014389 15.648087
-0.836533 1.018875 15.652725
-0.833633 1.020676 15.647476
-0.838852 1.016525 15.648544
-0.857010 1.002151 15.656693
-0.859634 1.000107 15.658310
-0.831650 1.023331 15.657150
-0.818985 1.034042 15.662186
-0.796158 1.000046 15.647415
-0.788437 1.006088 15.647018
-0.783524 1.009964 15.647507
-0.765335 1.023026 15.639816
-0.767715 1.020920 15.636612
-0.759811 1.026779 15.636154
-0.754776 1.030563 15.636826
-0.757156 1.028580 15.634445
-0.778580 1.014389 15.653214
-0.780960 1.012161 15.649521
-0.775925 1.016190 15.651108
-0.772934 1.017502 15.641647
-0.770950 1.020035 15.651810
-0.762985 1.025589 15.647507
-0.780838 1.060776 15.639359
-0.752518 1.032761 15.642319
-0.786972 1.009171 15.665634
-0.791580 1.004745 15.657852
-0.794174 1.002701 15.658066
-0.778427 1.062881 15.642715
-0.711166 1.057755 15.602829
-0.697281 1.152145 15.523514
-0.694565 1.154373 15.529495
-0.729050 1.177750 15.513779
-0.732712 1.176834 15.526535
-0.700729 1.151169 15.534775
-0.736679 1.176773 15.549423
-0.665451 1.171219 15.527695
-0.648148 1.181992 15.538956
-0.749710 1.034225 15.636551
-0.736526 1.043381 15.633804
-0.741684 1.039902 15.635605
-0.738907 1.041275 15.629837
-0.744675 1.038467 15.642807
-0.747391 1.036392 15.641434
-0.710098 1.061813 15.636642
-0.716019 1.059006 15.648575
-0.732315 1.189835 15.648148
-0.530777 1.208755 15.674881
-0.564865 1.235916 15.664017
-0.571609 1.234360 15.679977
-0.574844 1.232986 15.681595
-0.563004 1.239822 15.695908
-0.513443 1.219284 15.708389
-0.507797 1.222794 15.720993
-0.807236 1.463821 15.616379
-0.845383 1.488022 15.616714
-0.606888 1.002731 15.816055
-0.610123 1.002243 15.833206
-0.972031 1.347977 15.902634
-0.968521 1.350693 15.904099
-0.983017 1.287491 15.886581
-0.976028 1.398117 15.928879
-0.856430 1.473007 15.917343
-0.306839 1.455460 15.764816
-0.483627 1.190018 15.724319
-0.477982 1.193436 15.737473
-0.216415 1.240952 15.912704
-0.219955 1.243546 15.952896
-0.310532 1.455276 15.771103
-0.303085 1.456467 15.766922
-0.326126 1.492264 15.765213
-0.296371 1.460434 15.793747
-0.292801 1.461777 15.800400
-0.165390 1.403244 15.825180
-0.155502 1.443710 15.814407
-0.930069 1.519730 15.537186
-0.414352 1.619858 15.999466
-0.292099 1.604294 15.992508
-0.300308 1.559738 15.975418
-0.232956 1.568375 15.947433
-0.198746 1.521988 15.842087
-3.801926 2.461929 14.901749
-3.876389 2.268539 14.386093
-3.949875 2.206161 14.239334
-3.821487 2.009995 14.466476
-3.957138 2.249191 14.325760
-3.422806 2.204086 14.024551
-3.073807 2.101761 14.145828
-3.060074 2.118332 14.022446
-3.079514 2.027084 14.005844
-3.020859 2.076248 14.043777
-3.382431 2.024612 14.386703
-3.436813 2.069504 14.357742
-3.329208 2.085220 14.336502
-3.352921 2.053604 14.349380
-3.321304 2.034225 14.355362
-3.294907 2.006546 14.361832
-3.368790 2.229660 14.319077
-3.250412 2.175095 14.326340
-3.260452 2.181747 14.317398
-3.267838 2.174515 14.325211
-3.368759 2.231125 14.338028
-3.371048 2.041763 14.383347
-3.353012 2.019485 14.418320
-3.421127 2.144852 14.376297
-3.450027 2.160904 14.429214
-3.310013 2.192825 14.380630
-3.196854 2.024918 14.375809
-3.205826 2.018631 14.391922
-3.865677 2.016617 14.540329
-3.011124 2.103317 14.701065
-3.215195 2.151443 14.547958
-3.064163 2.128799 14.775589
-2.826035 2.070541 14.173569
-2.999374 2.095139 14.042160
-2.953293 2.019333 14.019516
-2.993362 2.102554 14.039536
-2.916519 2.048569 14.114304
-2.973038 2.088272 14.089249
-2.819595 2.025497 14.073135
-2.853683 2.035690 14.091690
-2.644241 2.031082 14.419022
-2.641495 2.008011 14.415054
-2.640060 2.038712 14.424850
-2.652573 2.056412 14.440750
-2.655258 2.000931 14.470535
-2.663437 2.078110 14.444443
-2.052750 2.094925 14.498093
-2.026108 2.233078 14.331131
-2.063400 2.248367 14.341629
-2.069443 2.243332 14.343460
-2.022934 2.237350 14.352249
-2.017899 2.243240 14.357132
-2.056656 2.252518 14.334671
-2.003098 2.440292 14.479324
-2.986496 2.075882 14.510147
-2.785751 2.055099 14.500473
-2.769150 2.038162 14.508377
-2.663254 2.109055 14.551254
-2.608627 2.060593 14.503433
-2.664963 2.137131 14.572983
-2.778732 2.101273 14.895004
-2.971207 2.120193 14.767105
-2.947556 2.037216 14.815140
-2.920853 2.129044 14.782150
-2.148880 2.321915 14.919235
-2.007614 2.090622 14.514999
-2.089218 2.079239 14.570084
-2.089157 2.251755 14.980789
-3.905869 2.351974 15.416855
-3.695755 2.124771 15.110245
-3.298141 2.219131 15.257095
-3.076523 2.183701 15.949692
-2.984299 2.186478 15.998734
-2.753036 2.092728 15.127762
-2.841354 2.060287 15.005966
-2.833939 2.087143 15.220352
-2.727829 2.084396 15.193558
-2.710129 2.114365 15.036911
-2.009018 2.279160 15.214706
-2.296860 2.046432 15.206345
-2.402939 2.014206 15.107864
-2.028244 2.144516 15.178452
-2.065536 2.076675 15.061539
-2.022171 2.148880 15.173416
-2.109085 2.185135 15.208450
-2.003799 2.284500 15.217575
-2.190811 2.510757 15.099869
-2.893112 2.164841 15.807022
-2.963058 2.036819 15.549210
-2.958817 2.044998 15.554123
-2.936356 2.018448 15.587357
-2.938919 2.176315 15.814682
-2.695541 2.006180 15.791367
-2.504135 2.110031 15.778122
-2.182999 2.296402 15.866837
-2.466873 2.156906 15.741470
-2.224380 2.041763 15.649490
-2.164139 2.007095 15.691971
-2.018112 2.059555 15.890396
-2.176529 2.123245 15.848099
-2.183426 2.119431 15.859909
-2.053787 2.064835 15.822800
-2.127975 2.193893 15.930038
-1.966110 2.250137 14.403427
-1.883499 2.021652 14.401382
-1.917557 2.006912 14.273422
-1.992813 2.215347 14.357620
-1.983658 2.225449 14.368210
-1.931503 2.031815 14.415634
-1.943466 2.023819 14.428391
-1.964920 2.015671 14.475021
-1.956467 2.027023 14.486618
-1.941788 2.094620 14.492905
-1.935959 2.098648 14.487808
-1.906754 2.199478 14.383743
-1.876663 2.183731 14.419083
-1.938583 2.221664 14.388779
-1.982346 2.192459 14.424149
-1.896652 2.207016 14.384445
-1.932968 2.226791 14.389633
-1.905563 2.206406 14.411026
-1.929642 2.234299 14.406693
-1.973160 2.161057 14.465164
-1.965836 2.163681 14.450424
-1.954269 2.129471 14.474045
-1.855911 2.160995 14.432755
-1.830093 2.140366 14.481033
-1.837387 2.138016 14.496292
-1.833023 2.145004 14.495163
-1.917648 2.068588 14.504745
-1.876389 2.065201 14.543411
-1.963303 2.024155 14.500443
-1.893021 2.042007 14.512955
-1.977524 2.123001 14.500778
-1.986160 2.110611 14.513626
-1.992447 2.106644 14.520706
-1.966019 2.093948 14.508255
-1.931961 2.021988 14.576035
-1.798416 2.082321 14.537888
-1.873459 2.010880 14.521774
-1.873642 2.021103 14.562057
-1.805313 2.027145 14.542709
-1.775040 2.003128 14.541245
-1.813339 2.067337 14.529953
-1.818100 2.062546 14.527603
-1.832321 2.099869 14.525620
-1.876236 2.161423 14.523117
-1.952621 2.138565 14.501968
-1.844437 2.135635 14.510635
-1.736008 2.136520 15.849899
-1.832657 2.290421 15.499283
-1.886551 2.162033 15.161331
-1.844070 2.235031 15.102493
-1.850204 2.231186 15.107346
-1.839035 2.240372 15.107193
-1.810928 2.228714 15.173416
-1.836746 2.249252 15.135513
-1.943100 2.261032 15.127487
-1.938065 2.313370 15.113052
-1.775681 2.338028 15.096909
-1.958725 2.267929 15.205704
-1.579575 2.349777 15.168716
-1.701859 2.386826 15.074112
-1.577133 2.259415 15.184616
