-16.597885 -22.521530 22.127731
-16.532547 -22.559311 22.135696
-16.551712 -22.510208 22.246780
-16.535568 -22.527481 22.207169
-16.838852 -22.667160 22.335953
-16.900040 -22.646591 22.350967
-16.899094 -22.741867 22.284012
-16.921219 -22.651718 22.295822
-16.896805 -22.658096 22.308975
-16.932053 -22.638016 22.320541
-16.959183 -22.652451 22.465164
-16.912704 -22.669083 22.495804
-16.859879 -22.673630 22.406967
-16.785416 -22.673843 22.384872
-16.528488 -22.504684 22.306351
-16.680252 -22.749130 22.386948
-16.529617 -22.538742 22.431931
-16.504471 -22.512375 22.389084
-16.513779 -22.522903 22.405838
-16.307968 -22.707840 22.060074
-16.134537 -22.761246 22.089706
-16.161301 -22.784286 22.081223
-16.232712 -22.763382 22.031693
-16.151535 -22.762772 22.055801
-16.043045 -22.804062 22.200729
-16.081253 -22.772110 22.133469
-16.088089 -22.782974 22.140884
-16.031082 -22.795761 22.165298
-16.292282 -22.701004 22.008286
-16.422012 -22.655106 22.065933
-16.348862 -22.674637 22.010208
-16.038925 -22.695572 22.110031
-16.136459 -22.732132 22.101028
-16.188004 -22.749496 22.049545
-16.243698 -22.693588 22.014328
-16.192520 -22.732376 22.059769
-16.172012 -22.716080 22.066757
-16.126205 -22.698196 22.066147
-16.023148 -22.675735 22.084457
-16.113449 -22.709366 22.060287
-16.024307 -22.688675 22.061966
-16.109573 -22.614212 22.113449
-16.174240 -22.690414 22.146042
-16.160233 -22.663651 22.173721
-16.129745 -22.657730 22.143417
-16.202621 -22.538834 22.145401
-16.092453 -22.620743 22.129013
-16.310989 -22.911972 22.270004
-16.370193 -22.766312 22.497574
-16.064499 -22.806961 22.289108
-16.764755 -22.169601 22.224960
-16.566849 -22.497421 22.113907
-16.558914 -22.486099 22.104416
-16.611404 -22.491287 22.029648
-16.695633 -22.319504 22.113724
-16.704697 -22.367142 22.084152
-16.523270 -22.398300 22.180374
-16.637039 -22.305649 22.209946
-16.795334 -22.321640 22.390213
-16.530045 -22.437485 22.357101
-16.514481 -22.452011 22.291550
-16.561050 -22.360641 22.352890
-16.533157 -22.343796 22.279129
-16.423019 -22.347519 22.221176
-16.481400 -22.362534 22.137680
-16.497879 -22.423691 22.258591
-16.421219 -22.322372 22.287796
-16.396439 -22.258408 22.275803
-16.414871 -22.286606 22.256058
-16.320724 -22.301102 22.373703
-16.439377 -22.427353 22.455887
-16.472672 -22.451065 22.382492
-16.485764 -22.475113 22.387009
-16.469345 -22.438004 22.395187
-16.448990 -22.387131 22.416885
-16.465317 -22.424728 22.405594
-16.460861 -22.411636 22.414200
-16.441574 -22.375565 22.411240
-16.365677 -22.353714 22.438797
-16.355484 -22.343613 22.419754
-16.336685 -22.323196 22.389053
-16.349716 -22.331314 22.422989
-16.290176 -22.348343 22.435226
-16.299576 -22.301895 22.419113
-16.312790 -22.181656 22.322403
-16.393478 -22.198196 22.317978
-16.387527 -22.186508 22.320267
-16.292252 -22.130478 22.357376
-16.319382 -22.209305 22.287277
-16.326340 -22.176346 22.289169
-16.307419 -22.151840 22.367538
-16.307907 -22.168564 22.332565
-16.296097 -22.143631 22.342667
-16.256149 -22.071915 22.352798
-16.289078 -22.115799 22.307999
-16.276993 -22.106796 22.352615
-16.245407 -22.030594 22.407120
-16.176529 -22.041397 22.402359
-16.872177 -22.745499 22.608902
-16.813797 -22.800400 22.562759
-16.877426 -22.759567 22.607162
-16.802200 -22.759232 22.582932
-16.760330 -22.851547 22.541733
-16.829422 -22.900131 22.746231
-16.817551 -22.889114 22.714951
-16.858536 -22.828476 22.697586
-16.858292 -22.799240 22.663528
-16.834030 -22.807114 22.633011
-16.851944 -22.815445 22.691544
-16.873062 -22.727982 22.621902
-16.916214 -22.665573 22.563034
-16.934830 -22.643082 22.540115
-16.894577 -22.669724 22.527176
-16.923172 -22.655228 22.521774
-16.834091 -22.715317 22.507523
-16.838730 -22.702347 22.525558
-16.843185 -22.727524 22.523575
-16.830460 -22.700821 22.516891
-16.826797 -22.687485 22.524551
-16.883469 -22.714706 22.645676
-16.921738 -22.685104 22.671494
-16.935135 -22.676620 22.674576
-16.820419 -22.734818 22.699905
-16.854141 -22.728958 22.654587
-16.831436 -22.723434 22.716049
-16.553482 -22.577255 22.740067
-16.803177 -22.968918 22.814651
-16.783127 -22.947067 22.765182
-16.790115 -22.959091 22.775497
-16.843155 -22.909439 22.787796
-16.703964 -22.813705 22.938339
-16.853683 -22.707138 22.873367
-16.782730 -22.720749 22.846512
-16.825333 -22.702927 22.767502
-16.892990 -22.735214 22.899124
-16.472153 -22.512497 22.540787
-16.317825 -22.855270 22.602341
-16.329361 -22.812454 22.531082
-16.311111 -22.930557 22.629715
-16.474838 -22.526688 22.523819
-16.481400 -22.538437 22.527328
-16.452957 -22.537216 22.700516
-16.365005 -22.504807 22.696915
-16.286575 -22.515060 22.646530
-16.145676 -22.528915 22.624161
-16.133438 -22.506119 22.622726
-16.217484 -22.651169 22.668839
-16.129501 -22.594498 22.715622
-16.071091 -22.500137 22.737930
-16.044052 -22.552841 22.747940
-16.037796 -22.542252 22.745071
-16.335068 -22.519730 22.837021
-16.482986 -22.566757 22.765182
-16.468246 -22.631821 22.978653
-16.458603 -22.553146 22.997574
-16.461868 -22.592484 22.919968
-16.809280 -22.100937 22.709976
-16.936874 -22.406845 22.580612
-16.949936 -22.492722 22.519760
-16.995438 -22.412674 22.700668
-16.960342 -22.415970 22.750168
-16.324020 -22.375778 22.511276
-16.338058 -22.444260 22.712326
-16.382614 -22.466110 22.695480
-16.351608 -22.482162 22.688797
-16.353134 -22.496353 22.665665
-16.341232 -22.472458 22.666550
-16.295670 -22.390823 22.653915
-16.270798 -22.449142 22.720779
-16.282303 -22.367508 22.650223
-16.087357 -22.492783 22.726791
-16.162949 -22.446548 22.711624
-16.195297 -22.459122 22.684494
-16.199295 -22.471542 22.673996
-16.065689 -22.498428 22.656601
-16.049484 -22.464035 22.666550
-16.009842 -22.485580 22.755234
-16.169571 -22.425217 22.760208
-16.188004 -22.092026 22.997238
-17.421829 -23.597916 23.531052
-17.632156 -23.680038 23.176254
-17.250565 -23.651901 23.112564
-17.368454 -23.893753 23.073074
-17.266373 -23.651810 23.075241
-17.282089 -23.651688 23.038406
-17.370438 -23.644669 23.157120
-17.065842 -23.642288 23.007736
-17.029953 -23.661880 23.022476
-17.225937 -23.958084 23.497238
-17.169479 -23.848526 23.454697
-17.150711 -23.796585 23.398331
-17.509628 -23.191757 23.243942
-17.580246 -23.173569 23.209610
-17.578720 -23.021103 23.143814
-17.613083 -23.155563 23.333847
-17.718826 -23.153152 23.306564
-17.614487 -23.198288 23.250443
-17.612595 -23.107162 23.386032
-17.437759 -23.231277 23.044235
-17.254593 -23.365494 23.036270
-17.390488 -23.313797 23.094345
-17.388535 -23.298508 23.103073
-17.343948 -23.346054 23.208572
-17.337601 -23.328140 23.138809
-17.477402 -23.090103 23.072220
-17.449203 -23.214859 23.209671
-17.166855 -23.541855 23.741043
-17.125565 -23.781784 23.520859
-17.120621 -23.941177 23.851212
-17.135941 -23.942459 23.804031
-17.307358 -23.508347 23.848526
-17.319656 -23.446579 23.759201
-16.054428 -23.988297 23.694229
-16.957047 -23.627365 23.041031
-16.800308 -23.954208 23.090561
-16.755356 -23.915512 23.101028
-16.949631 -23.906143 23.202469
-16.819260 -23.910873 23.238968
-16.977493 -23.804581 23.210098
-16.577927 -23.935867 23.228256
-16.697861 -23.945236 23.234543
-16.742996 -23.989822 23.163956
-16.796982 -23.981216 23.359177
-16.933151 -23.973404 23.297897
-16.973495 -23.868759 23.279312
-16.724686 -23.055801 23.221909
-16.619095 -23.441299 23.110489
-16.735550 -23.413437 23.201828
-16.651474 -23.280014 23.478592
-16.882858 -23.165970 23.462692
-16.774307 -23.022903 23.377396
-16.663467 -23.177872 23.373428
-16.702682 -23.235489 23.463058
-16.550674 -23.173721 23.494614
-16.269302 -23.218307 23.077255
-16.419907 -23.002243 23.167953
-16.404800 -23.007614 23.184311
-16.397690 -23.024704 23.146011
-16.038742 -23.217209 23.126907
-16.797287 -23.970383 23.690170
-16.815872 -23.972488 23.629501
-16.662277 -23.863663 23.845230
-16.795883 -23.404770 23.650192
-16.624283 -23.316544 23.616287
-16.509659 -23.378983 23.634750
-16.906540 -23.473221 23.753464
-16.983688 -23.039383 23.754654
-17.353958 -22.617538 23.579788
-17.274643 -22.616074 23.014969
-17.273727 -22.843521 23.005905
-17.374954 -22.873856 23.245285
-17.191605 -22.979416 23.209732
-17.431137 -22.638260 23.201218
-17.370621 -22.577713 23.165970
-17.308823 -22.564346 23.149734
-17.119797 -22.579941 23.019485
-17.244186 -22.612442 23.092667
-17.243484 -22.539078 23.092392
-17.051956 -22.624893 23.232498
-17.468704 -22.773697 23.254196
-17.028763 -22.777695 23.460251
-17.048630 -22.721878 23.343826
-17.004166 -22.733688 23.371902
-17.035843 -22.711502 23.309555
-17.019394 -22.728104 23.361984
-17.124344 -22.660019 23.458755
-17.960464 -22.078720 23.189255
-17.930679 -22.110580 23.285904
-17.922501 -22.095474 23.280960
-17.716171 -22.085739 23.349777
-17.337448 -22.476822 23.150925
-17.294937 -22.499405 23.142929
-17.455673 -22.466873 23.251724
-17.558426 -22.572098 23.871140
-17.550095 -22.710556 23.916153
-17.273422 -22.599869 23.612198
-17.004196 -22.831253 23.566025
-17.073105 -22.807602 23.592392
-17.043625 -22.787064 23.505325
-17.049026 -22.862961 23.699112
-17.100479 -22.745956 23.679581
-17.157394 -22.916855 23.781357
-16.341812 -22.706680 23.716660
-16.987198 -22.683548 23.162125
-16.753983 -22.928726 23.249832
-16.834091 -22.971573 23.159775
-16.849258 -22.876938 23.147171
-16.793594 -22.913681 23.147537
-16.509048 -22.664352 23.041245
-16.876816 -22.775070 23.423996
-16.457321 -22.674759 23.112473
-16.455917 -22.996231 23.107864
-16.420029 -22.943954 23.097153
-16.406418 -22.835342 23.122513
-16.422043 -22.757309 23.032059
-16.408005 -22.863510 23.077408
-16.401779 -22.852097 23.071243
-16.474106 -22.705429 23.050858
-16.450394 -22.696945 23.057449
-16.392899 -22.536270 23.042709
-16.379990 -22.527176 23.007797
-16.099289 -22.859055 23.283188
-16.290421 -22.630081 23.332596
-16.312515 -22.647629 23.391830
-16.165482 -22.693954 23.408707
-16.229446 -22.660843 23.431137
-16.715683 -22.069077 23.071671
-16.877518 -22.224991 23.266190
-16.396011 -22.486801 23.080612
-16.374283 -22.425461 23.195999
-16.382217 -22.435989 23.206192
-16.384445 -22.450363 23.185165
-16.373886 -22.484421 23.130814
-16.294571 -22.480820 23.355667
-16.301437 -22.492569 23.359390
-16.305832 -22.369919 23.337204
-16.293686 -22.466934 23.381943
-16.228104 -22.366653 23.329819
-16.183090 -22.494705 23.477402
-16.129868 -22.270981 23.455887
-16.154160 -22.347122 23.377182
-16.006027 -22.342514 23.396194
-16.076309 -22.535721 23.563309
-16.108963 -22.191147 23.563461
-16.316086 -22.295547 23.571457
-16.115677 -22.218582 23.524002
-19.009445 -21.090591 22.231400
-18.057388 -21.599075 22.594803
-18.241440 -21.741714 22.123367
-18.273514 -21.697189 22.438187
-18.813187 -21.146103 22.233200
-18.835159 -21.202805 22.145401
-18.921555 -21.089951 22.199997
-18.972244 -21.040146 22.203140
-18.756607 -21.086258 22.224411
-18.731918 -21.134933 22.211105
-18.730728 -21.136429 22.178391
-18.797623 -21.402847 22.445236
-18.998978 -21.206192 22.263687
-18.729935 -21.126511 22.298111
-18.091476 -21.204330 22.021591
-18.048080 -21.250290 22.036301
-18.139542 -21.329056 22.220261
-18.081558 -21.358505 22.171005
-18.052139 -21.138596 22.224655
-18.062943 -21.416580 22.411514
-18.419479 -21.240585 22.250137
-18.064499 -21.574478 22.653336
-18.241013 -21.752975 22.584274
-18.116653 -21.527847 22.658096
-18.144821 -21.554581 22.700729
-18.119492 -21.546310 22.638596
-18.406204 -21.675858 22.857620
-18.155655 -21.610153 22.871170
-18.133316 -21.601608 22.817245
-18.212845 -21.606369 22.942337
-18.727371 -21.099197 22.669846
-18.741226 -21.430099 22.662155
-18.564835 -21.381882 22.769150
-18.703995 -21.425797 22.772018
-18.270706 -21.453781 22.608200
-18.253128 -21.387253 22.617813
-18.427811 -21.388382 22.682053
-18.486496 -21.366226 22.722977
-18.469894 -21.371994 22.716537
-18.238235 -21.399704 22.589890
-18.223892 -21.412277 22.561081
-18.163498 -21.419907 22.523483
-18.110214 -21.080826 22.768814
-18.065567 -21.114639 22.994156
-19.022354 -20.989944 22.205093
-18.018845 -20.506668 22.695847
-18.387314 -20.800400 22.011093
-18.189346 -20.835312 22.104416
-18.818893 -20.838516 22.676010
-18.655197 -20.930283 22.722672
-18.596298 -20.941025 22.756088
-18.000931 -20.542862 22.703476
-18.145950 -20.952652 22.572037
-18.187637 -20.783615 22.716080
-18.014694 -20.988022 22.975906
-18.066208 -20.444412 22.576981
-18.054581 -20.484024 22.721725
-19.291000 -21.967484 23.196762
-19.043137 -21.301956 23.114639
-18.422928 -21.750656 23.938339
-18.447037 -21.582321 23.187119
-18.252548 -21.660019 23.373062
-18.917007 -21.322006 23.080551
-18.114517 -21.276199 23.044449
-18.170242 -21.286179 23.253616
-18.406174 -21.184006 23.395248
-18.244888 -21.141190 23.435471
-18.577194 -21.658310 23.838120
-18.256973 -21.113907 23.515305
-18.356216 -21.395493 23.572891
-18.275101 -21.110214 23.512436
-18.178574 -21.240585 23.513931
-18.099075 -20.712173 23.938797
-18.512466 -20.919510 23.407181
-18.327194 -20.405014 23.037796
-18.121841 -20.363205 23.347794
-18.100052 -20.774490 23.912704
-17.297287 -21.679581 22.724991
-17.279617 -21.683762 22.735275
-17.998947 -21.529831 22.167679
-17.589737 -21.841385 22.284683
-17.583542 -21.808334 22.431870
-17.390457 -21.696548 22.199570
-17.113449 -21.812790 22.040390
-17.106735 -21.798355 22.044846
-17.087509 -21.773727 22.027359
-17.079300 -21.759964 22.026047
-17.391891 -21.827347 22.447220
-17.514847 -21.166245 22.041458
-17.971634 -21.485611 22.095169
-17.986496 -21.489273 22.092392
-17.978592 -21.425278 22.034622
-17.975784 -21.297836 22.026474
-17.690353 -21.045547 22.064041
-17.687851 -21.017044 22.054031
-17.675735 -21.061935 22.029861
-17.505692 -21.130234 22.187851
-17.522507 -21.183670 22.154617
-17.960312 -21.319962 22.311661
-17.892685 -21.275345 22.406326
-17.504898 -21.256973 22.459030
-17.628403 -21.272415 22.491684
-17.750687 -21.169846 22.465225
-17.824173 -21.146011 22.427536
-17.580490 -21.189224 22.369400
-17.655106 -21.177231 22.327682
-17.735825 -21.151932 22.276871
-17.673782 -21.176010 22.312210
-17.574265 -21.068344 22.291641
-17.500076 -21.170639 22.390305
-17.524429 -21.077164 22.451614
-17.498581 -21.178024 22.095871
-17.287827 -21.475815 22.113297
-17.489151 -21.163803 22.094528
-17.387405 -21.145767 22.054672
-17.464279 -21.130142 22.177322
-17.273819 -21.162277 22.209915
-17.331345 -21.219437 22.174850
-17.493179 -21.082901 22.211014
-17.483414 -21.095413 22.169601
-17.459274 -21.079849 22.150192
-17.248154 -21.215317 22.188126
-17.466507 -21.263138 22.483078
-17.385330 -21.207687 22.317459
-17.447281 -21.138504 22.339859
-17.444138 -21.202835 22.266281
-17.425644 -21.207352 22.273331
-17.484695 -21.166550 22.297867
-17.485214 -21.098801 22.321793
-17.497910 -21.105972 22.320084
-17.355270 -21.084244 22.300766
-17.295486 -21.020218 22.252121
-17.485306 -21.203445 22.429306
-17.465744 -21.198563 22.407974
-17.463303 -21.180038 22.435074
-17.355209 -21.178696 22.437332
-17.477310 -21.090744 22.407272
-17.459030 -21.079422 22.398849
-17.477036 -21.060745 22.409714
-17.498306 -21.059006 22.427872
-17.277420 -21.539566 22.738144
-17.302658 -21.914841 22.655746
-17.242661 -21.712967 22.695602
-17.006638 -21.733627 22.959000
-17.887863 -21.039932 22.518051
-17.640213 -21.420212 22.530685
-17.745590 -21.213608 22.550430
-17.501999 -21.060654 22.536240
-17.412918 -21.173599 22.599014
-17.449844 -21.377457 22.585709
-17.433578 -21.383316 22.586746
-17.425583 -21.313705 22.591507
-17.361099 -21.264267 22.662796
-17.394943 -21.180405 22.598892
-17.414688 -21.150497 22.565994
-17.437851 -21.196091 22.557816
-17.458786 -21.187515 22.506363
-17.448502 -21.148453 22.531052
-17.461319 -21.075333 22.597702
-17.488419 -21.082565 22.508743
-17.478928 -21.044724 22.518143
-17.400406 -21.219742 22.632492
-17.367874 -21.211990 22.749649
-17.374039 -21.178177 22.629227
-17.351151 -21.223831 22.733383
-17.361435 -21.244339 22.701889
-17.478928 -21.052322 22.708328
-17.496933 -21.069321 22.674393
-17.161148 -21.003281 22.543716
-17.033127 -21.199203 22.733353
-17.001877 -21.200943 22.741409
-17.330246 -21.353439 22.830185
-17.291183 -21.336655 22.827286
-17.329544 -21.284073 22.764664
-17.300827 -21.301498 22.775558
-17.303970 -21.359848 22.813553
-17.283218 -21.304245 22.849167
-17.278824 -21.297073 22.815445
-17.311996 -21.278671 22.831131
-17.257950 -21.295700 22.844894
-17.239761 -21.302231 22.847366
-17.156448 -21.419357 22.977890
-17.146225 -21.464981 22.913986
-17.222672 -21.410507 22.910355
-17.211502 -21.397934 22.899643
-17.154251 -21.437210 22.988022
-17.330490 -21.224228 22.756180
-17.285233 -21.190994 22.810776
-17.443130 -21.068008 22.815598
-17.444962 -21.087234 22.784317
-17.460892 -21.080887 22.752426
-17.457962 -21.099930 22.798386
-17.426895 -21.036728 22.828262
-17.429855 -21.118027 22.913528
-17.447891 -21.043350 22.876816
-17.338730 -21.074203 22.963852
-17.230057 -21.247238 22.770523
-16.602127 -21.896683 22.646225
-16.120712 -21.527969 22.358780
-16.052170 -21.630173 22.405258
-16.090286 -21.585617 22.378403
-16.075851 -21.561295 22.390640
-16.530777 -21.126846 22.342270
-16.296005 -21.229660 22.114700
-16.269272 -21.269974 22.184189
-16.257584 -21.259567 22.172897
-16.205215 -21.375137 22.231552
-16.244431 -21.326309 22.221451
-16.194809 -21.364395 22.224258
-16.383469 -21.065414 22.039688
-16.468063 -21.060989 22.038376
-16.416367 -21.018295 22.008774
-16.243027 -21.196609 22.185837
-16.246841 -21.416153 22.266617
-16.180313 -21.429245 22.275711
-16.160782 -21.461838 22.393753
-16.301346 -21.135605 22.263504
-16.027512 -21.028610 22.305283
-16.010361 -21.024582 22.263351
-16.989456 -21.740067 22.964157
-16.976059 -21.837265 22.912521
-16.637741 -21.250015 22.814377
-17.008804 -20.674271 22.608688
-17.977768 -20.577164 22.174210
-17.565475 -20.792862 22.112442
-17.546707 -20.799820 22.110733
-17.530411 -20.839249 22.156784
-17.527603 -20.728043 22.181717
-17.500290 -20.691513 22.252792
-17.528854 -20.692337 22.252365
-17.378525 -20.660110 22.088425
-17.183701 -20.953262 22.052536
-17.249039 -20.841568 22.029068
-17.499130 -20.722763 22.173294
-17.199783 -20.674210 22.108231
-17.163681 -20.735123 22.014908
-17.200760 -20.675797 22.224258
-17.211441 -20.717636 22.174210
-17.234116 -20.745071 22.180679
-17.218643 -20.734116 22.160416
-17.185837 -20.670151 22.201309
-17.373581 -20.967148 22.353897
-17.297562 -20.977066 22.466019
-17.203354 -20.767654 22.271774
-17.241989 -20.996658 22.471115
-17.163071 -20.944534 22.476761
-17.145309 -20.935928 22.443100
-17.087540 -20.852676 22.450272
-17.197403 -20.639847 22.294846
-17.229355 -20.726089 22.428238
-17.125107 -20.694687 22.430435
-17.059616 -20.701248 22.462265
-17.063004 -20.720932 22.429947
-17.095139 -20.653183 22.435318
-17.101028 -20.669540 22.416916
-17.114426 -20.681717 22.428238
-17.041519 -20.671555 22.475510
-17.153549 -20.523727 22.392471
-17.752060 -20.471146 22.210892
-17.626236 -20.290909 22.148788
-17.793808 -20.235428 22.494797
-17.779953 -20.221542 22.486404
-17.134964 -20.014206 22.364761
-17.349564 -20.338974 22.437820
-17.191818 -20.463882 22.407974
-17.171707 -20.470383 22.410538
-17.643478 -20.828537 22.706192
-17.651230 -20.844772 22.697586
-17.787308 -20.602249 22.783524
-17.928940 -20.591354 22.759323
-17.900650 -20.589218 22.754990
-17.758469 -20.610855 22.802078
-17.693924 -20.749527 22.771103
-17.669998 -20.698654 22.800797
-17.653305 -20.677719 22.767776
-17.007401 -20.697952 22.553574
-17.168747 -20.915695 22.579056
-17.000046 -20.768875 22.611465
-17.384811 -20.974869 22.853134
-17.380142 -20.919418 22.921860
-17.410904 -20.834946 22.945480
-17.418533 -20.851028 22.935349
-17.429367 -20.864609 22.939590
-17.793320 -20.150040 22.582748
-17.814987 -20.279984 22.507736
-17.623001 -20.389816 22.646957
-17.130600 -20.152939 22.733109
-17.131180 -20.379959 22.567154
-17.149918 -20.388504 22.544266
-17.209244 -20.311478 22.568985
-17.216629 -20.329788 22.549515
-17.170395 -20.343246 22.559860
-17.150986 -20.353226 22.552139
-17.184647 -20.261185 22.571640
-17.098129 -20.343338 22.606247
-17.172775 -20.060989 22.902817
-16.372696 -20.662949 22.510391
-16.738541 -20.801743 22.031235
-16.704849 -20.786453 22.201981
-16.437057 -20.691544 22.007523
-16.418472 -20.792435 22.079819
-16.358383 -20.966324 22.205673
-16.370132 -20.975662 22.217819
-16.343491 -20.753250 22.201767
-16.127487 -20.758530 22.057571
-16.415085 -20.654037 22.044327
-16.492966 -20.588730 22.079941
-16.408340 -20.717667 22.233475
-16.379623 -20.713242 22.176224
-16.262466 -20.707138 22.189438
-16.420700 -20.610489 22.238693
-16.433914 -20.512405 22.182785
-16.367783 -20.603470 22.191055
-16.106369 -20.552628 22.013016
-16.061752 -20.502609 22.007309
-16.066605 -20.731400 22.201218
-16.181656 -20.901840 22.292221
-16.158493 -20.772324 22.357712
-16.217453 -20.760483 22.310410
-16.142502 -20.765793 22.328445
-16.068497 -20.770157 22.353226
-16.047806 -20.769852 22.294113
-16.192307 -20.762131 22.482315
-16.111465 -20.772934 22.470718
-16.085342 -20.776169 22.386185
-16.281540 -20.743759 22.291458
-16.370071 -20.687668 22.441055
-16.260025 -20.693985 22.479721
-16.242844 -20.707657 22.467087
-16.550156 -20.042526 22.097610
-16.765213 -20.318497 22.061813
-16.842270 -20.400894 22.186417
-16.513199 -20.336411 22.382278
-16.475845 -20.200211 22.114670
-16.443100 -20.442612 22.326706
-16.452591 -20.371994 22.325851
-16.434189 -20.304947 22.339523
-16.973068 -20.747147 22.582321
-16.772293 -20.901840 22.608963
-16.873123 -20.824173 22.598038
-16.940323 -20.772385 22.668594
-16.713577 -20.925583 22.624191
-16.994186 -20.664719 22.588760
-16.936172 -20.665878 22.656967
-16.886948 -20.662796 22.760849
-16.711533 -20.715256 22.851456
-16.707138 -20.633255 22.782303
-16.688492 -20.715195 22.879501
-16.307999 -20.596359 22.528183
-16.108444 -20.725937 22.595993
-16.152145 -20.718643 22.556839
-16.097305 -20.967453 22.948654
-16.221634 -20.650955 22.858810
-16.944656 -20.403641 22.608292
-16.771347 -20.282547 22.502365
-17.082077 -21.609512 23.849075
-17.507736 -21.915939 23.165329
-17.732956 -21.764053 23.175949
-17.428635 -21.541458 23.072067
-17.449844 -21.605972 23.022873
-17.423782 -21.563156 23.017014
-17.404526 -21.514481 23.044968
-17.409500 -21.532516 23.027512
-17.063675 -21.687180 23.020981
-17.036057 -21.626785 23.018051
-17.106644 -21.501022 23.105148
-17.066727 -21.604691 23.043198
-17.052292 -21.620499 23.014725
-17.002731 -21.511520 23.189926
-17.042099 -21.504410 23.157425
-17.022537 -21.506790 23.177078
-17.601059 -21.152451 23.314499
-17.436844 -21.050583 23.064316
-17.436081 -21.418045 23.080124
-17.410690 -21.394272 23.045120
-17.422958 -21.406021 23.061417
-17.119675 -21.489395 23.067581
-17.138565 -21.462479 23.034134
-17.116135 -21.439438 23.031174
-17.103317 -21.484238 23.128036
-17.058914 -21.495987 23.160294
-17.442245 -21.068527 23.045547
-17.447189 -21.023209 23.148087
-17.439926 -21.035049 23.126663
-17.320572 -21.045151 23.206467
-17.325302 -21.062302 23.186264
-17.204178 -21.304550 23.309494
-17.319473 -21.003555 23.286911
-17.320816 -21.023849 23.250015
-17.470108 -21.007980 23.484940
-17.462387 -21.033676 23.411484
-17.239822 -21.220383 23.341568
-17.074936 -21.153885 23.404221
-17.172745 -21.061569 23.461929
-17.193588 -21.006882 23.391464
-17.025528 -21.121872 23.486282
-17.029037 -21.586136 23.987686
-17.495407 -21.838272 23.848373
-17.612076 -21.226578 23.779800
-17.553238 -21.390060 23.794113
-17.563858 -21.368210 23.852615
-17.566940 -21.322433 23.758957
-17.618484 -21.353775 23.835831
-17.503922 -21.310074 23.872910
-17.643143 -21.477951 23.881424
-17.619919 -21.413040 23.880630
-17.644363 -21.203415 23.818283
-17.450089 -21.063248 23.559372
-17.338150 -21.338882 23.666061
-17.077682 -21.227524 23.576279
-17.006973 -21.155807 23.506577
-17.352188 -21.330948 23.991257
-17.422684 -21.122360 23.854691
-17.412064 -21.046158 23.975052
-17.438278 -21.022629 23.919785
-16.872726 -21.664871 23.600174
-16.886490 -21.744614 23.166183
-16.871445 -21.824081 23.217545
-16.901840 -21.848129 23.222916
-16.892288 -21.759995 23.154739
-16.853836 -21.817734 23.168594
-16.739182 -21.884689 23.162949
-16.980148 -21.504654 23.242020
-16.795853 -21.763657 23.347458
-16.595840 -21.951920 23.330246
-16.673538 -21.853836 23.267288
-16.844315 -21.716110 23.346695
-16.892868 -21.579269 23.367416
-16.934006 -21.578995 23.309036
-16.942123 -21.561234 23.302872
-16.865829 -21.565781 23.447678
-16.953262 -21.488541 23.328445
-16.836227 -21.634140 23.749954
-16.707535 -21.903793 23.595200
-16.763565 -21.610428 23.696396
-16.783768 -21.663528 23.797501
-16.836044 -21.685379 23.935013
-16.653275 -21.658890 23.840103
-16.628922 -21.689316 23.753281
-16.656906 -21.728348 23.962357
-16.565079 -21.061081 23.642258
-17.030533 -20.956619 23.505112
-17.588028 -20.733414 23.183456
-17.514297 -20.784561 23.106857
-17.547806 -20.870712 23.034775
-17.735580 -20.854172 23.369644
-17.200241 -20.721695 23.097549
-17.317581 -20.878586 23.056961
-17.308487 -20.924973 23.010666
-17.497787 -20.774338 23.080307
-17.321121 -20.854080 23.116989
-17.270126 -20.826096 23.027359
-17.265396 -20.809006 23.048965
-17.255539 -20.770889 23.099808
-17.266098 -20.786270 23.098038
-17.247604 -20.755478 23.109177
-17.203629 -20.831528 23.061172
-17.173111 -20.763107 23.219803
-17.168625 -20.856796 23.145493
-17.237473 -20.774857 23.180069
-17.151901 -20.805099 23.206436
-17.114120 -20.745560 23.225143
-17.125046 -20.650742 23.221451
-17.175858 -20.743668 23.166519
-17.093277 -20.608231 23.224503
-17.476151 -20.961502 23.353867
-17.495193 -20.967453 23.350357
-17.033035 -20.951553 23.483475
-17.181534 -20.994705 23.380600
-17.047195 -20.985275 23.493057
-17.037979 -20.972458 23.493027
-17.073624 -20.646347 23.325790
-17.021530 -20.686722 23.330612
-17.052567 -20.639877 23.280289
-17.081528 -20.572952 23.269058
-17.094498 -20.380508 23.448776
-17.526627 -20.716965 23.645157
-17.506485 -20.898392 23.567093
-17.541641 -20.831100 23.562515
-17.523941 -20.792679 23.648727
-17.012039 -20.952866 23.505112
-17.439590 -20.969254 23.853378
-17.474686 -20.983627 23.790970
-17.462540 -20.875595 23.985367
-17.461563 -20.902664 23.884537
-17.431656 -20.919785 23.923019
-17.417221 -20.889603 23.879105
-17.435349 -20.834793 23.901535
-17.238327 -20.696915 23.936325
-16.896255 -20.951218 23.617966
-16.987076 -20.625290 23.369644
-16.997025 -20.639420 23.366257
-16.150742 -20.674088 23.108353
-16.014114 -20.994034 23.037155
-16.850662 -20.103989 23.202805
-16.963486 -20.963150 23.540237
-16.958267 -20.947037 23.560349
-16.971146 -20.977707 23.531204
-16.813187 -20.894363 23.702713
-16.843460 -20.969986 23.671677
-16.822159 -20.923996 23.712692
-16.735306 -20.908218 23.745102
-16.731644 -20.889633 23.778427
-16.633896 -24.177780 24.036697
-16.580521 -24.296402 24.100357
-16.518600 -24.269058 24.073349
-17.299942 -23.577377 24.217545
-17.131699 -23.642380 24.053085
-17.151169 -23.869370 24.057541
-17.140305 -23.655960 24.296036
-17.176193 -23.882980 24.263992
-17.024826 -23.098007 24.102188
-16.827011 -23.921249 24.105515
-16.820663 -23.934586 24.072922
-17.304825 -22.699142 24.018570
-18.192795 -20.600693 24.185104
-17.374863 -21.174728 24.110428
-17.411942 -21.150955 24.017563
-17.530869 -21.341202 24.278732
-17.386765 -21.159622 24.017776
-17.320267 -21.401291 24.046799
-17.301651 -21.404678 24.059982
-17.283768 -21.411118 24.062454
-17.445938 -21.411880 24.128342
-17.478439 -21.133347 24.231277
-17.246567 -21.073685 24.176437
-17.490311 -21.166214 24.353073
-17.375473 -21.049301 24.369370
-17.404739 -21.008865 24.284103
-17.377029 -21.054428 24.365005
-17.197525 -21.187759 24.307175
-15.220901 -25.604385 20.818954
-15.170975 -25.566879 20.827713
-15.170059 -25.557175 20.810928
-15.948929 -25.788925 20.798691
-15.749924 -25.501022 20.275711
-15.474564 -25.504562 20.179947
-15.341721 -25.520828 20.266830
-15.792160 -25.216995 20.066696
-15.596848 -25.269424 20.064194
-15.603622 -25.344681 20.174881
-15.751236 -25.187943 20.036362
-15.023666 -25.007034 20.220657
-15.480759 -25.445908 20.164627
-15.190323 -25.067276 20.227066
-15.217422 -25.013229 20.175430
-15.184586 -25.030594 20.181717
-15.128342 -25.028275 20.179855
-15.257095 -25.171646 20.330704
-15.284866 -25.154587 20.484543
-15.300247 -25.147110 20.450455
-15.304428 -25.133224 20.466141
-15.070847 -25.188461 20.337418
-15.162766 -25.134384 20.341690
-15.023270 -25.196457 20.295700
-15.023361 -25.187790 20.291275
-15.023666 -25.179398 20.288559
-15.152664 -25.117813 20.291122
-15.145370 -25.109726 20.311661
-15.138779 -25.100906 20.267502
-15.146591 -25.186722 20.412796
-15.154526 -25.174484 20.411728
-15.114456 -25.218216 20.453690
-15.097244 -25.203293 20.409439
-15.101456 -25.230270 20.452103
-15.601151 -25.097672 20.748337
-15.776535 -25.363937 20.500778
-15.587509 -25.440964 20.748672
-15.591324 -25.431168 20.762344
-15.639023 -25.140823 20.763382
-15.546707 -25.075760 20.980026
-15.544113 -25.026260 20.953018
-15.258072 -25.154526 20.571640
-15.102951 -25.279465 20.596451
-15.109573 -25.255966 20.515091
-15.046585 -25.303818 20.517075
-15.048294 -25.295151 20.521133
-15.049088 -25.330246 20.675247
-15.241257 -25.194473 20.543411
-15.160080 -25.228317 20.511215
-15.411453 -25.269211 20.999832
-15.435104 -25.251663 20.957443
-15.010757 -25.451462 20.812515
-15.200668 -25.468216 20.827499
-15.164566 -25.495743 20.898727
-15.101242 -25.477371 20.915115
-15.366287 -25.190262 20.992264
-15.451950 -25.212570 20.987015
-15.446213 -25.141647 20.922104
-15.419693 -25.174393 20.937668
-15.422043 -25.159164 20.963791
-15.365463 -25.199570 20.991745
-15.369583 -25.143051 20.990372
-15.491074 -25.024338 20.982925
-15.491989 -25.088943 20.889206
-15.474747 -25.004379 20.883865
-15.476608 -25.014297 20.896805
-15.249985 -25.004440 20.966263
-14.865738 -25.524826 20.692917
-14.571182 -25.012680 20.180801
-14.825790 -25.342087 20.222458
-14.694534 -25.458847 20.229874
-14.695236 -25.466995 20.245041
-14.697189 -25.451279 20.238358
-14.703049 -25.428268 20.249954
-14.979294 -25.239212 20.280624
-14.609573 -25.007309 20.315445
-14.683792 -25.086655 20.272202
-14.269821 -25.086685 20.480881
-14.268448 -25.100113 20.478226
-14.406845 -25.008743 20.480881
-14.412979 -25.035629 20.432510
-14.377426 -25.039413 20.417038
-14.388168 -25.004654 20.488571
-14.411484 -25.007309 20.449692
-14.267685 -25.093155 20.467300
-14.332474 -25.022995 20.499710
-14.275558 -25.033646 20.498917
-14.827896 -25.617783 20.655197
-14.890854 -25.579239 20.858627
-14.900650 -25.571823 20.873428
-14.904770 -25.610092 20.874374
-14.945541 -25.532120 20.842545
-14.933121 -25.534195 20.852859
-14.759171 -25.746658 20.982346
-14.755142 -25.627304 20.885513
-14.949265 -25.574722 20.982498
-14.967514 -25.583755 20.999680
-14.950943 -25.594406 20.959579
-14.784164 -25.550430 20.965714
-14.780685 -25.558151 20.953323
-14.925034 -25.407761 20.566422
-14.995621 -25.331894 20.580215
-14.984573 -25.344803 20.632950
-14.973831 -25.490799 20.840469
-14.798264 -25.461655 20.943283
-14.799820 -25.453751 20.944412
-14.631638 -25.361374 20.881577
-14.821487 -25.007767 20.759262
-14.310715 -25.069412 20.534958
-14.344986 -25.024857 20.515640
-14.333359 -25.016006 20.504105
-14.278519 -25.054367 20.546616
-14.277084 -25.026932 20.508682
-14.219315 -25.056564 20.511032
-14.219955 -25.043991 20.509476
-14.221573 -25.050186 20.526443
-15.490799 -24.550339 20.522995
-15.819656 -24.527206 20.034470
-15.806686 -24.501846 20.033859
-15.906326 -24.507980 20.095444
-15.895645 -24.516586 20.103958
-15.840714 -24.588486 20.192886
-15.755539 -24.562759 20.168472
-15.827225 -24.547501 20.183304
-15.774796 -24.598068 20.220230
-15.783829 -24.511795 20.214035
-15.550949 -24.549881 20.093948
-15.748825 -24.538437 20.248489
-15.621841 -24.543808 20.158798
-15.509201 -24.553391 20.173050
-15.812973 -24.756851 20.424850
-15.791122 -24.721146 20.348953
-15.979904 -24.628586 20.250412
-15.875107 -24.535660 20.341293
-15.844864 -24.565048 20.354202
-15.758743 -24.522018 20.308701
-15.810562 -24.549881 20.275162
-15.771774 -24.604996 20.343613
-15.860489 -24.542221 20.367172
-15.771072 -24.531387 20.369156
-15.754105 -24.558182 20.315109
-15.890610 -24.568741 20.440536
-15.889877 -24.548752 20.494949
-15.870560 -24.569321 20.498520
-15.825302 -24.567398 20.405807
-15.783218 -24.572586 20.415543
-15.790237 -24.610916 20.398849
-15.779587 -24.593826 20.388657
-15.808243 -24.593063 20.378372
-15.786819 -24.582901 20.430557
-15.785385 -24.561600 20.431259
-15.775436 -24.541428 20.387619
-15.780899 -24.551285 20.412003
-15.787552 -24.590073 20.459671
-15.783249 -24.596634 20.460281
-15.797440 -24.580154 20.455643
-15.812607 -24.530807 20.460464
-15.713913 -24.546432 20.362411
-15.687698 -24.672470 20.483383
-15.734116 -24.628342 20.438797
-15.687149 -24.682785 20.477707
-15.743332 -24.617325 20.491348
-15.706863 -24.614639 20.408432
-15.558975 -24.589218 20.433334
-15.296829 -24.580521 20.236984
-15.216263 -24.959366 20.022110
-15.234299 -24.929306 20.007797
-15.001358 -24.857437 20.023697
-15.448563 -24.558517 20.147141
-15.271927 -24.588242 20.413132
-15.833572 -24.154739 20.179550
-15.873550 -24.478531 20.041519
-15.915634 -24.497208 20.096695
-15.887772 -24.472031 20.017807
-15.808945 -24.477127 20.007614
-15.917252 -24.440231 20.240372
-15.831253 -24.487350 20.216507
-15.930313 -24.337204 20.248459
-15.681839 -24.403854 20.109848
-15.544235 -24.279556 20.232071
-15.576218 -24.315994 20.166885
-15.621048 -24.369736 20.145554
-15.593552 -24.184494 20.240250
-15.922440 -24.425278 20.264786
-15.928238 -24.315506 20.311386
-15.533554 -24.151749 20.266434
-15.525558 -24.145004 20.451675
-15.108780 -24.201035 20.101120
-15.449020 -24.451340 20.208969
-15.422379 -24.297958 20.220596
-15.495193 -24.320419 20.181473
-15.441025 -24.351974 20.179214
-15.454269 -24.285233 20.163681
-15.108841 -24.192215 20.112076
-15.131607 -24.154251 20.081558
-15.129227 -24.197678 20.033524
-15.150894 -24.202194 20.013016
-15.153397 -24.192337 20.039047
-15.145767 -24.146835 20.061630
-15.112198 -24.218857 20.101303
-15.107803 -24.210464 20.084427
-15.066055 -24.200638 20.187546
-15.063675 -24.192307 20.183121
-15.117172 -24.181625 20.174271
-15.120224 -24.147385 20.126663
-15.059189 -24.183975 20.166061
-15.060745 -24.174606 20.186844
-15.061661 -24.168015 20.179459
-15.000778 -24.178329 20.164749
-15.070480 -24.158676 20.243820
-15.091843 -24.144333 20.206894
-15.067795 -24.081833 20.202835
-15.041702 -24.004868 20.232864
-15.017288 -24.039719 20.222946
-15.042557 -24.258713 20.326248
-15.251297 -24.005234 20.303757
-15.037003 -24.141830 20.355179
-15.020370 -24.200974 20.257156
-15.066147 -24.143875 20.274704
-15.044601 -24.210220 20.392532
-15.012070 -24.142349 20.419174
-15.003250 -24.071152 20.391617
-15.832352 -24.573441 20.601456
-15.750229 -24.760086 20.610764
-15.620316 -24.836288 20.593338
-15.626450 -24.822983 20.606125
-15.656540 -24.809677 20.544601
-15.686478 -24.762344 20.567429
-15.673538 -24.770462 20.587509
-15.615463 -24.867752 20.533127
-15.619217 -24.853409 20.555618
-15.570724 -24.938889 20.741867
-15.581039 -24.963242 20.651260
-15.582108 -24.929459 20.727707
-15.545212 -24.778610 20.731430
-15.556229 -24.768387 20.687271
-15.559494 -24.752975 20.748489
-15.557266 -24.778397 20.691605
-15.532669 -24.787277 20.749741
-15.510483 -24.809219 20.749405
-15.819595 -24.528458 20.580582
-15.891708 -24.531357 20.535172
-15.818436 -24.537491 20.581772
-15.851242 -24.570541 20.552719
-15.766403 -24.599014 20.553513
-15.599106 -24.737106 20.611038
-15.701035 -24.738174 20.582077
-15.720688 -24.736221 20.526443
-15.669357 -24.694748 20.553268
-15.709305 -24.673538 20.506485
-15.674881 -24.691605 20.613297
-15.646957 -24.694809 20.567734
-15.649582 -24.704727 20.579697
-15.627335 -24.700455 20.583115
-15.647202 -24.701828 20.610428
-15.700821 -24.640732 20.563828
-15.702164 -24.630325 20.574326
-15.647537 -24.684738 20.573624
-15.648209 -24.674515 20.580002
-15.745041 -24.606796 20.504166
-15.744186 -24.644333 20.748947
-15.577408 -24.747910 20.705276
-15.601822 -24.716415 20.630600
-15.602859 -24.727066 20.634048
-15.597092 -24.745407 20.650833
-15.550644 -24.738876 20.661331
-15.556351 -24.639297 20.720901
-15.561691 -24.648972 20.747757
-15.775742 -24.798172 20.915054
-15.558762 -24.962845 20.866043
-15.582199 -24.912521 20.767746
-15.513260 -24.818619 20.764297
-15.515610 -24.809158 20.751053
-15.519791 -24.794998 20.771347
-15.795090 -24.614975 20.842697
-15.817795 -24.615860 20.771500
-15.815170 -24.632034 20.977768
-15.767288 -24.609634 20.941025
-15.534531 -24.580917 20.949448
-15.205185 -24.682419 20.586105
-15.483444 -24.751083 20.603134
-15.382187 -24.887253 20.668320
-15.437607 -24.810532 20.660660
-15.436478 -24.771164 20.679184
-15.287674 -24.752243 20.706619
-15.276505 -24.836288 20.675858
-15.349319 -24.775894 20.650345
-15.341995 -24.788101 20.645309
-15.217239 -24.814682 20.715042
-15.125351 -24.856735 20.702286
-15.154373 -24.815842 20.680069
-15.355545 -24.906235 20.852859
-15.338303 -24.878372 20.859543
-15.358170 -24.915909 20.868851
-15.498734 -24.834702 20.832565
-15.495743 -24.812576 20.804947
-15.444962 -24.809860 20.765091
-15.465622 -24.848740 20.820633
-15.437851 -24.866440 20.834671
-15.394699 -24.899368 20.922531
-15.418076 -24.880661 20.891190
-15.372299 -24.937759 20.922104
-15.354813 -24.948807 20.880661
-15.264999 -24.960281 20.875046
-15.339066 -24.877151 20.914291
-15.324722 -24.929581 20.900375
-15.119888 -24.957474 20.826187
-15.019791 -24.946854 20.848953
-15.007889 -24.972061 20.848312
-15.104019 -24.980820 20.888504
-15.222641 -24.812057 20.904984
-15.356766 -24.566330 20.939499
-15.411667 -24.563034 20.952042
-15.303543 -24.552444 20.976944
-15.243362 -24.548477 20.967514
-15.618973 -24.465134 20.580582
-15.569748 -24.478409 20.547195
-15.952255 -24.010269 20.837357
-15.115952 -24.058273 20.534409
-14.493851 -24.638992 20.933273
-14.947739 -24.878250 20.076035
-14.895035 -24.878311 20.094925
-14.893387 -24.886490 20.083939
-14.993149 -24.879745 20.052750
-14.991653 -24.917557 20.159988
-14.753006 -24.905075 20.231125
-14.757278 -24.949112 20.181381
-14.844498 -24.886429 20.128494
-14.846420 -24.894669 20.141556
-14.794266 -24.902481 20.165634
-14.765213 -24.893204 20.217270
-14.950882 -24.864426 20.140427
-14.874344 -24.870010 20.147202
-14.690201 -24.940262 20.220047
-14.692337 -24.948166 20.236191
-14.739334 -24.917953 20.171524
-14.684769 -24.932541 20.180374
-14.732224 -24.928818 20.248550
-14.742752 -24.916794 20.239609
-14.582230 -24.982437 20.371109
-14.661819 -24.950974 20.290085
-14.640152 -24.931808 20.259811
-14.594009 -24.991348 20.342239
-14.590500 -24.968430 20.310989
-14.539444 -24.974594 20.348434
-14.470535 -24.995987 20.442612
-14.491257 -24.980515 20.409225
-14.952225 -24.161514 20.240433
-14.889755 -24.149460 20.224564
-14.883224 -24.141953 20.193649
-14.878799 -24.125534 20.189621
-14.877579 -24.100143 20.219559
-14.923508 -24.062668 20.203964
-14.878342 -24.116959 20.199387
-14.875961 -24.109390 20.195541
-14.917587 -24.019974 20.234360
-14.921616 -24.054184 20.205338
-14.921555 -24.045334 20.218552
-14.917160 -24.028610 20.217880
-14.857620 -24.009262 20.239273
-14.855637 -24.001236 20.240372
-14.608932 -24.329514 20.396042
-14.980820 -24.199783 20.369339
-14.866898 -24.015518 20.287155
-14.946121 -24.205704 20.492935
-14.927475 -24.176010 20.427505
-14.942673 -24.198807 20.493729
-14.861862 -24.146774 20.418137
-14.904160 -24.067307 20.438065
-14.959305 -24.013809 20.425369
-14.895432 -24.042923 20.421555
-14.899216 -24.050980 20.432510
-14.847000 -24.046707 20.478317
-14.848373 -24.115952 20.377274
-14.846237 -24.098892 20.389633
-14.853958 -24.122665 20.402969
-14.848618 -24.107071 20.392410
-14.689316 -24.113602 20.402390
-14.427414 -24.252640 20.439468
-14.801651 -24.548325 20.725266
-14.774918 -24.534805 20.718582
-14.741623 -24.554520 20.701859
-14.797592 -24.958481 20.983810
-14.853256 -24.569809 20.798111
-14.600357 -24.531204 20.948349
-14.697861 -24.519394 20.916183
-14.600540 -24.523575 20.956375
-14.599014 -24.538895 20.931595
-14.601181 -24.546463 20.941391
-14.778397 -24.190811 20.566635
-14.819870 -24.476974 20.573563
-14.778275 -24.486099 20.613113
-14.923233 -24.361343 20.607864
-14.897232 -24.306656 20.542770
-14.755142 -24.335464 20.608566
-14.861465 -24.342453 20.541580
-14.858139 -24.334396 20.528549
-14.862320 -24.350510 20.538620
-14.866989 -24.358139 20.561203
-14.859177 -24.266739 20.615677
-14.857224 -24.258560 20.613113
-14.807816 -24.478592 20.688431
-14.878281 -24.307632 20.634201
-14.786514 -24.300034 20.692062
-14.796219 -24.329025 20.671249
-14.812363 -24.309250 20.636765
-14.810318 -24.300858 20.633255
-14.774918 -24.311783 20.699753
-14.595810 -24.347946 20.689590
-14.658066 -24.344406 20.725998
-14.703629 -24.344406 20.640030
-14.776169 -24.183365 20.562668
-14.906265 -24.223740 20.599350
-14.892044 -24.192184 20.549118
-14.976761 -24.134781 20.527786
-14.910416 -24.231308 20.616501
-14.934006 -24.147049 20.590195
-14.775101 -24.175064 20.567703
-14.832932 -24.187210 20.548569
-14.760910 -24.144455 20.519821
-14.882034 -24.015244 20.619888
-14.946274 -24.067703 20.546036
-14.959976 -24.112747 20.535294
-14.944870 -24.094528 20.548691
-14.895615 -24.058121 20.599533
-14.766891 -24.118057 20.601425
-14.808090 -24.091080 20.531540
-14.809402 -24.107773 20.513504
-14.811996 -24.115799 20.517868
-14.809830 -24.099289 20.529739
-14.854172 -24.025894 20.551071
-14.853958 -24.053482 20.511551
-14.798782 -24.042648 20.551315
-14.859634 -24.039169 20.606857
-14.846237 -24.008438 20.564041
-14.802841 -24.049850 20.565750
-14.907303 -24.206070 20.629135
-14.860062 -24.207535 20.698898
-14.807938 -24.201431 20.748886
-14.901566 -24.076950 20.680618
-14.914108 -24.097580 20.658249
-14.928665 -24.116013 20.643478
-14.779648 -24.089615 20.732651
-14.775833 -24.107590 20.677658
-14.778763 -24.098343 20.712265
-14.727219 -24.202011 20.596268
-14.722519 -24.195206 20.574387
-14.736984 -24.024857 20.562637
-14.734451 -24.016891 20.560349
-14.742752 -24.048538 20.558487
-14.740433 -24.040604 20.556992
-14.738785 -24.032944 20.559860
-14.733261 -24.008865 20.567062
-14.733047 -24.001083 20.580185
-14.748428 -24.205429 20.735519
-14.726944 -24.144638 20.683151
-14.730392 -24.135330 20.721451
-14.731339 -24.151352 20.702133
-14.743027 -24.173660 20.746506
-14.593521 -24.072311 20.699265
-14.761246 -24.383530 20.799515
-14.755417 -24.272964 20.889938
-14.578659 -24.450668 20.865616
-14.653275 -24.455154 20.982803
-14.649399 -24.479080 20.931046
-14.679245 -24.446945 20.900497
-14.648666 -24.471481 20.932938
-14.697983 -24.425186 20.917374
-14.696609 -24.433548 20.898849
-14.692001 -24.410049 20.891037
-14.691177 -24.394272 20.902512
-14.691818 -24.402115 20.898361
-14.642410 -24.425522 20.935226
-14.652878 -24.462814 20.972183
-14.654160 -24.486435 20.958694
-14.683701 -24.441238 20.937912
-14.658127 -24.493484 20.980972
-14.581772 -24.457565 20.881485
-14.689590 -24.370987 20.918076
-14.687790 -24.363113 20.914627
-14.824692 -24.214890 20.841995
-14.826523 -24.231033 20.832199
-14.790359 -24.078445 20.822281
-14.863663 -24.090836 20.759659
-14.864944 -24.044327 20.806137
-14.778580 -24.056168 20.782120
-14.817856 -24.056992 20.844772
-14.790848 -24.229904 20.989639
-14.840652 -24.236862 20.919052
-14.828506 -24.205521 20.880783
-14.794235 -24.220840 20.888443
-14.779495 -24.207474 20.944260
-14.801712 -24.097244 20.984787
-14.798172 -24.067734 20.892044
-14.808578 -24.026138 20.890244
-14.797806 -24.059402 20.903885
-14.790634 -24.003372 20.891800
-14.691238 -24.136368 20.854080
-14.689560 -24.153488 20.814285
-14.748672 -24.164047 20.799942
-14.740005 -24.157639 20.751053
-14.687790 -24.169693 20.775986
-14.735367 -24.125687 20.770737
-14.691605 -24.144608 20.843002
-14.691971 -24.160568 20.819412
-14.740585 -24.116196 20.821732
-14.727402 -24.061417 20.826584
-14.657089 -24.022476 20.824478
-14.724442 -24.202560 20.978470
-14.710739 -24.180923 20.916672
-14.705887 -24.173843 20.894455
-14.720078 -24.195755 20.958450
-14.716751 -24.188095 20.947281
-14.654984 -24.145126 20.998734
-14.677872 -24.032516 20.947220
-14.665298 -24.003006 20.918350
-14.662796 -24.012131 20.883377
-15.050552 -25.543991 21.538406
-15.642380 -25.866409 21.164291
-15.911118 -25.720383 21.452652
-15.509109 -25.412033 21.346115
-15.367447 -25.209518 21.008743
-15.373032 -25.133926 21.007339
-15.485489 -25.189957 21.006027
-15.454910 -25.197708 21.010300
-15.473099 -25.185440 21.003555
-15.372849 -25.171616 21.022629
-15.265121 -25.052780 21.031906
-15.210007 -25.204727 21.116257
-15.209854 -25.195816 21.110489
-15.208786 -25.186356 21.098618
-15.205612 -25.055649 21.085556
-15.227890 -25.009842 21.017197
-15.202072 -25.053085 21.011887
-15.165329 -25.236832 21.224014
-15.214035 -25.223587 21.152390
-15.026901 -25.164322 21.244766
-15.040054 -25.085434 21.189957
-15.057816 -25.078140 21.147354
-15.217361 -25.313034 21.328201
-15.113022 -25.446762 21.443222
-15.040726 -25.447769 21.425858
-15.044998 -25.435776 21.378098
-15.036911 -25.322861 21.437851
-15.045486 -25.311783 21.430557
-15.053848 -25.300613 21.424393
-15.302750 -25.010361 21.449966
-15.030716 -25.148361 21.328232
-15.000565 -25.177628 21.263809
-15.759872 -25.757858 21.715012
-15.630539 -25.887192 21.721451
-15.618088 -25.895065 21.755173
-15.674759 -25.759354 21.874283
-15.627060 -25.770554 21.968155
-15.643753 -25.693893 21.968643
-15.051956 -25.507919 21.503983
-15.118515 -25.630356 21.697250
-15.051529 -25.652023 21.690048
-15.056381 -25.625961 21.684433
-15.053543 -25.643753 21.690964
-15.055161 -25.635147 21.689194
-15.669479 -25.071823 21.681595
-15.669479 -25.021042 21.669815
-15.668411 -25.010666 21.661697
-15.664871 -25.061234 21.652420
-15.304581 -25.132919 21.667435
-15.067673 -25.478256 21.603622
-15.053818 -25.499405 21.505875
-15.032547 -25.405350 21.534714
-15.046982 -25.396835 21.501266
-15.024765 -25.284653 21.736404
-15.490219 -25.171371 21.724014
-15.376816 -25.077286 21.729599
-15.445236 -25.011520 21.657028
-15.434677 -25.067276 21.706192
-15.248337 -25.026566 21.593735
-15.069870 -25.220627 21.686996
-15.110123 -25.131668 21.625198
-15.243210 -25.092728 21.713272
-15.203537 -25.066788 21.654373
-15.381577 -25.067795 21.756027
-15.384933 -25.218887 21.967697
-15.024277 -25.119308 21.794724
-15.180069 -25.083359 21.887711
-14.934097 -25.530167 21.548721
-14.756119 -25.737350 21.080429
-14.758255 -25.729141 21.079971
-14.924820 -25.685196 21.073105
-14.894974 -25.634506 21.038559
-14.896744 -25.625992 21.037704
-14.759506 -25.704208 21.043900
-14.758255 -25.712265 21.049881
-14.757309 -25.720505 21.058060
-14.898575 -25.617630 21.037186
-14.915115 -25.610764 21.024033
-14.898514 -25.609238 21.024460
-14.864090 -25.149094 21.114761
-14.694595 -25.252884 21.230270
-14.860397 -25.140366 21.084213
-14.915237 -25.136429 21.059219
-14.915909 -25.128464 21.059677
-14.981186 -25.107651 21.097855
-14.973831 -25.115646 21.052078
-14.974899 -25.114059 21.110489
-14.984848 -25.099594 21.118729
-14.885452 -25.201645 21.229660
-14.875259 -25.125443 21.179367
-14.892288 -25.187485 21.234604
-14.898972 -25.174118 21.238632
-14.875687 -25.169510 21.245193
-14.813217 -25.136642 21.159531
-14.756607 -25.140305 21.173721
-14.696121 -25.245071 21.234665
-14.767471 -25.293747 21.368454
-14.920334 -25.272995 21.447739
-14.881485 -25.250504 21.383072
-14.772202 -25.367325 21.476700
-14.864761 -25.259567 21.421219
-14.774673 -25.318802 21.444138
-14.771194 -25.351089 21.452103
-14.773819 -25.343246 21.462723
-14.837143 -25.277634 21.478714
-14.831497 -25.291763 21.470840
-14.781387 -25.303696 21.477493
-14.782028 -25.311783 21.489761
-14.550278 -25.493515 21.327286
-14.707382 -25.381424 21.454788
-14.575241 -25.460129 21.437637
-14.525925 -25.486374 21.475815
-14.963455 -25.217392 21.365341
-14.949783 -25.215378 21.342056
-14.968857 -25.145737 21.300095
-14.942795 -25.180832 21.272385
-14.961655 -25.158218 21.298904
-14.937302 -25.229477 21.498276
-14.970840 -25.223221 21.389511
-14.913254 -25.199844 21.375931
-14.896225 -25.224533 21.384232
-14.914810 -25.183487 21.402786
-14.986069 -25.005936 21.492599
-14.850235 -25.710709 21.666733
-14.850357 -25.719772 21.683273
-14.983658 -25.690750 21.705032
