2.603073 -3.383652 18.620834
2.673660 -3.420853 18.605759
2.628311 -3.398880 18.600021
2.633408 -3.386551 18.603012
2.608444 -3.327896 18.524918
2.614883 -3.400681 18.625931
2.617264 -3.425186 18.658249
2.603867 -3.455612 18.709915
2.620285 -3.448410 18.687759
2.613602 -3.375931 18.717484
2.668198 -3.404282 18.648422
2.677078 -3.393234 18.637711
2.631851 -3.387009 18.702560
2.635574 -3.410141 18.730820
2.606522 -3.328690 18.631393
2.655228 -3.341812 18.656204
2.631027 -3.328995 18.632614
2.676804 -3.333664 18.748611
2.653702 -3.326157 18.734268
2.699020 -3.337601 18.863663
2.637772 -3.434128 18.763016
2.652756 -3.396164 18.807541
2.656540 -3.418594 18.834915
2.652084 -3.314407 18.820114
2.675003 -3.327988 18.845352
2.682510 -3.424698 18.928024
2.657211 -3.446426 18.875931
2.653763 -3.489609 18.933121
2.670242 -3.407791 18.923538
2.687210 -3.447342 18.954575
2.672775 -3.488358 18.984573
2.722702 -3.368393 18.920212
2.721207 -3.341599 18.980057
2.025681 -2.860489 18.069992
2.191269 -2.509659 18.038193
2.074265 -2.609909 18.028793
2.037064 -2.597122 18.022781
2.052048 -2.599258 18.040756
2.071274 -2.597000 18.080246
2.113693 -2.595566 18.103409
2.171860 -2.555374 18.016922
2.161453 -2.568344 18.023453
2.152512 -2.581436 18.026199
2.179123 -2.540329 18.021591
2.187057 -2.509964 18.048264
2.182388 -2.524673 18.037277
2.129654 -2.587112 18.075546
2.181076 -2.540024 18.095627
2.015854 -2.586563 18.208450
2.029465 -2.591599 18.214432
2.002731 -2.580032 18.208237
2.061050 -2.606247 18.221268
2.045151 -2.591293 18.241653
2.197647 -2.507034 18.144882
2.162979 -2.572250 18.167923
2.151962 -2.584274 18.177780
2.183609 -2.545792 18.156143
2.174240 -2.559738 18.158524
2.192856 -2.516190 18.178543
2.188553 -2.531082 18.166306
2.129196 -2.589981 18.227127
2.189133 -2.536179 18.198013
2.196823 -2.501358 18.191666
2.205460 -2.503372 18.248734
2.199417 -2.530716 18.295212
2.113052 -2.598312 18.255966
2.092087 -2.606888 18.296616
2.109940 -2.596146 18.335129
2.177261 -2.564468 18.300003
2.166977 -2.577499 18.306259
2.156265 -2.589615 18.315201
2.151413 -2.587723 18.334671
2.128128 -2.594650 18.371201
2.135452 -2.596329 18.358444
2.121170 -2.605637 18.381149
2.079514 -2.598465 18.465988
2.211502 -2.523941 18.388260
2.181229 -2.567947 18.377457
2.205093 -2.552505 18.437454
2.208694 -2.531082 18.430130
2.163040 -2.605392 18.460129
2.200333 -2.579666 18.481705
2.215530 -2.500015 18.461899
2.212875 -2.516403 18.442642
2.223862 -2.516983 18.481613
2.126053 -2.368698 18.108292
2.081924 -2.372543 18.052078
2.103653 -2.375046 18.054916
2.032455 -2.376175 18.021286
2.036819 -2.378647 18.067978
2.013931 -2.382065 18.076797
2.003464 -2.379257 18.124863
2.190048 -2.417007 18.046066
2.177048 -2.447769 18.016556
2.176987 -2.403641 18.054245
2.133133 -2.402420 18.043320
2.190323 -2.494736 18.063705
2.198654 -2.458298 18.081497
2.191849 -2.438950 18.070145
2.189102 -2.476151 18.095596
2.200089 -2.480331 18.106522
2.161118 -2.391953 18.069962
2.146378 -2.393356 18.086197
2.125351 -2.381577 18.065475
2.144455 -2.379593 18.086533
2.167221 -2.411209 18.118484
2.093460 -2.365555 18.044785
2.048111 -2.371323 18.016800
2.059769 -2.371445 18.052048
2.060043 -2.365128 18.107986
2.021317 -2.363876 18.123795
2.014664 -2.368271 18.118088
2.008987 -2.373672 18.120621
2.064011 -2.372604 18.085342
2.123764 -2.379410 18.167862
2.021835 -2.376297 18.125443
2.012405 -2.379410 18.178329
2.035233 -2.376785 18.170883
2.011948 -2.376907 18.232834
2.122787 -2.386520 18.225815
2.193375 -2.416672 18.162033
2.185226 -2.455338 18.137711
2.196579 -2.437607 18.182236
2.152969 -2.416428 18.125015
2.165726 -2.390732 18.182510
2.180618 -2.403091 18.169327
2.206833 -2.477493 18.213150
2.197617 -2.483902 18.216965
2.204758 -2.455917 18.189774
2.173203 -2.430649 18.206467
2.147476 -2.379501 18.203598
2.144150 -2.398422 18.202530
2.098740 -2.363907 18.154770
2.058090 -2.370193 18.156113
2.027817 -2.359451 18.128830
2.035629 -2.357010 18.147842
2.048752 -2.369766 18.176987
2.056656 -2.344315 18.172501
2.102280 -2.370255 18.152176
2.080338 -2.370102 18.153824
2.113358 -2.349228 18.139816
2.121811 -2.346878 18.162308
2.069382 -2.360703 18.207230
2.072281 -2.339035 18.209610
2.064316 -2.341324 18.188858
2.132889 -2.347855 18.209091
2.129349 -2.368454 18.224869
2.146255 -2.350510 18.272049
2.122208 -2.375839 18.268509
2.011185 -2.376633 18.280441
2.001755 -2.377396 18.340744
2.199081 -2.414658 18.272507
2.194778 -2.463730 18.255936
2.210587 -2.453781 18.300034
2.187119 -2.400528 18.277664
2.170975 -2.389084 18.294510
2.201675 -2.436020 18.294601
2.211655 -2.476059 18.326492
2.214249 -2.499069 18.350998
2.185440 -2.417130 18.343033
2.151413 -2.378799 18.319443
2.100723 -2.367538 18.254379
2.033798 -2.372910 18.271011
2.056595 -2.366959 18.257339
2.037704 -2.369675 18.281448
2.105545 -2.361221 18.261826
2.079025 -2.364853 18.251175
2.088516 -2.371628 18.264969
2.077682 -2.357040 18.310593
2.086746 -2.343033 18.282974
2.094772 -2.340347 18.302444
2.019608 -2.349869 18.331528
2.009781 -2.362503 18.350632
2.003922 -2.367661 18.351425
2.015976 -2.357620 18.352310
2.054977 -2.365005 18.361984
2.103989 -2.338791 18.331619
2.077377 -2.362747 18.355515
2.070999 -2.367477 18.351822
2.110977 -2.359512 18.373947
2.099258 -2.363602 18.355179
2.120743 -2.372055 18.369644
2.113571 -2.337723 18.364365
2.133865 -2.367355 18.339249
2.163681 -2.357681 18.369980
2.124100 -2.386307 18.398880
2.201553 -2.414963 18.393509
2.218460 -2.473190 18.435379
2.217392 -2.450943 18.408798
2.161606 -2.410202 18.424118
2.173813 -2.389145 18.414688
2.188736 -2.401443 18.401230
2.204483 -2.436050 18.414780
2.223038 -2.494736 18.454422
2.183762 -2.414627 18.447159
2.123398 -2.337357 18.401321
2.037704 -2.360977 18.392776
2.023911 -2.367935 18.379532
2.009720 -2.370529 18.377304
2.032181 -2.370743 18.375381
2.049667 -2.336319 18.387558
2.042648 -2.340744 18.379959
2.051102 -2.361832 18.432877
2.087875 -2.352097 18.409714
2.064865 -2.330673 18.422012
2.031326 -2.360580 18.465073
2.008926 -2.359604 18.465591
2.053909 -2.356552 18.454941
2.057144 -2.349777 18.466751
2.061050 -2.337540 18.437515
2.007584 -2.364578 18.471359
2.119675 -2.362656 18.460861
2.076157 -2.356125 18.452042
2.112564 -2.370651 18.445694
2.098038 -2.356400 18.450546
2.075882 -2.330795 18.465897
2.119858 -2.355484 18.477646
2.082718 -2.326828 18.475235
2.160172 -2.374741 18.423050
2.133072 -2.336044 18.433517
2.177658 -2.360825 18.437576
2.142014 -2.363724 18.444595
2.144394 -2.336624 18.480576
2.223282 -2.541245 18.514328
2.110397 -2.637405 18.583237
2.097580 -2.630692 18.583267
2.063797 -2.626755 18.609360
2.196091 -2.637253 18.619156
2.125107 -2.642563 18.591812
2.172806 -2.649307 18.624802
2.086319 -2.622787 18.590134
2.189743 -2.612167 18.544174
2.185440 -2.584702 18.502487
2.222153 -2.565689 18.548447
2.218948 -2.592636 18.589890
2.228073 -2.516006 18.599686
2.113052 -2.669022 18.678055
2.099075 -2.662796 18.674118
2.087906 -2.653549 18.685654
2.087143 -2.666885 18.702896
2.066452 -2.634598 18.712234
2.076767 -2.645554 18.693100
2.127335 -2.662613 18.652603
2.126236 -2.674118 18.684311
2.139999 -2.677353 18.697983
2.155746 -2.679581 18.718826
2.201645 -2.652939 18.702347
2.204697 -2.644974 18.748856
2.218460 -2.634811 18.728165
2.043900 -2.620621 18.691818
2.056839 -2.621414 18.740097
2.231491 -2.560867 18.651932
2.213181 -2.621323 18.638565
2.230453 -2.586227 18.687332
2.225784 -2.563766 18.657455
2.230026 -2.538376 18.625198
2.222153 -2.619247 18.743210
2.226791 -2.613297 18.730301
2.197769 -2.511673 18.744858
2.214890 -2.551590 18.801132
2.089462 -2.685562 18.778824
2.102615 -2.692886 18.777328
2.115555 -2.698318 18.782181
2.057755 -2.654221 18.758438
2.067703 -2.667648 18.801193
2.078812 -2.675644 18.793655
2.047043 -2.708145 18.826981
2.072830 -2.689438 18.829514
2.057480 -2.656601 18.820938
2.039413 -2.625046 18.820328
2.048599 -2.642380 18.853928
2.039474 -2.649185 18.846970
2.222458 -2.639481 18.773392
2.176376 -2.697189 18.809128
2.173111 -2.678452 18.753860
2.186264 -2.670700 18.757553
2.193771 -2.655746 18.760971
2.206406 -2.676682 18.853806
2.027512 -2.593246 18.759598
2.206345 -2.533981 18.794540
2.225662 -2.602646 18.760422
2.224106 -2.568466 18.805588
2.224716 -2.592545 18.836441
2.224625 -2.616989 18.869217
2.180283 -2.529953 18.840195
2.063156 -2.633072 18.921463
2.117844 -2.726883 18.890701
2.105331 -2.721848 18.885025
2.068954 -2.698898 18.898056
2.080124 -2.707962 18.887039
2.092972 -2.715622 18.883957
2.045578 -2.678207 18.892288
2.048080 -2.679428 18.928116
2.057663 -2.639694 18.931778
2.061874 -2.713211 18.966446
2.096024 -2.744095 18.995956
2.082993 -2.739029 18.989578
2.067459 -2.735611 18.973007
2.121201 -2.745773 18.983597
2.041611 -2.661423 18.978836
2.056534 -2.652115 18.983292
2.083847 -2.687393 18.957687
2.216721 -2.645920 18.923172
2.133774 -2.728622 18.913895
2.151108 -2.727341 18.950241
2.132370 -2.734085 18.971390
2.175369 -2.724564 18.977310
2.207108 -2.678299 18.985214
2.134720 -2.370895 18.595352
2.095078 -2.349197 18.518326
2.198349 -2.419327 18.532242
2.209183 -2.458908 18.562057
2.171432 -2.392929 18.551163
2.185837 -2.405594 18.539139
2.227280 -2.493759 18.572159
2.218185 -2.475479 18.566086
2.196640 -2.443710 18.566940
2.180649 -2.431198 18.589493
2.153732 -2.381332 18.571182
2.085373 -2.360458 18.506821
2.034012 -2.358078 18.523026
2.030746 -2.347458 18.549850
2.014084 -2.355972 18.558487
2.052994 -2.346603 18.545944
2.009293 -2.337173 18.532028
2.074417 -2.354843 18.559952
2.015579 -2.353470 18.610306
2.117111 -2.370956 18.587662
2.066635 -2.345383 18.569473
2.096115 -2.357407 18.563004
2.069778 -2.357712 18.601852
2.117264 -2.359390 18.615189
2.114609 -2.378464 18.714157
2.184341 -2.431351 18.703751
2.160721 -2.425461 18.742691
2.153519 -2.407639 18.734024
2.144669 -2.389786 18.728653
2.099411 -2.348343 18.636612
2.051315 -2.344864 18.653946
2.038162 -2.344742 18.651566
2.036301 -2.342941 18.626114
2.006607 -2.345657 18.660141
2.072891 -2.350998 18.663864
2.077042 -2.340317 18.670700
2.053909 -2.333054 18.707443
2.003891 -2.341812 18.688553
2.006424 -2.328140 18.737930
2.005051 -2.321457 18.719894
2.011917 -2.317459 18.728897
2.050308 -2.335159 18.747147
2.093582 -2.364853 18.689224
2.083572 -2.315994 18.716904
2.117935 -2.361038 18.745041
2.092026 -2.313828 18.741379
2.017441 -2.311783 18.724960
2.024155 -2.307266 18.731155
2.132858 -2.374344 18.732346
2.034164 -2.306992 18.770218
2.178665 -2.458664 18.750290
2.143143 -2.393021 18.866348
2.132858 -2.376480 18.865524
2.038284 -2.300583 18.757553
2.028000 -2.336929 18.752945
2.028122 -2.327530 18.751724
2.000473 -2.322495 18.800400
2.104660 -2.346817 18.753403
2.093246 -2.346878 18.766281
2.089249 -2.334091 18.768021
2.071823 -2.341812 18.758255
2.101395 -2.313065 18.775803
2.113602 -2.367874 18.806015
2.069077 -2.324844 18.796616
2.048813 -2.300308 18.799026
2.055161 -2.295944 18.804916
2.049362 -2.315231 18.823929
2.028305 -2.313950 18.820572
2.006058 -2.312546 18.820175
2.005417 -2.314835 18.817245
2.050064 -2.317459 18.825302
2.071396 -2.325546 18.839279
2.122299 -2.360153 18.865768
2.110031 -2.345261 18.871384
2.092026 -2.339218 18.864578
2.089890 -2.312820 18.870621
2.118149 -2.319626 18.872757
2.004227 -2.284531 18.843155
2.030930 -2.304123 18.847000
2.024307 -2.272751 18.870956
2.010117 -2.279678 18.844711
2.016556 -2.275986 18.854080
2.069778 -2.289169 18.833939
2.062668 -2.292709 18.820877
2.088943 -2.290543 18.844406
2.077316 -2.286514 18.852676
2.121231 -2.433456 18.974869
2.124832 -2.453018 18.980270
2.143173 -2.417068 18.897232
2.144791 -2.394028 18.996414
2.137833 -2.375168 18.986008
2.085739 -2.284103 18.876450
2.019943 -2.314407 18.924667
2.097916 -2.330276 18.876633
2.111954 -2.364395 18.913010
2.050735 -2.289719 18.883896
2.028854 -2.288315 18.883347
2.006607 -2.287735 18.884659
2.030777 -2.268661 18.878738
2.048935 -2.255264 18.892471
2.043228 -2.259750 18.889328
2.036911 -2.264053 18.882858
2.055954 -2.251419 18.904099
2.018845 -2.260605 18.928421
2.004868 -2.274124 18.910568
2.008286 -2.251083 18.925705
2.030075 -2.255325 18.931778
2.051651 -2.259262 18.937424
2.064316 -2.283707 18.885513
2.071548 -2.302628 18.907730
2.095139 -2.282822 18.909439
2.035294 -2.317734 18.937881
2.090561 -2.333694 18.968216
2.113541 -2.345016 18.996109
2.008835 -2.303055 18.944962
2.079117 -2.252518 18.948410
2.126328 -2.359543 18.989029
2.069992 -2.243912 18.928818
2.062546 -2.247269 18.912827
2.004349 -2.239120 18.935532
2.020950 -2.224411 18.936691
2.009537 -2.233597 18.931442
2.015366 -2.228928 18.934158
2.014999 -2.247879 18.940475
2.026962 -2.219650 18.940048
2.001328 -2.234085 18.951248
2.039291 -2.210587 18.950638
2.033096 -2.215164 18.945419
2.052750 -2.226883 18.987534
2.031265 -2.219955 18.975693
2.051865 -2.225540 18.970169
2.000046 -2.190140 18.996567
2.009842 -2.216019 18.970108
2.059464 -2.199631 18.986557
2.037277 -2.212479 18.983719
2.052536 -2.202621 18.970352
2.065842 -2.238937 18.958389
2.015976 -2.174149 18.990402
2.004959 -2.184464 18.991135
2.505539 -3.751114 19.208267
2.658737 -3.529831 19.029037
2.649612 -3.665482 19.123947
2.673813 -3.532150 19.059616
2.596146 -3.641006 19.147446
2.558182 -3.731430 19.219742
2.667099 -3.657455 19.182968
2.630386 -3.691269 19.166916
2.654373 -3.642105 19.180679
2.686722 -3.690140 19.214188
2.684067 -3.629745 19.197433
2.695694 -3.620346 19.172562
2.676895 -3.593735 19.198227
2.724289 -3.583420 19.239761
2.710678 -3.563156 19.224228
2.743790 -3.507156 19.211472
2.788895 -3.502914 19.241104
2.743362 -3.533585 19.253738
2.704910 -3.629654 19.258743
2.721664 -3.631912 19.295547
2.739090 -3.632553 19.339645
2.693710 -3.622238 19.253952
2.835953 -3.512100 19.267014
2.752701 -3.635941 19.364548
2.815628 -3.530991 19.304642
2.778610 -3.501602 19.275192
2.779282 -3.512741 19.257309
2.786270 -3.522232 19.294540
2.820663 -3.519394 19.306717
2.807938 -3.611557 19.367081
2.788254 -3.547440 19.331284
2.804916 -3.641312 19.486435
2.826736 -3.539383 19.385880
2.826004 -3.568314 19.433884
2.802689 -3.508347 19.378098
2.816635 -3.521805 19.375229
2.830887 -3.589066 19.458908
2.842606 -3.605820 19.496445
2.866806 -3.532730 19.447006
2.818344 -3.550186 19.465927
2.762314 -3.427353 19.060867
2.745468 -3.358871 19.012619
2.710495 -3.427383 19.013535
2.718460 -3.446609 19.029404
2.699997 -3.410263 19.005417
2.718002 -3.475235 19.074539
2.736496 -3.446579 19.114090
2.731705 -3.436050 19.121201
2.743790 -3.452713 19.126114
2.746170 -3.477554 19.160873
2.743362 -3.369186 19.140701
2.771317 -3.380539 19.053299
2.756546 -3.440323 19.058701
2.793411 -3.405014 19.208878
2.794510 -3.491592 19.240738
2.801559 -3.480545 19.235184
2.812668 -3.470810 19.214279
2.769485 -3.369827 19.143295
2.816818 -3.452469 19.297012
2.763046 -3.490677 19.285019
2.839920 -3.476791 19.342941
2.742874 -3.959824 19.648453
2.733444 -3.951340 19.649521
2.585403 -3.902115 19.747055
2.890030 -3.561539 19.614059
2.825760 -3.639542 19.548080
2.856766 -3.555008 19.530930
2.845596 -3.593246 19.506546
2.843521 -3.578659 19.556229
2.837753 -3.503220 19.503067
2.852676 -3.597946 19.571671
2.869705 -3.589188 19.603592
2.864731 -3.545609 19.582870
2.865677 -3.558823 19.622330
2.880295 -3.572525 19.619156
2.850479 -3.634018 19.632706
2.810959 -3.662155 19.662399
2.826401 -3.665359 19.693832
2.844223 -3.666214 19.739731
2.870621 -3.638168 19.744522
2.937912 -3.533066 19.679306
2.915726 -3.570969 19.633499
2.884781 -3.593033 19.631210
2.887711 -3.592453 19.639023
2.925217 -3.557022 19.652878
2.929092 -3.542435 19.686539
2.909134 -3.545944 19.662979
2.913528 -3.523148 19.658890
2.923203 -3.506058 19.711197
2.918259 -3.515396 19.744705
2.926376 -3.526443 19.730545
2.951035 -3.533310 19.707169
2.940323 -3.517014 19.698959
2.693130 -3.808609 19.782242
2.649460 -3.878586 19.813553
2.539871 -3.828018 19.802505
2.663254 -3.845688 19.810410
2.683640 -3.817673 19.808731
2.725204 -3.761307 19.814529
2.593918 -3.936539 19.877274
2.925308 -3.912582 19.936386
2.725052 -3.607956 19.844955
2.726273 -3.747696 19.759933
2.835129 -3.603287 19.800735
2.856674 -3.679550 19.837479
2.862381 -3.634262 19.859940
2.868484 -3.683029 19.910507
2.856339 -3.706253 19.916306
2.862930 -3.694290 19.912003
2.811234 -3.644760 19.875717
2.868790 -3.669479 19.939774
2.883255 -3.682205 19.935654
2.891922 -3.702621 19.954758
2.904922 -3.700577 19.967026
2.893417 -3.723831 19.970596
2.887924 -3.679153 19.944839
2.916977 -3.434372 19.743637
2.959579 -3.489151 19.714279
2.947647 -3.478714 19.714981
2.930771 -3.447830 19.741104
2.982803 -3.439224 19.738419
2.945786 -3.460709 19.735519
2.974777 -3.305954 19.849838
2.807144 -3.414383 19.785995
2.963913 -3.417435 19.771591
2.936874 -3.390640 19.775986
2.980240 -3.390060 19.761459
2.951126 -3.403152 19.770859
2.899765 -3.390671 19.873764
2.832565 -3.340988 19.865585
2.957962 -3.295883 19.864212
2.989426 -3.316788 19.840836
2.892654 -3.378677 19.894394
2.874161 -3.358994 19.911362
2.997665 -3.267990 19.881485
2.883224 -3.369522 19.900101
2.996445 -3.317551 19.906021
2.976700 -3.296555 19.922775
2.986588 -3.306931 19.914749
2.987991 -3.193039 19.924240
2.997818 -3.155289 19.980240
2.924301 -3.248184 19.946915
2.919540 -3.197281 19.974075
2.970322 -3.240311 19.943466
2.960739 -3.202072 19.962112
2.948959 -3.194748 19.956680
3.472153 -3.930710 19.907333
3.051743 -3.977615 19.858017
3.036331 -3.985275 19.905136
3.137283 -3.544266 19.839066
3.093979 -3.507584 19.843277
3.136276 -3.554825 19.856033
3.180008 -3.580002 19.838577
3.090805 -3.675552 19.992813
3.314529 -3.675186 19.835190
3.266830 -3.651230 19.832535
3.352371 -3.682419 19.908249
3.345963 -3.704971 19.889084
3.348526 -3.667770 19.951828
3.371780 -3.626022 19.945572
3.381668 -3.617294 19.925522
3.760422 -3.592911 19.947372
3.522568 -3.574875 19.945541
3.041458 -3.298019 19.809341
3.026810 -3.350357 19.807449
3.018112 -3.453110 19.778549
3.054428 -3.486526 19.805130
3.002823 -3.344254 19.793320
3.018082 -3.353958 19.846237
3.011459 -3.340225 19.872513
3.061600 -3.286545 19.832718
3.023972 -3.301590 19.831223
3.051102 -3.291641 19.817581
3.021286 -3.263199 19.874924
3.045822 -3.257401 19.866592
3.002884 -3.330582 19.881210
3.242996 -3.013412 19.928513
3.065170 -3.160690 19.904495
3.042953 -3.212967 19.898758
3.032547 -3.190994 19.901230
3.003586 -3.203690 19.912582
3.039902 -3.182480 19.896255
3.040085 -3.168137 19.930252
3.049667 -3.176468 19.907211
3.057938 -3.168930 19.908554
3.019302 -3.146561 19.931259
3.003159 -3.128525 19.932388
3.025681 -3.135269 19.932449
3.033432 -3.127914 19.935623
3.003799 -3.170151 19.948257
3.027023 -3.136856 19.944656
3.061539 -3.146225 19.945206
3.050278 -3.136887 19.946945
3.064255 -3.174057 19.944595
3.047195 -3.089432 19.927841
3.061050 -3.118210 19.954788
3.037155 -3.119766 19.954910
3.041916 -3.120743 19.939224
3.050980 -3.113571 19.944717
3.018356 -3.116898 19.993515
3.021408 -3.089310 19.977951
3.098740 -3.069656 19.941513
3.057816 -3.058670 19.957443
3.105026 -3.054184 19.954758
3.086685 -3.054642 19.939163
3.081467 -3.050919 19.945236
3.229843 -3.004654 19.923508
3.184586 -3.036911 19.930893
3.127914 -3.042496 19.934952
3.146103 -3.005264 19.925858
3.138107 -3.008621 19.907486
3.176987 -3.023788 19.952133
3.851822 -3.456619 19.915848
2.139359 -2.802353 19.539902
2.124680 -2.750351 19.027237
2.109238 -2.755997 19.000504
2.086533 -2.763229 19.051285
2.076706 -2.756760 19.123825
2.063004 -2.750565 19.120255
2.115891 -2.771713 19.144577
2.055954 -2.765274 19.131546
2.101242 -2.768204 19.129379
2.091476 -2.759079 19.143112
2.070236 -2.792618 19.221848
2.169418 -2.755539 19.162125
2.131454 -2.772934 19.169601
2.163040 -2.755905 19.195267
2.131638 -2.791733 19.226181
2.189682 -2.593674 19.017990
2.054367 -2.662979 19.024490
2.058975 -2.722519 19.003159
2.049667 -2.711929 19.023239
2.040817 -2.698898 19.052780
2.108292 -2.749405 19.000229
2.082352 -2.699265 19.005051
2.052139 -2.674088 19.066635
2.032333 -2.635513 19.088120
2.024216 -2.678848 19.118576
2.035202 -2.679703 19.109634
2.025223 -2.654739 19.093826
2.193466 -2.713028 19.058304
2.171890 -2.722519 19.051529
2.141983 -2.749069 19.063889
2.208267 -2.654373 19.082809
2.204636 -2.634079 19.062515
2.043167 -2.619125 19.093735
2.053940 -2.602097 19.098770
2.198135 -2.614426 19.048843
2.171646 -2.585464 19.061966
2.190689 -2.595200 19.037582
2.145248 -2.580673 19.107437
2.041702 -2.732529 19.144730
2.051590 -2.742050 19.129196
2.018051 -2.698196 19.126907
2.034439 -2.717117 19.185715
2.004776 -2.673172 19.207687
2.022964 -2.660995 19.234238
2.202286 -2.684097 19.134598
2.196579 -2.712845 19.184738
2.170883 -2.742325 19.195023
2.176987 -2.728439 19.200119
2.186478 -2.744736 19.247696
2.183792 -2.646317 19.236343
2.162979 -2.608932 19.164078
2.155838 -2.761398 19.255844
2.116135 -2.800827 19.255081
2.058517 -2.765671 19.269699
2.046249 -2.758591 19.272232
2.107010 -2.793289 19.263290
2.081161 -2.783096 19.250443
2.069351 -2.776230 19.252487
2.082199 -2.755753 19.254776
2.097092 -2.808792 19.295731
2.121902 -2.795486 19.283737
2.067642 -2.813400 19.370560
2.030930 -2.765213 19.370438
2.171463 -2.780472 19.307327
2.157242 -2.789444 19.332962
2.131882 -2.811783 19.368851
2.163620 -2.787155 19.349930
2.061234 -2.796982 19.377884
2.115677 -2.821060 19.399826
2.038467 -2.778976 19.399551
2.090897 -2.827805 19.458969
2.021561 -2.754013 19.457779
2.017899 -2.764023 19.481064
2.173630 -2.781723 19.458298
2.156113 -2.622910 19.276291
2.041275 -2.649429 19.261887
2.016647 -2.705063 19.270126
2.031021 -2.694473 19.259506
2.018417 -2.730362 19.302933
2.036850 -2.748337 19.291214
2.057083 -2.636398 19.282547
2.029190 -2.733597 19.329636
2.194565 -2.666824 19.260056
2.197800 -2.689651 19.284866
2.185959 -2.650131 19.254288
2.174942 -2.633774 19.253922
2.176956 -2.731918 19.369308
2.175430 -2.747971 19.347885
2.197067 -2.714645 19.320511
2.190506 -2.743851 19.373276
2.136795 -2.627243 19.317886
2.158218 -2.644760 19.351059
2.069717 -2.620560 19.292953
2.126846 -2.620499 19.330765
2.027786 -2.672226 19.397873
2.011703 -2.733658 19.432236
2.027237 -2.696762 19.424637
2.014236 -2.711349 19.412277
2.026413 -2.710037 19.408707
2.036942 -2.654343 19.398087
2.063461 -2.648697 19.451126
2.083023 -2.637527 19.482529
2.183090 -2.677597 19.432907
2.173111 -2.661942 19.431259
2.179459 -2.677170 19.413834
2.162857 -2.644974 19.428452
2.187088 -2.699905 19.455673
2.187820 -2.723862 19.487198
2.134750 -2.640854 19.478592
2.132828 -2.651718 19.483994
2.128128 -2.360458 19.120193
2.069931 -2.299423 19.016678
2.145554 -2.417557 19.025406
2.110947 -2.354080 19.007248
2.086929 -2.356918 19.021835
2.096359 -2.333572 19.016098
2.088913 -2.330673 19.077835
2.117935 -2.344223 19.119919
2.109604 -2.346756 19.108444
2.122910 -2.411575 19.197250
2.134537 -2.379654 19.132156
2.103836 -2.330643 19.131088
2.089798 -2.317245 19.142410
2.087418 -2.325119 19.183487
2.066422 -2.316452 19.167862
2.107376 -2.349838 19.231857
2.024063 -2.118393 19.080246
2.034561 -2.185226 19.025467
2.020401 -2.200668 19.003616
2.058609 -2.200577 19.058670
2.053848 -2.194046 19.036942
2.032791 -2.186966 19.024734
2.010910 -2.185226 19.023636
2.009201 -2.183884 19.005814
2.028488 -2.166519 19.009171
2.023361 -2.171280 19.008987
2.041336 -2.158401 19.027786
2.034470 -2.161728 19.013138
2.051346 -2.182480 19.050980
2.038284 -2.167038 19.058701
2.048386 -2.154709 19.041702
2.054794 -2.163315 19.091080
2.057053 -2.175705 19.067947
2.026413 -2.151962 19.064682
2.007431 -2.152817 19.069077
2.012314 -2.151443 19.071396
2.001328 -2.137497 19.068863
2.007248 -2.132767 19.072708
2.012497 -2.127853 19.072952
2.056137 -2.152023 19.063431
2.033646 -2.154892 19.076065
2.025375 -2.140854 19.098831
2.004898 -2.142563 19.097580
2.039078 -2.126877 19.116745
2.018631 -2.123367 19.079361
2.055832 -2.131149 19.142685
2.051590 -2.137802 19.129562
2.034500 -2.125534 19.133377
2.043015 -2.135666 19.166550
2.012405 -2.164444 19.214859
2.040665 -2.121628 19.132278
2.025162 -2.109543 19.149612
2.001236 -2.111435 19.153519
2.013412 -2.120377 19.125107
2.007675 -2.098648 19.172867
2.014969 -2.097244 19.171463
2.014206 -2.092392 19.185623
2.043533 -2.116776 19.196701
2.056625 -2.101822 19.200516
2.035690 -2.095657 19.189987
2.030502 -2.084946 19.195786
2.042465 -2.078598 19.211075
2.056015 -2.091873 19.199112
2.042618 -2.068893 19.208176
2.043961 -2.097946 19.227066
2.015091 -2.063522 19.244888
2.047043 -2.080917 19.248032
2.036545 -2.063278 19.241928
2.069138 -2.105423 19.188309
2.004074 -2.053391 19.243851
2.081436 -2.302261 19.275742
2.021805 -2.496292 19.310715
2.011917 -2.483749 19.337418
2.042892 -2.489456 19.370193
2.064865 -2.311905 19.276505
2.109818 -2.328751 19.251663
2.098434 -2.313614 19.255447
2.085800 -2.320969 19.293045
2.094711 -2.368057 19.318314
2.104996 -2.354080 19.358963
2.055710 -2.296188 19.320847
2.094193 -2.410080 19.389511
2.049820 -2.456314 19.462448
2.111801 -2.376328 19.446762
2.062851 -2.312210 19.396317
2.105423 -2.334030 19.404526
2.114914 -2.350784 19.406876
2.075241 -2.338730 19.417313
2.092453 -2.319962 19.413010
2.083817 -2.320694 19.411728
2.016190 -2.304214 19.391922
2.077438 -2.307236 19.427628
2.103439 -2.348740 19.467575
2.056412 -2.297989 19.459152
2.061844 -2.301010 19.493393
2.058823 -2.308670 19.496628
2.021927 -2.041397 19.274490
2.003799 -2.032028 19.271591
2.057510 -2.070877 19.255447
2.041428 -2.036575 19.298599
2.016159 -2.032791 19.300552
2.037399 -2.036697 19.306351
2.045242 -2.060410 19.287003
2.054001 -2.050674 19.289352
2.027756 -2.023087 19.311081
2.058029 -2.044418 19.320358
2.045334 -2.040726 19.320084
2.011826 -2.010452 19.329605
2.017197 -2.002060 19.356766
2.039505 -2.017410 19.373917
2.038223 -2.004868 19.360275
2.057602 -2.006516 19.365341
2.059219 -2.010422 19.369705
2.066513 -2.022629 19.366196
2.038010 -2.045273 19.450089
2.010941 -2.031815 19.454300
2.023056 -2.039688 19.446243
2.054764 -2.047165 19.468857
2.183517 -2.751419 19.533798
2.033707 -2.794846 19.551590
2.044327 -2.804306 19.537491
2.055252 -2.814590 19.520950
2.066360 -2.822281 19.514328
2.080368 -2.824692 19.532822
2.048386 -2.825546 19.581924
2.097214 -2.824753 19.565140
2.023483 -2.785965 19.564621
2.015213 -2.772476 19.598221
2.006882 -2.764084 19.599106
2.009293 -2.754074 19.654129
2.092331 -2.831985 19.626480
2.055557 -2.822647 19.714310
2.042953 -2.814957 19.718033
2.055069 -2.832138 19.731827
2.069778 -2.825607 19.730942
2.030746 -2.807999 19.720169
2.019699 -2.800491 19.726578
2.154617 -2.665207 19.509262
2.071060 -2.629074 19.502518
2.016281 -2.734543 19.518356
2.003708 -2.736130 19.559402
2.006546 -2.714066 19.540268
2.013443 -2.695206 19.534042
2.028244 -2.680588 19.550522
2.065231 -2.635605 19.511459
2.044083 -2.667282 19.571060
2.061081 -2.655075 19.595474
2.130051 -2.661209 19.621719
2.175308 -2.705460 19.588089
2.102310 -2.640823 19.669113
2.008530 -2.699905 19.672165
2.020004 -2.683029 19.678726
2.094467 -2.653305 19.668961
2.019302 -2.714676 19.715195
2.011185 -2.718369 19.704269
2.007523 -2.727188 19.733017
2.007614 -2.731430 19.733719
2.035477 -2.669479 19.698135
2.052872 -2.657547 19.724075
2.151596 -2.678452 19.654709
2.173233 -2.737137 19.672226
2.171799 -2.725021 19.746719
2.002487 -2.773453 19.793564
2.085648 -2.825211 19.763321
2.003860 -2.750320 19.829117
2.001785 -2.783279 19.983047
2.012100 -2.776474 19.980576
2.148788 -2.757950 19.889938
2.131119 -2.771561 19.976608
2.127487 -2.667862 19.755112
2.089767 -2.658279 19.808884
2.004440 -2.737015 19.768448
2.029770 -2.673782 19.835922
2.044724 -2.660141 19.854538
2.115799 -2.659409 19.819321
2.098282 -2.648270 19.839340
2.145126 -2.687332 19.798904
2.150955 -2.743057 19.782516
2.148544 -2.691177 19.800583
2.158005 -2.700943 19.792007
2.133255 -2.671463 19.800797
2.158707 -2.725845 19.825241
2.068680 -2.652054 19.900162
2.071213 -2.643723 19.887802
2.013748 -2.671005 19.943527
2.031631 -2.659470 19.971390
2.113846 -2.663162 19.969986
2.093979 -2.653732 19.997269
2.125320 -2.669296 19.879257
2.132431 -2.716995 19.877274
2.149063 -2.709946 19.963974
2.140854 -2.692825 19.956589
2.145767 -2.700363 19.940842
2.130112 -2.676102 19.955002
2.380783 -2.534225 19.822647
2.179092 -2.362198 19.612747
2.107590 -2.311874 19.509659
2.025223 -2.469559 19.618301
2.082748 -2.310226 19.510483
2.123642 -2.347031 19.522568
2.116043 -2.328995 19.514511
2.102798 -2.333115 19.555954
2.030716 -2.291794 19.504471
2.031448 -2.269333 19.507675
2.022659 -2.293686 19.540756
2.040604 -2.268082 19.540939
2.060684 -2.291550 19.595108
2.081253 -2.304337 19.619705
2.055069 -2.272781 19.625259
2.059006 -2.287521 19.709335
2.032639 -2.283951 19.700912
2.079117 -2.305008 19.744003
2.034714 -2.239456 19.704330
2.006210 -2.275253 19.776962
2.015549 -2.465500 19.829300
2.083786 -2.309891 19.839523
2.093002 -2.326523 19.842056
2.056870 -2.288101 19.834427
2.072891 -2.293839 19.841354
2.070328 -2.388596 19.972610
2.044113 -2.446152 19.946823
2.076309 -2.310043 19.878799
2.089066 -2.352249 19.884598
2.049088 -2.286453 19.882187
2.040695 -2.269516 19.877823
2.054611 -2.289871 19.963455
2.001877 -2.272598 19.964493
2.075211 -2.301895 19.986862
3.216232 -2.916306 19.890823
3.219894 -2.936386 19.918839
3.171890 -2.976669 19.931625
3.156204 -2.984329 19.926437
3.180099 -2.971481 19.909256
3.162460 -2.961319 19.917282
3.217514 -2.995407 19.922073
3.207443 -2.984604 19.930557
3.195541 -2.976242 19.927750
3.194199 -2.962387 19.906784
3.212509 -2.908371 19.923050
3.248672 -2.888290 19.927414
3.236404 -2.903854 19.917984
3.258682 -2.902267 19.931992
3.271927 -2.884171 19.934341
3.304001 -2.913467 19.947861
3.315109 -2.924667 19.940933
3.343674 -2.789474 19.922897
3.281204 -2.863968 19.934769
3.256210 -2.844986 19.924728
3.278641 -2.838821 19.931137
3.279831 -2.836380 19.906784
3.279373 -2.841293 19.921463
3.320755 -2.784073 19.935593
3.287918 -2.853867 19.939011
3.364609 -2.813278 19.965317
3.327499 -2.819168 19.949173
3.374344 -2.826065 19.951035
3.298416 -2.789749 19.942856
3.318253 -2.804276 19.941483
3.357895 -2.769638 19.951614
3.347336 -2.754959 19.947037
3.414627 -2.754227 19.920395
3.388351 -2.834732 19.957809
3.411087 -2.780746 19.960068
3.399002 -2.770126 19.963058
3.387833 -2.759445 19.968369
3.399796 -2.759079 19.956558
3.488754 -2.550247 19.967148
3.362595 -2.723038 19.942429
3.339096 -2.737381 19.966873
3.365433 -2.738174 19.979019
3.419846 -2.741196 19.934769
3.400253 -2.722275 19.928787
3.386063 -2.698593 19.919357
3.423843 -2.728104 19.953354
3.387131 -2.720383 19.956741
3.432968 -2.718521 19.947372
3.416000 -2.706833 19.941116
3.409958 -2.715652 19.944534
3.423172 -2.698685 19.943741
3.430862 -2.691513 19.951096
3.436691 -2.723618 19.977005
3.424820 -2.713455 19.979233
3.441818 -2.709671 19.940445
3.456406 -2.688156 19.946396
3.449600 -2.699203 19.941025
3.448837 -2.734360 19.973709
3.426376 -2.686325 19.968460
3.416580 -2.672775 19.964401
3.410965 -2.634384 19.958969
3.470688 -2.666367 19.954330
3.463821 -2.677017 19.950027
3.456528 -2.635086 19.959030
3.484756 -2.645828 19.960434
3.496994 -2.637955 19.941330
3.477615 -2.656113 19.957687
3.441849 -2.686020 19.975235
3.455795 -2.638931 19.976456
3.445023 -2.626175 19.976089
3.471207 -2.557541 19.967331
3.431381 -2.608414 19.960861
3.422073 -2.615463 19.946396
3.414688 -2.623428 19.941757
3.468185 -2.613724 19.965012
3.450668 -2.582626 19.960342
3.463577 -2.564713 19.958755
3.475082 -2.591812 19.960770
3.493149 -2.606827 19.995621
3.461441 -2.578812 19.980789
3.447006 -2.593246 19.976273
3.485153 -2.591660 19.984695
3.592575 -2.556168 19.988754
3.566788 -2.519150 19.978928
3.500534 -2.625443 19.961380
3.580185 -2.501724 19.983261
3.525772 -2.556717 19.991379
3.512558 -2.545670 19.999649
3.501572 -2.526901 19.985977
3.523575 -2.511490 19.994705
3.562119 -2.528946 19.987320
3.573746 -2.510788 19.982956
3.593918 -2.484879 19.990829
3.600662 -2.476334 19.994034
3.587936 -2.493423 19.990677
3.532669 -2.489761 19.995865
3.613144 -2.457291 19.992020
3.607468 -2.467026 19.995590
0.549850 -0.316422 18.499802
0.565231 -0.789322 18.792984
0.496841 -0.406326 18.717056
0.498947 -0.403824 18.718643
0.497971 -0.405136 18.720352
0.553299 -0.316513 18.588547
0.666702 -0.311600 18.714706
0.607040 -0.413498 18.678085
0.620224 -0.415237 18.688766
0.599350 -0.296158 18.681717
0.597275 -0.337967 18.645035
0.610153 -0.337051 18.700027
0.578415 -0.301376 18.708023
0.724014 -0.369339 18.772263
0.661209 -0.398544 18.751541
0.686447 -0.287918 18.929977
0.749039 -0.366623 18.889755
0.995163 -0.253464 18.866104
0.775162 -0.309464 18.816513
0.764328 -0.355331 18.843918
0.818558 -0.318649 18.856216
0.776443 -0.307632 18.827805
0.995804 -0.251175 18.867325
0.902115 -0.306229 18.906082
0.886551 -0.295670 18.889633
0.747299 -0.211380 18.904770
0.936111 -0.240494 18.859055
0.996994 -0.248764 18.877823
1.211441 -0.637589 18.759659
1.189133 -0.036819 18.717911
1.207718 -0.052994 18.737259
1.208237 -0.046890 18.741379
1.202560 -0.095291 18.697403
1.205734 -0.067917 18.718094
1.196030 -0.108719 18.745438
1.204453 -0.098526 18.730942
1.162247 -0.044418 18.733261
1.208267 -0.049942 18.743576
1.208328 -0.037857 18.737656
1.207993 -0.034683 18.731003
1.208328 -0.040970 18.739273
1.208603 -0.044052 18.745346
1.208572 -0.022781 18.735855
1.208542 -0.025772 18.736282
1.209274 -0.016769 18.745041
1.208939 -0.013748 18.739365
1.209427 -0.004440 18.745560
1.209671 -0.001480 18.749588
1.193588 -0.277512 18.811417
1.199783 -0.397720 18.872360
1.069534 -0.275192 18.869217
1.037979 -0.306595 18.853836
1.036789 -0.268417 18.870407
1.045670 -0.260818 18.866562
1.181808 -0.305618 18.802933
1.181412 -0.272842 18.802750
1.173660 -0.254807 18.782394
1.176773 -0.313095 18.873886
1.140335 -0.314529 18.868423
1.190964 -0.350174 18.841660
1.213364 -0.349228 18.845566
1.228256 -0.362625 18.871414
1.245621 -0.360855 18.858963
1.189835 -0.325974 18.865158
1.181747 -0.306046 18.826218
1.178421 -0.306870 18.874039
1.177597 -0.309860 18.873581
1.222458 -0.386765 18.918015
1.227341 -0.447952 18.908554
1.209000 -0.441422 18.914383
1.237564 -0.490524 18.955124
1.218796 -0.485092 18.957535
1.244278 -0.452774 18.951889
1.118942 -0.293381 18.887955
1.122452 -0.317947 18.887405
1.019241 -0.267319 18.877335
1.001358 -0.265793 18.883530
1.095535 -0.288162 18.875870
1.099350 -0.273544 18.878006
1.103867 -0.258560 18.882187
1.115219 -0.260574 18.885391
1.182175 -0.298508 18.898361
1.174606 -0.324783 18.889145
1.138107 -0.325363 18.876724
1.176010 -0.328415 18.924759
1.179245 -0.303940 18.875198
1.134659 -0.301682 18.900284
1.143814 -0.252335 18.893753
1.138535 -0.272263 18.882431
1.138168 -0.275192 18.888016
1.140244 -0.266495 18.887802
1.141342 -0.260880 18.884995
1.141068 -0.263748 18.890793
1.142685 -0.258072 18.896225
1.143723 -0.255295 18.902512
1.257126 -0.378769 18.873520
1.256119 -0.381912 18.872818
1.254532 -0.388290 18.877609
1.255630 -0.385208 18.879807
1.257492 -0.392532 18.936539
1.261063 -0.462143 18.967178
1.174515 -0.043472 18.771927
1.069717 -0.136826 18.861832
1.197433 -0.183304 18.776047
1.185043 -0.205551 18.769882
1.195175 -0.195328 18.770432
1.195938 -0.192184 18.774429
1.187637 -0.222672 18.811630
1.197159 -0.189255 18.785995
1.185074 -0.155289 18.778702
1.176620 -0.152420 18.755569
1.193985 -0.158859 18.769211
1.197342 -0.186325 18.781418
1.200912 -0.160660 18.784103
1.205826 -0.146194 18.798813
1.144516 -0.243301 18.873886
1.120071 -0.015396 18.834641
1.120377 -0.012589 18.839554
1.206009 -0.107620 18.766739
1.171463 -0.096512 18.750748
1.205612 -0.104630 18.756638
1.205765 -0.101700 18.754959
1.151962 -0.005722 18.829849
1.102585 -0.137222 18.905350
1.111740 -0.242691 18.900101
1.109573 -0.243790 18.890335
1.109665 -0.198502 18.896988
1.106583 -0.188370 18.902206
1.117752 -0.229904 18.907120
1.143539 -0.249191 18.878159
1.144119 -0.246506 18.878159
1.168564 -0.128006 18.962082
1.167526 -0.130905 18.950485
1.106674 -0.027176 18.898056
1.121109 -0.080185 18.898697
1.096573 -0.078476 18.902664
1.123550 -0.069077 18.927139
1.114670 -0.082596 18.906601
1.122391 -0.077530 18.917068
1.124069 -0.063187 18.930038
1.123978 -0.071945 18.937332
1.123581 -0.074844 18.933945
1.110611 -0.017929 18.877670
1.094162 -0.016953 18.884506
1.123978 -0.052170 18.919113
1.123703 -0.057785 18.918869
1.124527 -0.066177 18.940842
1.111679 -0.006851 18.986069
1.144394 -0.052628 18.918961
1.149673 -0.003799 18.908432
1.167740 -0.124893 18.943527
1.156387 -0.022598 18.940567
1.255722 -0.099594 18.789108
1.252884 -0.137405 18.800186
1.252609 -0.140579 18.801376
1.275742 -0.163132 18.863113
1.788101 -0.074478 18.868637
1.751358 -0.086472 18.911179
0.145432 -1.672531 19.730118
0.449875 -1.014877 19.491776
0.151962 -1.109726 19.475388
0.091049 -1.141617 19.457077
0.071091 -1.154068 19.480331
0.241440 -1.132401 19.452499
0.177689 -1.165817 19.449203
0.083267 -1.109299 19.433212
0.033463 -1.103409 19.448044
0.030594 -1.118759 19.460434
0.326981 -1.006149 19.435837
0.361038 -1.153275 19.497574
0.302414 -1.145981 19.454941
0.311630 -1.126358 19.461929
0.286728 -1.048935 19.435165
0.301559 -1.067245 19.465622
0.291092 -1.122208 19.493607
0.310410 -1.100235 19.497696
0.265884 -1.091080 19.478775
0.363815 -1.100815 19.493851
0.333084 -1.100113 19.477188
0.325027 -1.101883 19.476364
0.361008 -1.101761 19.494247
0.352493 -1.103928 19.485031
0.358109 -1.102524 19.491379
0.332657 -1.089035 19.484818
0.336533 -1.074783 19.479233
0.291916 -1.060593 19.445908
0.335495 -1.057816 19.453812
0.337296 -1.056107 19.466324
0.323502 -1.051163 19.451340
0.329758 -1.005905 19.447403
0.340073 -1.055649 19.473526
0.681747 -1.134476 19.144699
0.310715 -1.760147 19.795334
0.177109 -1.578110 19.870377
0.391068 -1.725082 19.851212
0.361099 -1.735428 19.841843
0.408859 -1.711777 19.912308
0.770615 -1.543777 19.746414
0.691147 -1.521805 19.749161
0.790726 -1.530685 19.743301
0.831497 -1.631180 19.748062
0.878922 -1.683243 19.724350
0.975296 -1.715317 19.744827
0.757004 -1.520187 19.747513
0.760727 -1.563980 19.692703
0.793900 -1.585709 19.741226
0.965256 -1.803360 19.788193
0.916061 -1.925705 19.827103
0.996628 -1.868057 19.788467
0.982071 -1.863083 19.792770
0.697830 -1.585709 19.834000
0.548386 -1.635452 19.850876
0.610336 -1.567154 19.848862
0.642105 -1.577805 19.834305
0.518845 -1.610428 19.940903
0.770523 -1.557175 19.760605
0.872238 -1.665817 19.794540
0.854233 -1.658829 19.815109
0.862503 -1.642227 19.871872
0.943527 -1.679306 19.776627
0.909561 -1.703293 19.781235
0.905197 -1.729172 19.798233
0.920059 -1.735519 19.788162
0.972031 -1.719864 19.768417
0.968338 -1.715866 19.762527
0.941605 -1.695480 19.757675
0.943039 -1.747971 19.798203
0.986313 -1.730728 19.787399
0.935013 -1.683640 19.773026
0.886337 -1.673203 19.779770
0.900101 -1.682449 19.758224
0.902512 -1.644211 19.771927
0.878250 -1.645096 19.774765
0.887985 -1.652603 19.780807
0.898117 -1.646622 19.772079
0.898331 -1.648941 19.774368
0.906693 -1.642319 19.775803
0.910934 -1.640213 19.777908
0.939316 -1.681564 19.775925
0.938583 -1.730179 19.824173
0.750534 -1.554825 19.764999
0.779251 -1.598892 19.754837
0.789749 -1.566971 19.772934
0.858078 -1.611313 19.772568
0.841293 -1.612473 19.766129
0.862228 -1.609085 19.772354
0.853500 -1.612686 19.762436
0.870316 -1.605270 19.777664
0.866226 -1.607224 19.775040
0.822525 -1.572830 19.766403
0.826340 -1.570724 19.765335
0.756485 -1.537491 19.758286
0.427994 -1.257278 19.554184
0.225510 -1.311356 19.658859
0.120621 -1.412766 19.668167
0.131699 -1.414505 19.705887
0.112350 -1.290665 19.685501
0.016953 -1.281235 19.686813
0.019516 -1.297012 19.689865
0.000656 -1.275497 19.702133
0.048752 -1.279770 19.702103
0.033737 -1.280594 19.694321
0.097366 -1.286392 19.695145
0.082199 -1.294266 19.701370
0.165573 -1.298233 19.669235
0.173172 -1.317520 19.652420
0.160355 -1.299850 19.671066
0.144943 -1.294510 19.683945
0.129593 -1.293137 19.683060
0.242874 -1.348007 19.689407
0.239731 -1.349075 19.696396
0.411301 -1.255325 19.552353
0.410355 -1.257980 19.557877
0.392105 -1.256149 19.556595
0.399857 -1.250778 19.546097
0.436234 -1.360153 19.617844
0.398026 -1.346970 19.612869
0.386703 -1.339584 19.620865
0.383316 -1.343246 19.618423
0.478958 -1.356064 19.624771
0.455704 -1.346481 19.595993
0.443924 -1.340408 19.623825
0.470078 -1.333420 19.612320
0.496964 -1.324417 19.622299
0.427963 -1.272171 19.578232
0.382004 -1.310104 19.617050
0.454666 -1.308090 19.584793
0.444839 -1.281143 19.587875
0.471146 -1.306473 19.599380
0.483078 -1.389572 19.627579
0.372574 -1.314743 19.643478
0.285049 -1.320633 19.643967
0.252945 -1.345688 19.682907
0.345932 -1.321030 19.630081
0.339096 -1.327927 19.641678
0.342728 -1.322464 19.638168
0.339676 -1.324295 19.652908
0.352676 -1.319931 19.639450
0.349167 -1.320389 19.633072
0.333359 -1.327591 19.676468
0.338333 -1.324844 19.660690
0.336624 -1.326309 19.670273
0.378952 -1.311752 19.627213
0.375839 -1.313828 19.643692
0.499893 -1.366531 19.652756
0.463974 -1.352615 19.628464
0.495621 -1.357162 19.630386
0.477707 -1.333145 19.643906
0.484055 -1.330154 19.634750
0.474136 -1.333969 19.638138
0.480698 -1.331345 19.634445
0.487350 -1.328751 19.632370
0.490738 -1.327530 19.632492
0.494125 -1.326492 19.635361
0.015060 -1.098312 19.553543
0.305588 -1.119980 19.519943
0.360275 -1.182907 19.512619
0.370102 -1.204025 19.517685
0.336807 -1.155441 19.507645
0.384903 -1.146072 19.501083
0.385880 -1.205856 19.519089
0.485123 -1.188187 19.554855
0.382187 -1.147018 19.501572
0.436447 -1.237656 19.575272
0.302811 -1.120926 19.523148
0.300003 -1.121780 19.524521
0.435104 -1.234940 19.639694
0.447372 -1.418869 19.757095
0.448685 -1.470352 19.927444
0.458603 -1.413345 19.913345
0.771530 -1.484268 19.742599
0.504227 -1.323471 19.645340
0.584457 -1.414902 19.676865
0.520493 -1.413651 19.663620
0.567947 -1.437729 19.731308
0.513962 -1.408646 19.697525
0.612320 -1.433640 19.698837
0.593185 -1.424942 19.690079
0.617172 -1.417770 19.687698
0.601364 -1.412857 19.694809
0.632065 -1.422958 19.679153
0.650803 -1.448746 19.711777
0.631363 -1.438187 19.698837
0.651627 -1.496536 19.718826
0.687271 -1.477188 19.722824
0.670914 -1.473526 19.724442
0.657578 -1.457108 19.719772
0.706070 -1.497116 19.741226
0.704056 -1.477371 19.734024
0.500565 -1.323410 19.626694
0.534256 -1.020859 19.728104
0.889267 -1.127365 19.506821
0.870071 -1.495010 19.822617
0.768417 -1.451523 19.979813
0.972977 -1.101303 19.845078
1.288284 -1.801926 19.562057
1.488205 -1.961563 19.028183
1.270065 -1.516495 19.492355
1.255600 -1.511276 19.495712
1.968765 -1.979599 19.373886
1.995590 -1.999771 19.354538
1.974838 -1.999863 19.357376
1.959152 -1.996597 19.367844
1.988327 -1.968704 19.410568
1.261246 -1.308029 19.420029
1.298172 -1.277847 19.434189
1.250900 -1.406967 19.459427
1.268051 -1.467148 19.464859
1.251266 -1.464035 19.459152
1.286270 -1.473709 19.494156
1.265518 -1.414413 19.448532
1.296127 -1.413559 19.484085
1.312424 -1.390732 19.488846
1.303238 -1.391159 19.488480
1.304977 -1.378860 19.491867
1.297348 -1.276047 19.418991
1.308304 -1.325790 19.436996
1.287155 -1.319168 19.429001
1.307755 -1.261490 19.419601
1.308609 -1.347275 19.456406
1.264053 -1.360275 19.437943
1.306686 -1.349686 19.465103
1.308182 -1.353989 19.463181
1.287033 -1.343643 19.458359
1.309738 -1.335068 19.447922
1.291397 -1.316574 19.440872
1.311478 -1.371658 19.484482
1.306961 -1.373611 19.480392
1.307999 -1.374924 19.483994
1.319534 -1.364517 19.448502
1.311234 -1.297470 19.445450
1.279709 -1.287643 19.438156
1.308151 -1.300858 19.447739
1.324814 -1.305252 19.459976
1.333176 -1.290268 19.468399
1.324173 -1.284195 19.444962
1.314529 -1.293961 19.444443
1.320938 -1.287338 19.443680
1.317825 -1.290939 19.446854
1.336716 -1.270950 19.443832
1.327286 -1.280991 19.445145
1.333817 -1.274338 19.446335
1.330704 -1.277786 19.447708
1.207291 -1.051102 19.287064
1.232529 -1.154465 19.340073
1.236496 -1.204575 19.364853
1.227310 -1.106216 19.308701
1.210464 -1.107681 19.290085
1.247910 -1.098892 19.349075
1.233047 -1.028336 19.379105
1.262222 -1.045456 19.289474
1.270462 -1.125748 19.340408
1.253250 -1.209732 19.362930
1.289169 -1.158401 19.373276
1.292252 -1.126724 19.362350
1.284744 -1.130173 19.360092
1.257248 -1.025986 19.283981
1.269150 -1.009537 19.296860
1.309677 -1.063492 19.333694
1.279068 -1.068039 19.332626
1.307327 -1.067062 19.338577
1.304855 -1.070572 19.342239
1.298416 -1.081833 19.367538
1.302811 -1.074387 19.351913
1.300461 -1.077957 19.357193
1.292770 -1.053268 19.327835
1.277206 -1.062424 19.336380
1.260757 -1.052628 19.320084
1.257126 -1.037735 19.327255
1.253860 -1.055008 19.334213
1.264938 -1.023117 19.336349
1.289474 -1.010239 19.332626
1.281509 -1.019211 19.324600
1.280319 -1.023727 19.347031
1.296768 -1.005417 19.365585
1.313431 -1.061203 19.350510
1.316391 -1.058304 19.356125
1.288864 -1.178055 19.392014
1.274399 -1.228531 19.401047
1.291336 -1.204239 19.398026
1.309433 -1.225723 19.426407
1.303207 -1.232468 19.427383
1.309067 -1.213333 19.412338
1.284775 -1.215103 19.417343
1.287857 -1.196854 19.407852
1.323074 -1.207809 19.403397
1.329208 -1.200851 19.401688
1.312515 -1.222427 19.426498
1.340439 -1.193130 19.436661
1.326431 -1.204910 19.408981
1.317581 -1.214828 19.410782
1.320755 -1.211716 19.413254
1.314835 -1.218491 19.415848
1.297897 -1.161087 19.393784
1.300919 -1.157913 19.395401
1.292618 -1.167740 19.399673
1.295425 -1.164658 19.399796
1.303757 -1.154465 19.393509
1.290146 -1.171890 19.410110
1.326492 -1.229080 19.442032
1.335709 -1.200943 19.454788
1.337967 -1.196976 19.444412
1.316727 -1.049606 19.422012
1.264633 -1.079422 19.389481
1.308792 -1.098557 19.407974
1.264908 -1.053848 19.430893
1.266708 -1.049911 19.417496
1.335098 -1.046036 19.436630
1.262711 -1.057419 19.437973
1.600784 -1.024826 19.332687
1.289627 -1.781509 19.589127
1.247696 -1.974319 19.662247
1.275772 -1.779282 19.574478
1.283249 -1.798111 19.611649
1.275803 -1.831558 19.591293
1.270584 -1.813553 19.585312
1.285904 -1.871994 19.616043
1.283432 -1.849289 19.597794
1.303146 -1.845718 19.615280
1.299088 -1.849808 19.624222
1.272110 -1.815018 19.613602
1.261917 -1.825150 19.598984
1.307266 -1.841934 19.609299
1.293869 -1.815231 19.607193
1.302109 -1.786148 19.623611
1.278549 -1.801407 19.611252
1.296555 -1.788071 19.608170
1.291733 -1.790848 19.603195
1.287125 -1.794327 19.604294
1.300644 -1.912674 19.646408
1.291519 -1.938614 19.673874
1.262833 -1.937576 19.678757
1.254776 -1.952560 19.675613
1.293472 -1.914993 19.645035
1.276505 -1.931961 19.641342
1.276840 -1.929733 19.654160
1.296402 -1.916763 19.654984
1.277664 -1.877853 19.631699
1.288284 -1.894547 19.634476
1.282974 -1.883743 19.632553
1.266006 -1.918076 19.663315
1.286667 -1.923508 19.656418
1.282700 -1.927902 19.668655
1.291611 -1.920303 19.657211
1.265182 -1.877731 19.660080
1.285843 -1.860611 19.635361
1.294662 -1.853531 19.628586
1.277145 -1.868179 19.646805
1.281174 -1.863998 19.636459
1.290329 -1.857132 19.632584
1.271164 -1.859268 19.673294
1.273331 -1.872391 19.658310
1.123764 -1.599747 19.562637
1.303513 -1.619370 19.556168
1.273697 -1.675217 19.537552
1.290421 -1.731155 19.558945
1.275528 -1.725113 19.564163
1.293747 -1.708328 19.567642
1.294052 -1.679214 19.563797
1.319016 -1.628830 19.569687
1.047562 -1.806870 19.778000
1.078842 -1.893326 19.780960
1.113571 -1.949295 19.781662
1.041000 -1.932785 19.802872
1.026199 -1.930252 19.797287
1.099777 -1.879776 19.781418
1.075607 -1.982254 19.866562
1.129745 -1.919998 19.777359
1.155441 -1.989212 19.781235
1.219925 -1.981339 19.763351
1.200180 -1.993759 19.766464
1.215073 -1.984451 19.764420
1.209824 -1.987350 19.762222
1.204819 -1.990402 19.762405
1.196121 -1.998337 19.781967
1.142410 -1.934769 19.787491
1.134933 -1.917953 19.785110
1.042496 -1.785721 19.767868
1.090408 -1.869797 19.793228
1.069565 -1.862625 19.785477
1.070053 -1.865158 19.788834
1.044235 -1.794998 19.775131
1.009995 -1.756363 19.771500
1.035019 -1.766098 19.764450
1.017715 -1.795151 19.786880
1.011368 -1.785751 19.791275
1.057480 -1.805893 19.794815
1.037338 -1.802292 19.794693
1.019791 -1.752914 19.790207
1.015213 -1.755325 19.788315
1.039810 -1.872726 19.915939
1.004807 -1.748245 19.817947
1.291153 -1.588089 19.973221
1.803207 -1.970963 19.863846
1.316544 -1.369888 19.507187
1.298355 -1.427994 19.513962
1.283737 -1.476791 19.525742
1.305466 -1.481430 19.504745
1.288467 -1.441422 19.500504
