-4.077866 0.237717 1.421463
-4.077499 0.231400 1.422043
-4.076126 0.229599 1.429062
-4.073074 0.225693 1.435287
-4.075699 0.227432 1.432022
-4.077011 0.234238 1.436966
-4.079788 0.248642 1.422348
-4.079971 0.248642 1.433945
-4.077682 0.239090 1.427933
-4.077957 0.237717 1.432999
-4.075943 0.145737 1.477005
-4.082016 0.135818 1.444321
-4.078262 0.145798 1.443130
-4.073929 0.155533 1.441727
-4.080338 0.135757 1.455307
-4.079117 0.135696 1.466446
-4.077652 0.145798 1.454453
-4.076492 0.146866 1.456314
-4.075943 0.155594 1.453995
-4.075974 0.145737 1.465408
-4.074875 0.150711 1.462692
-4.074265 0.155533 1.464951
-4.075241 0.159927 1.443069
-4.074203 0.165543 1.441971
-4.072464 0.175827 1.441513
-4.071304 0.186539 1.441269
-4.071640 0.186569 1.452927
-4.073776 0.165512 1.453354
-4.073593 0.165512 1.457962
-4.073013 0.165482 1.464645
-4.073166 0.175858 1.453293
-4.070633 0.183121 1.454636
-4.071945 0.175827 1.464401
-4.070480 0.184738 1.466202
-4.070145 0.186508 1.463943
-4.074936 0.143448 1.477402
-4.073746 0.148911 1.481186
-4.077164 0.135635 1.488907
-4.074661 0.145676 1.488144
-4.072128 0.155441 1.487350
-4.073441 0.145645 1.499313
-4.072861 0.155472 1.499222
-4.072830 0.148727 1.498734
-4.072037 0.170853 1.472885
-4.072342 0.165451 1.475967
-4.071732 0.175797 1.475906
-4.070297 0.186508 1.475571
-4.070297 0.183365 1.479660
-4.072556 0.165451 1.487656
-4.071823 0.165421 1.498978
-4.070816 0.175766 1.487167
-4.070877 0.175308 1.487839
-4.070053 0.186478 1.487076
-4.070541 0.175735 1.498672
-4.068924 0.186447 1.498276
-4.068741 0.187607 1.474777
-4.071945 0.197220 1.441666
-4.071701 0.197220 1.453110
-4.072403 0.206223 1.439316
-4.071823 0.207474 1.441788
-4.073471 0.217575 1.442581
-4.071335 0.197189 1.464523
-4.071487 0.207443 1.453232
-4.072128 0.208603 1.454361
-4.073135 0.217545 1.453995
-4.072311 0.212357 1.453629
-4.071762 0.207474 1.464890
-4.072311 0.217484 1.465256
-4.074905 0.227402 1.443253
-4.076797 0.237656 1.444138
-4.078049 0.248520 1.444809
-4.077530 0.239151 1.452866
-4.076523 0.237045 1.451920
-4.074936 0.227402 1.454819
-4.075027 0.227402 1.466446
-4.079025 0.248581 1.456711
-4.077103 0.237656 1.455795
-4.076706 0.238327 1.467026
-4.076248 0.237625 1.467087
-4.077499 0.248489 1.467758
-4.070541 0.197159 1.475845
-4.070419 0.207382 1.475967
-4.071640 0.211319 1.469376
-4.073013 0.217545 1.477097
-4.071701 0.212753 1.478561
-4.070633 0.215439 1.484299
-4.069656 0.197098 1.487106
-4.068436 0.197037 1.498276
-4.069809 0.207352 1.487350
-4.071274 0.217453 1.488052
-4.070389 0.207382 1.499161
-4.070908 0.217422 1.499557
-4.070938 0.216415 1.499435
-4.073196 0.224808 1.471970
-4.072098 0.231186 1.473770
-4.073502 0.227310 1.477463
-4.076004 0.240311 1.477707
-4.075272 0.237564 1.478317
-4.076248 0.241013 1.481949
-4.076431 0.248428 1.478989
-4.072220 0.227249 1.488602
-4.075119 0.237534 1.489883
-4.077957 0.248520 1.491165
-4.076279 0.242630 1.496994
-4.256607 0.376755 1.378220
-4.414810 0.256454 1.354202
-4.393784 0.293106 1.290421
-4.425583 0.253952 1.255875
-4.418930 0.264359 1.250168
-4.388290 0.301102 1.259415
-4.389816 0.299576 1.274796
-4.396713 0.288681 1.305984
-4.406693 0.273056 1.353012
-4.417648 0.251419 1.330551
-4.416946 0.252823 1.341812
-4.404434 0.276138 1.337418
-4.401077 0.281418 1.321732
-4.413925 0.258133 1.365646
-4.410049 0.267868 1.368729
-4.339706 0.341080 1.349350
-4.358078 0.331528 1.288834
-4.355148 0.334427 1.258316
-4.357010 0.332138 1.273575
-4.327682 0.356155 1.257706
-4.330551 0.351822 1.273026
-4.360703 0.327682 1.304214
-4.331680 0.350998 1.288162
-4.334488 0.346817 1.303543
-4.308548 0.364548 1.287827
-4.305405 0.368027 1.257553
-4.307236 0.365707 1.272690
-4.286697 0.374863 1.287643
-4.309860 0.363388 1.302963
-4.288193 0.373245 1.302780
-4.341843 0.338272 1.364700
-4.363388 0.323746 1.319656
-4.365738 0.320511 1.335098
-4.334885 0.347519 1.318649
-4.336838 0.344986 1.333939
-4.313126 0.359695 1.333359
-4.368515 0.316360 1.350601
-4.370773 0.313278 1.366043
-4.315079 0.357193 1.348587
-4.317001 0.354752 1.363876
-4.275345 0.373520 1.357590
-4.311874 0.360764 1.318192
-4.290482 0.370071 1.317978
-4.291580 0.369370 1.333054
-4.274002 0.374496 1.332382
-4.293106 0.367661 1.348221
-4.293961 0.367477 1.363327
-4.273453 0.373825 1.363144
-4.272110 0.375046 1.348068
-4.266983 0.379593 1.281723
-4.284378 0.376663 1.257523
-4.285507 0.375809 1.272568
-4.264664 0.381302 1.256516
-4.264420 0.381943 1.257675
-4.265701 0.380722 1.272720
-4.267014 0.379532 1.287766
-4.268417 0.378189 1.302841
-4.270309 0.377182 1.307022
-4.250626 0.381607 1.302963
-4.255020 0.376968 1.348190
-4.269882 0.376633 1.317917
-4.252243 0.379745 1.318039
-4.270645 0.376511 1.332932
-4.253860 0.377853 1.333145
-4.256149 0.376144 1.363235
-4.402786 0.259109 1.477737
-4.383011 0.293076 1.413406
-4.412430 0.260757 1.377640
-4.378555 0.300583 1.397537
-4.387253 0.285934 1.429306
-4.393539 0.274765 1.445572
-4.396439 0.270401 1.461349
-4.364090 0.303513 1.474106
-4.373947 0.308395 1.381668
-4.326096 0.342209 1.425369
-4.344376 0.334610 1.380142
-4.346329 0.332169 1.395523
-4.318863 0.352524 1.379166
-4.321091 0.349442 1.394516
-4.348618 0.329056 1.410995
-4.350906 0.325851 1.426468
-4.323715 0.345566 1.409958
-4.278427 0.367996 1.408707
-4.296371 0.363968 1.378616
-4.282181 0.368607 1.383224
-4.297775 0.362595 1.393784
-4.275223 0.371567 1.378342
-4.276627 0.370193 1.393478
-4.299667 0.360245 1.409073
-4.286179 0.365677 1.408676
-4.301224 0.358566 1.424332
-4.293808 0.360214 1.434433
-4.259659 0.373489 1.408493
-4.279800 0.366684 1.423904
-4.261215 0.371689 1.423660
-4.368759 0.295547 1.490158
-4.332901 0.332809 1.471756
-4.354507 0.320023 1.442154
-4.357498 0.315445 1.457809
-4.328262 0.339310 1.440781
-4.330246 0.336716 1.456223
-4.335953 0.328140 1.487411
-4.266281 0.367264 1.484329
-4.302872 0.356644 1.439590
-4.304916 0.353989 1.454971
-4.294357 0.359756 1.459702
-4.281784 0.365677 1.454147
-4.280930 0.365829 1.439011
-4.262466 0.370651 1.438828
-4.263504 0.370041 1.453934
-4.306015 0.353195 1.470200
-4.283188 0.364273 1.469376
-4.308365 0.349960 1.485641
-4.296097 0.358475 1.485092
-4.285507 0.361008 1.484756
-4.286087 0.361282 1.499863
-4.264664 0.369095 1.469070
-4.266983 0.367355 1.499405
-4.257553 0.376266 1.393265
-4.227615 0.375229 1.438766
-4.191116 0.374924 1.349380
-4.125626 0.335068 1.301865
-4.126053 0.335098 1.256424
-4.126083 0.335098 1.279190
-4.172134 0.371628 1.260330
-4.159286 0.363663 1.253189
-4.159012 0.363663 1.261063
-4.170578 0.369980 1.259293
-4.174271 0.370316 1.271896
-4.173630 0.369919 1.275345
-4.159775 0.363602 1.276016
-4.159348 0.363602 1.278091
-4.149918 0.357651 1.252792
-4.151138 0.357742 1.264572
-4.146225 0.354446 1.261887
-4.139572 0.347702 1.252884
-4.137589 0.346359 1.260178
-4.135178 0.344650 1.262680
-4.151718 0.360001 1.254868
-4.151871 0.357803 1.276260
-4.147049 0.354294 1.276810
-4.137283 0.346359 1.271500
-4.139603 0.347641 1.277756
-4.135757 0.344955 1.277603
-4.125046 0.335220 1.308334
-4.174698 0.370346 1.283554
-4.174210 0.370255 1.290207
-4.176712 0.370529 1.295700
-4.160538 0.363510 1.290909
-4.186661 0.374802 1.303757
-4.174423 0.371353 1.305099
-4.176498 0.370499 1.307175
-4.160385 0.362808 1.303055
-4.161118 0.363785 1.305832
-4.153152 0.357925 1.288101
-4.147446 0.354996 1.291702
-4.136551 0.346268 1.282700
-4.136215 0.345566 1.292496
-4.136581 0.346268 1.294144
-4.152939 0.357895 1.299515
-4.153854 0.357986 1.311325
-4.148300 0.354660 1.306625
-4.139481 0.347733 1.302628
-4.138443 0.346451 1.306168
-4.137222 0.344864 1.307480
-4.154678 0.361588 1.300827
-4.189621 0.372635 1.353836
-4.188248 0.373672 1.328781
-4.190445 0.374802 1.334427
-4.192032 0.374527 1.364334
-4.126694 0.335129 1.348099
-4.126144 0.335098 1.313461
-4.125687 0.335373 1.323257
-4.125412 0.335037 1.324692
-4.125870 0.335068 1.336319
-4.126358 0.335556 1.338211
-4.178818 0.370712 1.319473
-4.175278 0.371048 1.319992
-4.161697 0.364090 1.320694
-4.160507 0.362686 1.327957
-4.179672 0.370773 1.331345
-4.176376 0.370285 1.334976
-4.179825 0.370804 1.343033
-4.162918 0.362961 1.335709
-4.140793 0.346725 1.327591
-4.153702 0.357956 1.322800
-4.149002 0.354691 1.321579
-4.137833 0.346390 1.317459
-4.137527 0.345810 1.322372
-4.153610 0.357956 1.334305
-4.149460 0.355301 1.336472
-4.138016 0.346390 1.329025
-4.137802 0.346786 1.337234
-4.137711 0.346359 1.340439
-4.127090 0.335464 1.353195
-4.126328 0.335098 1.359482
-4.127548 0.335190 1.371414
-4.127518 0.336166 1.368088
-4.177353 0.369675 1.349960
-4.183456 0.371109 1.355820
-4.161880 0.363297 1.347519
-4.163681 0.362930 1.350662
-4.162430 0.361252 1.353012
-4.178024 0.369827 1.364883
-4.184219 0.371170 1.367752
-4.164505 0.362717 1.365585
-4.155167 0.358078 1.346359
-4.150406 0.354904 1.351425
-4.140701 0.346786 1.352493
-4.155685 0.358139 1.358109
-4.137863 0.346390 1.352005
-4.138931 0.345901 1.352249
-4.150925 0.355301 1.366348
-4.156235 0.358170 1.369919
-4.139481 0.346512 1.364090
-4.139572 0.346115 1.367203
-4.085068 0.259384 1.344162
-4.067429 0.258286 1.281876
-4.066086 0.258194 1.258957
-4.083878 0.272079 1.252884
-4.076981 0.270096 1.252609
-4.063431 0.268143 1.258347
-4.077774 0.273697 1.258957
-4.062729 0.278885 1.258347
-4.067490 0.258286 1.270645
-4.086197 0.268417 1.268082
-4.063797 0.268173 1.269699
-4.062790 0.278885 1.269608
-4.071457 0.274246 1.277145
-4.095901 0.286972 1.252823
-4.104324 0.301010 1.250839
-4.107956 0.309738 1.252670
-4.094070 0.288773 1.266769
-4.097061 0.286057 1.277756
-4.104385 0.302444 1.265762
-4.104477 0.303848 1.280685
-4.107773 0.309830 1.277542
-4.090744 0.294724 1.251511
-4.062973 0.298782 1.270096
-4.066574 0.258224 1.292862
-4.081619 0.280533 1.282578
-4.081284 0.274490 1.296341
-4.066299 0.268326 1.281723
-4.064743 0.279007 1.281448
-4.068558 0.269516 1.290207
-4.064774 0.268234 1.292496
-4.063217 0.278915 1.292221
-4.083359 0.259293 1.309525
-4.079910 0.267868 1.302505
-4.084213 0.276321 1.297806
-4.082901 0.269424 1.309586
-4.077438 0.279892 1.308060
-4.096817 0.284134 1.281998
-4.104416 0.305649 1.295578
-4.096390 0.286758 1.296890
-4.096054 0.286789 1.302597
-4.095596 0.290176 1.311752
-4.106552 0.310684 1.302353
-4.104721 0.306595 1.310532
-4.068527 0.299179 1.283096
-4.085068 0.290726 1.310745
-4.060287 0.288956 1.291519
-4.061142 0.289017 1.258072
-4.060806 0.298599 1.258194
-4.061661 0.289047 1.269485
-4.059799 0.288925 1.280136
-4.116287 0.323898 1.287277
-4.117447 0.323990 1.253555
-4.112747 0.319992 1.264572
-4.109787 0.313004 1.262283
-4.116684 0.323929 1.264664
-4.109207 0.312943 1.250778
-4.121506 0.330582 1.252640
-4.123672 0.333481 1.263565
-4.109482 0.312973 1.273514
-4.113358 0.320206 1.279556
-4.117020 0.323959 1.276108
-4.124893 0.335007 1.267441
-4.124039 0.335098 1.275406
-4.122116 0.330093 1.277542
-4.124069 0.334152 1.278488
-4.109695 0.316269 1.295181
-4.113571 0.321365 1.294449
-4.108536 0.312881 1.284592
-4.108353 0.312881 1.295914
-4.124985 0.335007 1.290237
-4.124680 0.334427 1.293411
-4.116104 0.323868 1.298599
-4.116165 0.323868 1.310013
-4.114182 0.321548 1.309372
-4.108139 0.312851 1.307236
-4.121414 0.330612 1.302383
-4.123306 0.333786 1.311905
-4.085129 0.263901 1.352615
-4.085403 0.259415 1.321518
-4.085556 0.263596 1.327744
-4.088669 0.267715 1.313309
-4.088913 0.269821 1.322891
-4.092575 0.280930 1.324295
-4.086044 0.259445 1.333115
-4.088699 0.269333 1.328293
-4.088242 0.269791 1.334030
-4.092270 0.280899 1.335587
-4.089737 0.277786 1.335098
-4.089005 0.270309 1.343307
-4.084793 0.271194 1.338120
-4.095016 0.287521 1.327438
-4.096664 0.291550 1.325851
-4.096451 0.289932 1.326797
-4.096420 0.301224 1.314621
-4.100418 0.301529 1.327286
-4.107407 0.310013 1.327286
-4.105118 0.307266 1.325485
-4.096664 0.291550 1.337265
-4.096848 0.290665 1.341782
-4.100967 0.301559 1.338882
-4.105209 0.308701 1.340408
-4.084915 0.259384 1.355515
-4.088120 0.269760 1.345383
-4.092056 0.280869 1.346939
-4.087662 0.269730 1.356674
-4.088974 0.271988 1.358261
-4.091965 0.280869 1.358322
-4.083755 0.259323 1.366562
-4.082565 0.251236 1.374954
-4.087082 0.269699 1.367905
-4.091782 0.280869 1.369705
-4.086868 0.275375 1.370956
-4.088669 0.274338 1.373184
-4.096512 0.291519 1.348648
-4.094376 0.287979 1.352280
-4.096695 0.292587 1.356674
-4.101974 0.301620 1.350662
-4.107010 0.310318 1.352127
-4.105667 0.309280 1.355392
-4.094925 0.291428 1.359543
-4.097153 0.293198 1.371689
-4.095840 0.291489 1.371323
-4.100845 0.301559 1.361740
-4.100449 0.301529 1.373093
-4.106308 0.309525 1.370346
-4.115860 0.323837 1.344284
-4.115982 0.323868 1.321396
-4.114517 0.322525 1.324326
-4.107712 0.312820 1.318497
-4.120956 0.330917 1.327225
-4.115219 0.323807 1.332596
-4.112320 0.317886 1.340988
-4.114731 0.323593 1.339218
-4.107529 0.312820 1.329849
-4.106827 0.312759 1.341080
-4.115768 0.322891 1.354233
-4.117020 0.323929 1.356155
-4.107132 0.312790 1.352615
-4.120773 0.331497 1.347977
-4.121170 0.330704 1.352127
-4.115860 0.324326 1.369125
-4.116074 0.323868 1.367325
-4.107529 0.312820 1.364243
-4.206070 0.376755 1.349014
-4.217178 0.381882 1.288620
-4.247238 0.384079 1.257950
-4.230118 0.384995 1.258286
-4.248428 0.383163 1.272964
-4.230911 0.384872 1.273209
-4.216843 0.383774 1.254745
-4.214951 0.383621 1.258713
-4.203598 0.383438 1.257980
-4.199570 0.381302 1.259171
-4.213486 0.384323 1.272537
-4.215836 0.383194 1.273636
-4.217636 0.383194 1.279770
-4.200424 0.381058 1.274094
-4.249649 0.382126 1.287979
-4.232437 0.383194 1.288223
-4.233475 0.382523 1.303238
-4.221359 0.380478 1.304977
-4.204666 0.383530 1.281448
-4.202011 0.379227 1.289108
-4.187759 0.375931 1.289597
-4.218246 0.381210 1.303604
-4.202957 0.378708 1.304062
-4.188614 0.375595 1.304550
-4.185410 0.375809 1.253799
-4.186203 0.376114 1.259781
-4.186844 0.376328 1.274643
-4.184982 0.376083 1.278702
-4.206741 0.376816 1.363937
-4.234421 0.382095 1.318192
-4.219040 0.381058 1.318558
-4.235367 0.381638 1.333206
-4.221878 0.380081 1.330032
-4.220078 0.380417 1.333542
-4.203781 0.378586 1.318985
-4.189407 0.375443 1.319443
-4.204788 0.377914 1.333969
-4.236801 0.380142 1.348251
-4.221329 0.379257 1.348587
-4.222672 0.379471 1.355087
-4.237900 0.379349 1.363297
-4.222153 0.379135 1.363541
-4.213913 0.372482 1.469162
-4.196426 0.372269 1.406937
-4.189621 0.372604 1.378799
-4.193497 0.372879 1.379379
-4.187973 0.371506 1.380661
-4.194229 0.372910 1.394363
-4.188675 0.371567 1.392624
-4.190964 0.371597 1.403885
-4.195206 0.372452 1.409348
-4.190903 0.371780 1.416855
-4.210587 0.374863 1.423965
-4.196304 0.371567 1.424393
-4.193863 0.372025 1.429642
-4.191757 0.370987 1.428940
-4.129013 0.337631 1.412918
-4.126755 0.335129 1.382706
-4.128036 0.336624 1.383011
-4.126572 0.335129 1.394241
-4.128433 0.337296 1.397964
-4.127792 0.335220 1.406235
-4.158005 0.358322 1.382126
-4.179306 0.368668 1.379898
-4.165390 0.362350 1.380569
-4.163010 0.360825 1.377975
-4.157822 0.358322 1.393692
-4.158768 0.358383 1.405685
-4.173447 0.365005 1.395004
-4.179672 0.369431 1.394791
-4.166061 0.362442 1.395523
-4.163223 0.360641 1.402939
-4.140854 0.346603 1.377426
-4.151993 0.354477 1.381332
-4.139816 0.346542 1.375778
-4.139694 0.347427 1.382065
-4.139023 0.346481 1.387100
-4.152237 0.355606 1.396255
-4.140396 0.347427 1.397049
-4.140152 0.346573 1.399094
-4.140366 0.346970 1.402298
-4.128036 0.335251 1.417923
-4.127487 0.335190 1.429398
-4.129684 0.337723 1.427902
-4.159561 0.358444 1.417648
-4.180740 0.368668 1.409836
-4.166611 0.362869 1.410446
-4.158829 0.358383 1.429123
-4.181870 0.367783 1.424881
-4.167526 0.362442 1.425461
-4.163712 0.360245 1.427933
-4.141129 0.347427 1.412003
-4.152847 0.355850 1.411179
-4.139847 0.346542 1.410629
-4.140732 0.346603 1.422592
-4.141830 0.347519 1.426956
-4.153580 0.355789 1.426163
-4.140823 0.346634 1.434311
-4.140610 0.346756 1.427231
-4.214767 0.372177 1.484207
-4.243881 0.374405 1.438675
-4.245621 0.372330 1.453873
-4.230759 0.373520 1.455887
-4.229141 0.373642 1.453934
-4.211960 0.373550 1.439072
-4.197464 0.370682 1.439438
-4.193283 0.371994 1.441269
-4.213272 0.372269 1.454147
-4.199722 0.372543 1.455338
-4.197739 0.371689 1.454361
-4.193893 0.369431 1.454086
-4.199844 0.372543 1.467239
-4.246597 0.371841 1.468979
-4.247726 0.370987 1.484085
-4.230331 0.372574 1.469009
-4.232803 0.372025 1.481125
-4.231277 0.372177 1.484085
-4.247818 0.372360 1.499039
-4.232437 0.371292 1.499222
-4.199295 0.369888 1.469498
-4.195938 0.367874 1.479263
-4.216232 0.370651 1.499374
-4.200180 0.369522 1.484573
-4.193039 0.368484 1.489670
-4.201675 0.367905 1.499710
-4.131302 0.338974 1.472794
-4.126053 0.335068 1.440536
-4.130325 0.337936 1.442886
-4.127518 0.335190 1.452744
-4.130386 0.339401 1.457748
-4.127975 0.335220 1.464615
-4.160324 0.358536 1.441360
-4.160202 0.358505 1.453079
-4.180832 0.366684 1.441910
-4.182816 0.367264 1.439865
-4.168167 0.362656 1.440414
-4.164597 0.359543 1.452957
-4.163223 0.358780 1.465897
-4.183578 0.367264 1.454849
-4.168991 0.362381 1.455429
-4.142563 0.347488 1.441940
-4.154373 0.355637 1.441147
-4.139877 0.346542 1.445663
-4.139664 0.347427 1.452072
-4.142807 0.348557 1.456863
-4.140732 0.346603 1.457687
-4.154953 0.355972 1.456100
-4.129288 0.335342 1.476791
-4.130173 0.335403 1.488846
-4.132248 0.338486 1.487839
-4.165268 0.358932 1.478439
-4.184158 0.367569 1.469833
-4.169937 0.361954 1.470413
-4.164566 0.359543 1.477921
-4.167007 0.359085 1.490891
-4.156754 0.355270 1.486130
-4.185165 0.366898 1.484879
-4.171066 0.361008 1.485519
-4.143723 0.348099 1.471878
-4.141891 0.346573 1.469833
-4.156113 0.354996 1.471176
-4.141708 0.345871 1.477188
-4.143265 0.346695 1.482071
-4.144333 0.348343 1.486862
-4.142715 0.346634 1.493668
-4.080338 0.258957 1.469009
-4.082108 0.259201 1.411880
-4.084915 0.264023 1.377518
-4.083817 0.259323 1.378036
-4.081955 0.254288 1.389877
-4.082993 0.259262 1.389206
-4.087051 0.269699 1.379349
-4.091263 0.280807 1.380997
-4.086319 0.269638 1.390549
-4.085922 0.272812 1.383682
-4.089035 0.275162 1.388229
-4.081741 0.256424 1.404831
-4.082809 0.259232 1.400620
-4.084579 0.264267 1.402420
-4.090622 0.280777 1.392258
-4.085190 0.269577 1.401657
-4.090591 0.280777 1.403763
-4.088760 0.277420 1.403122
-4.094009 0.288223 1.377151
-4.095230 0.291428 1.382584
-4.096603 0.296127 1.386520
-4.106613 0.310562 1.376999
-4.099625 0.301468 1.384323
-4.106430 0.310898 1.385269
-4.095352 0.291428 1.394119
-4.097427 0.295883 1.401566
-4.094009 0.291336 1.405197
-4.100113 0.301498 1.395981
-4.107010 0.311203 1.400253
-4.106186 0.310837 1.401871
-4.092545 0.289291 1.401962
-4.081406 0.258865 1.419785
-4.086288 0.269638 1.413528
-4.086197 0.274033 1.407425
-4.089432 0.280685 1.414871
-4.088730 0.279221 1.418076
-4.081863 0.259171 1.423294
-4.084000 0.264664 1.427322
-4.082260 0.258652 1.434921
-4.081284 0.259140 1.434647
-4.085556 0.269608 1.424820
-4.088303 0.280624 1.426041
-4.085251 0.274368 1.429001
-4.085159 0.269577 1.436234
-4.088821 0.280594 1.433029
-4.099625 0.301468 1.407364
-4.097275 0.297897 1.416458
-4.098923 0.301407 1.418655
-4.094162 0.291367 1.428329
-4.106247 0.310776 1.426773
-4.099503 0.301437 1.430435
-4.097946 0.297989 1.431503
-4.093674 0.291306 1.416611
-4.093155 0.288803 1.426926
-4.116776 0.323929 1.413803
-4.116806 0.323929 1.379105
-4.112473 0.319443 1.386490
-4.116196 0.325211 1.384079
-4.107773 0.312820 1.375809
-4.107346 0.312790 1.387192
-4.121506 0.330399 1.377060
-4.121567 0.330917 1.384903
-4.117020 0.323929 1.390732
-4.117294 0.323959 1.402390
-4.117111 0.324722 1.399063
-4.107651 0.312820 1.398819
-4.121902 0.330124 1.401962
-4.117752 0.324936 1.414078
-4.107803 0.312820 1.410446
-4.106888 0.313095 1.415146
-4.107071 0.312759 1.421768
-4.121811 0.330093 1.421799
-4.117386 0.323959 1.425613
-4.118088 0.325790 1.429001
-4.112991 0.321060 1.432053
-4.115585 0.323807 1.436600
-4.107620 0.313126 1.430161
-4.106979 0.312759 1.433334
-4.122360 0.329758 1.426926
-4.083664 0.264847 1.477188
-4.081619 0.259171 1.446304
-4.082840 0.265518 1.452164
-4.081924 0.260971 1.449875
-4.084213 0.272079 1.443588
-4.088852 0.280655 1.437790
-4.084366 0.269516 1.447495
-4.088455 0.280624 1.449203
-4.081009 0.259109 1.457657
-4.082016 0.262436 1.464859
-4.084671 0.269547 1.459213
-4.088547 0.280624 1.460861
-4.098068 0.301346 1.441513
-4.098282 0.298843 1.446487
-4.098007 0.301315 1.453110
-4.105789 0.311081 1.451675
-4.098862 0.299210 1.461533
-4.099045 0.301407 1.465103
-4.092941 0.291275 1.439468
-4.088638 0.282669 1.447983
-4.092789 0.289047 1.451797
-4.092789 0.291245 1.451004
-4.089462 0.282486 1.463058
-4.093002 0.291275 1.462692
-4.082260 0.263565 1.479904
-4.079941 0.258926 1.480484
-4.084091 0.269485 1.470596
-4.087692 0.280563 1.472153
-4.084396 0.275986 1.474319
-4.082047 0.270004 1.479721
-4.085007 0.269547 1.482559
-4.087296 0.280533 1.483658
-4.082687 0.264267 1.494980
-4.080978 0.258987 1.492477
-4.084641 0.269516 1.494064
-4.089828 0.280716 1.496231
-4.098984 0.300491 1.476456
-4.099960 0.301468 1.477097
-4.106491 0.310532 1.476639
-4.094620 0.291367 1.486557
-4.095169 0.291428 1.498459
-4.100662 0.301529 1.488998
-4.100418 0.298935 1.491684
-4.093338 0.291275 1.474442
-4.093185 0.288742 1.476761
-4.089767 0.283401 1.478104
-4.090652 0.283005 1.493210
-4.117905 0.323990 1.472427
-4.118454 0.326584 1.443954
-4.116959 0.323929 1.448715
-4.106857 0.312759 1.444901
-4.107864 0.314163 1.445114
-4.121811 0.330093 1.451797
-4.118576 0.327469 1.457779
-4.118790 0.327469 1.458878
-4.115463 0.323807 1.459854
-4.106339 0.312698 1.456345
-4.108322 0.314774 1.460098
-4.107285 0.312790 1.468338
-4.119797 0.326859 1.473953
-4.119492 0.322708 1.478683
-4.109207 0.314377 1.475143
-4.109207 0.312912 1.480698
-4.121780 0.330093 1.476700
-4.110062 0.314041 1.490219
-4.118607 0.324051 1.484390
-4.120834 0.326065 1.489059
-4.121353 0.327896 1.495377
-4.118546 0.324051 1.496078
-4.108780 0.312881 1.492264
-4.209579 0.375473 1.408920
-4.241379 0.376602 1.408493
-4.239365 0.377731 1.378372
-4.223160 0.378494 1.378555
-4.224960 0.377792 1.380295
-4.240494 0.376968 1.393448
-4.224716 0.376755 1.393661
-4.226791 0.376450 1.405472
-4.207657 0.376480 1.378922
-4.208786 0.375595 1.393967
-4.225784 0.375992 1.408707
-4.242630 0.375534 1.423569
-4.226761 0.375473 1.423721
-4.228531 0.375137 1.430649
-4.060562 0.135056 1.718796
-4.398087 0.126511 1.726181
-4.375931 0.061935 1.594528
-4.375137 0.061874 1.540390
-4.375168 0.061111 1.507767
-4.375687 0.060593 1.518173
-4.375320 0.061325 1.529312
-4.375839 0.061081 1.550674
-4.375870 0.061264 1.561600
-4.385941 0.076889 1.532333
-4.381485 0.067917 1.508591
-4.386002 0.076309 1.510544
-4.390976 0.084152 1.501419
-4.395462 0.093582 1.503769
-4.390671 0.084854 1.512497
-4.381271 0.068497 1.519638
-4.386093 0.076370 1.521286
-4.381027 0.069077 1.530685
-4.390335 0.085587 1.523666
-4.408218 0.122086 1.500381
-4.407913 0.122787 1.511520
-4.407669 0.123398 1.522659
-4.399521 0.102951 1.506271
-4.395187 0.094254 1.514877
-4.404587 0.111832 1.508255
-4.399704 0.102921 1.516953
-4.394669 0.095230 1.526169
-4.399277 0.103806 1.528214
-4.403763 0.113327 1.519852
-4.403580 0.113846 1.530930
-4.381546 0.068588 1.541153
-4.385727 0.077408 1.543411
-4.390091 0.086166 1.534744
-4.389969 0.086624 1.545822
-4.381210 0.069351 1.552383
-4.385544 0.077927 1.554520
-4.389786 0.087143 1.556931
-4.394730 0.095413 1.537064
-4.398758 0.104813 1.539566
-4.403366 0.114426 1.542038
-4.394363 0.096176 1.548294
-4.398239 0.106094 1.551102
-4.394119 0.096848 1.559525
-4.397995 0.106644 1.562271
-4.402603 0.115829 1.553665
-4.375931 0.062180 1.605576
-4.375992 0.061356 1.572464
-4.375809 0.061874 1.583633
-4.376144 0.062088 1.616470
-4.380234 0.071762 1.597183
-4.380753 0.070206 1.563705
-4.381058 0.070023 1.574417
-4.385239 0.078659 1.565720
-4.389725 0.087479 1.567947
-4.385086 0.079117 1.576859
-4.380692 0.070816 1.585770
-4.389572 0.087936 1.579056
-4.385513 0.078751 1.587509
-4.388779 0.089401 1.590836
-4.393814 0.097549 1.570755
-4.397659 0.107437 1.573593
-4.402206 0.116714 1.565048
-4.401413 0.118088 1.576767
-4.393417 0.098373 1.582138
-4.397171 0.108414 1.585068
-4.393814 0.098007 1.592819
-4.401535 0.118149 1.587723
-4.380478 0.071609 1.608047
-4.384537 0.080612 1.599503
-4.388962 0.089371 1.601761
-4.381516 0.070328 1.618210
-4.384933 0.080246 1.610214
-4.388962 0.089584 1.612839
-4.384567 0.081070 1.621689
-4.388748 0.090164 1.624161
-4.397354 0.108383 1.595993
-4.393753 0.098404 1.603989
-4.397476 0.108475 1.607010
-4.400955 0.119339 1.599350
-4.393326 0.099289 1.615494
-4.397385 0.108841 1.618210
-4.400955 0.119553 1.610458
-4.400803 0.120071 1.621780
-4.334396 0.014725 1.598953
-4.333664 0.014359 1.533981
-4.346329 0.026413 1.502762
-4.346451 0.026535 1.513474
-4.346451 0.026749 1.524277
-4.332870 0.014694 1.502182
-4.333725 0.013779 1.512283
-4.319443 0.003891 1.501968
-4.326340 0.009232 1.501968
-4.320084 0.003281 1.512253
-4.326736 0.008987 1.512497
-4.340500 0.019821 1.501938
-4.340256 0.020370 1.512894
-4.333603 0.014206 1.523209
-4.326767 0.009140 1.523270
-4.319351 0.004532 1.523666
-4.340561 0.020187 1.523483
-4.364243 0.046341 1.505234
-4.352982 0.032303 1.503098
-4.358444 0.039749 1.504349
-4.352463 0.033310 1.514328
-4.358780 0.039536 1.514908
-4.369644 0.053513 1.506424
-4.364395 0.046341 1.515915
-4.364517 0.046432 1.526657
-4.353165 0.032547 1.524582
-4.358994 0.039474 1.525558
-4.369949 0.053299 1.516983
-4.370224 0.053116 1.527603
-4.347153 0.025986 1.534531
-4.347275 0.026047 1.545303
-4.347244 0.026382 1.556229
-4.334183 0.013870 1.544418
-4.320236 0.003555 1.533768
-4.327133 0.008865 1.533798
-4.319656 0.004593 1.545120
-4.327194 0.009048 1.544632
-4.341202 0.019516 1.533768
-4.340866 0.020187 1.544907
-4.334122 0.014206 1.555374
-4.320602 0.003464 1.555191
-4.327408 0.008987 1.555344
-4.341263 0.019913 1.555466
-4.364670 0.046463 1.537369
-4.359879 0.038712 1.546555
-4.353561 0.032242 1.535080
-4.358963 0.039719 1.536423
-4.353195 0.033005 1.546280
-4.370193 0.053391 1.538467
-4.364548 0.046829 1.548355
-4.359604 0.039261 1.557663
-4.365219 0.046158 1.558762
-4.353226 0.033188 1.557175
-4.369766 0.054306 1.549759
-4.369675 0.054642 1.560776
-4.312149 0.000046 1.524063
-4.328354 0.008621 1.598373
-4.347733 0.025864 1.566727
-4.347855 0.025986 1.577591
-4.347672 0.026443 1.588730
-4.334488 0.013870 1.565964
-4.334335 0.014328 1.577042
-4.320816 0.003464 1.565964
-4.327225 0.009445 1.566360
-4.320969 0.003494 1.576767
-4.328049 0.008530 1.576645
-4.341385 0.020004 1.566330
-4.341507 0.020004 1.577133
-4.334396 0.014481 1.587936
-4.328140 0.008652 1.587540
-4.321213 0.003433 1.587540
-4.341293 0.020615 1.588333
-4.360062 0.038864 1.568222
-4.365158 0.046494 1.569748
-4.353897 0.032516 1.567520
-4.370438 0.053787 1.571060
-4.365097 0.046768 1.580734
-4.359665 0.039688 1.579544
-4.359512 0.040176 1.590683
-4.353989 0.032608 1.578384
-4.353928 0.032944 1.589462
-4.370407 0.054092 1.582077
-4.370865 0.053635 1.592667
-4.365158 0.046921 1.591660
-4.348007 0.026199 1.599442
-4.348038 0.026443 1.610458
-4.348434 0.026138 1.621170
-4.320816 0.004166 1.598862
-4.321579 0.003372 1.609268
-4.341995 0.019852 1.598709
-4.334885 0.014328 1.609573
-4.328140 0.009140 1.609573
-4.335342 0.013931 1.620255
-4.328629 0.008682 1.620193
-4.321945 0.003067 1.619980
-4.341385 0.020950 1.610275
-4.342239 0.019974 1.620590
-4.359634 0.040237 1.601547
-4.353897 0.033218 1.600479
-4.371353 0.053207 1.603287
-4.365280 0.047043 1.602615
-4.360367 0.039413 1.611984
-4.366165 0.046188 1.623978
-4.360153 0.039963 1.623276
-4.354630 0.032394 1.610855
-4.354355 0.033035 1.622177
-4.371353 0.053421 1.614334
-4.365219 0.047379 1.613754
-4.404099 0.130600 1.603012
-4.406021 0.126633 1.556961
-4.411362 0.133194 1.503799
-4.410812 0.134293 1.515182
-4.413712 0.145157 1.507706
-4.409775 0.136093 1.526962
-4.413223 0.146164 1.519058
-4.412216 0.147995 1.530899
-4.416885 0.156693 1.500412
-4.415482 0.159164 1.512589
-4.417801 0.171921 1.505997
-4.418076 0.187332 1.500870
-4.414688 0.160599 1.524216
-4.416672 0.173935 1.517899
-4.415176 0.176529 1.530197
-4.406754 0.125046 1.534378
-4.409683 0.136520 1.538040
-4.406662 0.125443 1.545425
-4.412460 0.147842 1.541672
-4.409134 0.137589 1.549515
-4.407913 0.139694 1.561569
-4.411758 0.149155 1.553299
-4.414780 0.160751 1.535141
-4.414352 0.161667 1.546555
-4.414566 0.177689 1.541763
-4.412979 0.164017 1.558792
-4.414200 0.178543 1.553177
-4.413712 0.194901 1.537674
-4.417160 0.189041 1.512650
-4.413071 0.212051 1.500595
-4.411209 0.215195 1.513199
-4.415787 0.191422 1.524857
-4.408890 0.219040 1.526230
-4.403305 0.244217 1.504227
-4.412521 0.197067 1.549820
-4.411880 0.198288 1.561478
-4.406540 0.223007 1.539383
-4.404770 0.226059 1.552109
-4.403915 0.131271 1.614395
-4.408066 0.139694 1.572525
-4.410202 0.151779 1.565689
-4.409531 0.153091 1.577408
-4.407150 0.141373 1.584396
-4.409622 0.153214 1.588455
-4.405136 0.128250 1.568802
-4.404892 0.128860 1.580063
-4.404434 0.129837 1.591568
-4.411270 0.166946 1.571396
-4.412277 0.181747 1.565964
-4.411240 0.183640 1.577988
-4.410538 0.168320 1.583176
-4.409378 0.186813 1.590836
-4.406998 0.141861 1.595688
-4.408432 0.155289 1.600662
-4.406357 0.143112 1.607407
-4.408005 0.156235 1.612259
-4.406052 0.143845 1.618881
-4.409653 0.169968 1.595108
-4.409042 0.171127 1.606857
-4.407791 0.156784 1.623672
-4.407974 0.173080 1.619064
-4.400284 0.217178 1.605453
-4.407486 0.205368 1.576523
-4.403671 0.211594 1.591110
-4.399857 0.234024 1.567551
-4.399490 0.234879 1.579147
-4.395950 0.240677 1.593521
-4.407120 0.190567 1.604080
-4.406204 0.192245 1.616135
-4.396927 0.222641 1.619766
-4.380234 0.074509 1.720627
-4.376572 0.062454 1.660660
-4.380417 0.073013 1.663895
-4.375839 0.062820 1.627823
-4.380997 0.071365 1.629807
-4.376053 0.062759 1.638779
-4.384628 0.081253 1.632767
-4.389297 0.089615 1.634811
-4.380997 0.071640 1.641006
-4.376083 0.062973 1.649918
-4.380539 0.072525 1.652542
-4.384598 0.081528 1.643936
-4.389023 0.090256 1.646255
-4.384689 0.081650 1.655075
-4.393661 0.099045 1.626358
-4.397415 0.109024 1.629349
-4.393509 0.099503 1.637650
-4.400528 0.120773 1.633255
-4.393143 0.100296 1.649216
-4.397141 0.109726 1.640793
-4.400467 0.121048 1.644485
-4.396622 0.110733 1.652481
-4.388962 0.090591 1.657547
-4.384354 0.082382 1.666611
-4.389084 0.090683 1.668686
-4.376022 0.063583 1.672409
-4.380569 0.072983 1.674973
-4.376114 0.063705 1.683609
-4.380569 0.073227 1.686264
-4.384659 0.082169 1.677597
-4.388687 0.091537 1.680313
-4.393021 0.100784 1.660538
-4.399368 0.122971 1.656754
-4.396072 0.111862 1.664291
-4.399124 0.123581 1.668259
-4.392563 0.101669 1.672226
-4.392685 0.101730 1.683395
-4.395950 0.112259 1.675644
-4.395676 0.112961 1.687271
-4.375595 0.065414 1.729416
-4.376053 0.063980 1.694931
-4.380630 0.073380 1.697525
-4.384384 0.082870 1.689163
-4.388626 0.091873 1.691696
-4.384445 0.083023 1.700424
-4.376083 0.064194 1.706223
-4.380386 0.074051 1.709091
-4.375992 0.064621 1.717667
-4.388443 0.092422 1.703201
-4.384628 0.082993 1.711624
-4.388748 0.092239 1.714310
-4.392349 0.102493 1.695053
-4.395401 0.113663 1.698868
-4.392288 0.102859 1.706497
-4.392288 0.103104 1.717880
-4.395340 0.113998 1.710312
-4.380325 0.074661 1.731949
-4.384567 0.083328 1.723038
-4.388687 0.092545 1.725754
-4.375168 0.066330 1.741257
-4.380325 0.074875 1.743332
-4.384476 0.083755 1.734573
-4.388229 0.093491 1.737625
-4.384293 0.084305 1.746231
-4.391983 0.103867 1.729599
-4.395432 0.114120 1.721634
-4.394730 0.115433 1.733780
-4.391953 0.104141 1.741074
-4.387955 0.094162 1.749374
-4.394852 0.115494 1.745132
-4.335983 0.015244 1.720505
-4.335648 0.014450 1.664474
-4.348953 0.025650 1.631821
-4.349014 0.025803 1.642868
-4.348526 0.026718 1.654465
-4.335953 0.013290 1.630783
-4.328842 0.008652 1.631088
-4.322098 0.003098 1.630905
-4.342300 0.020187 1.631638
-4.336014 0.013443 1.641830
-4.329117 0.008530 1.641983
-4.335922 0.013870 1.653091
-4.328964 0.008987 1.653275
-4.322189 0.003250 1.641953
-4.322159 0.003525 1.653122
-4.342819 0.019638 1.642258
-4.342453 0.020401 1.653763
-4.366196 0.046432 1.635086
-4.360458 0.039780 1.634109
-4.354416 0.033218 1.633255
-4.370956 0.054306 1.625809
-4.370956 0.054520 1.636948
-4.360367 0.040146 1.645309
-4.354782 0.032944 1.644028
-4.354782 0.033188 1.655197
-4.365921 0.047073 1.646439
-4.370956 0.054794 1.648117
-4.348160 0.027542 1.666000
-4.347916 0.028122 1.677414
-4.329208 0.008865 1.664200
-4.322372 0.003494 1.664108
-4.342575 0.020523 1.664841
-4.335648 0.014755 1.675705
-4.328873 0.009598 1.675674
-4.335861 0.014633 1.686722
-4.329483 0.008987 1.686386
-4.322037 0.004196 1.675613
-4.322311 0.004105 1.686630
-4.342331 0.021103 1.676254
-4.359818 0.041214 1.656967
-4.359848 0.041367 1.668106
-4.354507 0.033798 1.666611
-4.366165 0.046982 1.657394
-4.370773 0.055283 1.659439
-4.366196 0.047226 1.668594
-4.370560 0.055893 1.670883
-4.360031 0.041428 1.679214
-4.354294 0.034348 1.678024
-4.365433 0.048508 1.680496
-4.371048 0.055405 1.681686
-4.329575 0.009598 1.720139
-4.347946 0.028275 1.688614
-4.348221 0.028152 1.699631
-4.347977 0.028763 1.711197
-4.335373 0.015579 1.698441
-4.329056 0.009872 1.698044
-4.322861 0.003555 1.697342
-4.342270 0.021439 1.687546
-4.342331 0.021591 1.698746
-4.335770 0.015305 1.709396
-4.329483 0.009506 1.708908
-4.322678 0.004013 1.708817
-4.342117 0.022141 1.710220
-4.360306 0.041245 1.690201
-4.360001 0.041977 1.701797
-4.353897 0.035172 1.689651
-4.354080 0.035172 1.700760
-4.365677 0.048447 1.691574
-4.370834 0.055923 1.693130
-4.365585 0.048813 1.702957
-4.359818 0.042435 1.713272
-4.354263 0.035172 1.711899
-4.371078 0.055862 1.704239
-4.365311 0.049454 1.714523
-4.370773 0.056564 1.715836
-4.348312 0.028519 1.722214
-4.348404 0.028671 1.733505
-4.348007 0.029495 1.745285
-4.329453 0.010025 1.731613
-4.322525 0.004471 1.720261
-4.322983 0.004105 1.731216
-4.342697 0.021561 1.721054
-4.342270 0.022446 1.732803
-4.335831 0.015671 1.732010
-4.329178 0.010635 1.743271
-4.322861 0.004532 1.742722
-4.342239 0.022690 1.744217
-4.335739 0.016098 1.743454
-4.359848 0.042679 1.724625
-4.354477 0.035110 1.723068
-4.365982 0.048752 1.725266
-4.370529 0.057144 1.727432
-4.360092 0.042618 1.735794
-4.360092 0.042801 1.747147
-4.354446 0.035385 1.734451
-4.354019 0.036301 1.746292
-4.365280 0.050034 1.737350
-4.370529 0.057449 1.738876
-4.365280 0.050278 1.748734
-4.399399 0.140518 1.720474
-4.402054 0.135208 1.661026
-4.404251 0.131088 1.625320
-4.403458 0.132553 1.637222
-4.406021 0.144119 1.630112
-4.402725 0.133896 1.649124
-4.405014 0.145950 1.642288
-4.404953 0.146286 1.653610
-4.407059 0.158188 1.635544
-4.406967 0.174881 1.631241
-4.407028 0.158493 1.646866
-4.406082 0.176437 1.643295
-4.405319 0.177933 1.655380
-4.403366 0.148941 1.666367
-4.401505 0.136307 1.672897
-4.397934 0.125656 1.680710
-4.400833 0.137558 1.684860
-4.402908 0.149887 1.678146
-4.405655 0.160873 1.659439
-4.403183 0.181503 1.668716
-4.404068 0.163559 1.672287
-4.402878 0.165634 1.684769
-4.403305 0.181564 1.680038
-4.397476 0.206772 1.669540
-4.403915 0.196030 1.629501
-4.401749 0.199692 1.642838
-4.399551 0.203354 1.656235
-4.394455 0.226791 1.633377
-4.391342 0.231949 1.647598
-4.395645 0.209946 1.682724
-4.390366 0.233658 1.659927
-4.383713 0.247726 1.665207
-4.384750 0.242752 1.676620
-4.400650 0.154434 1.726059
-4.398422 0.125168 1.691605
-4.400650 0.138107 1.696426
-4.402023 0.151505 1.690353
-4.401779 0.152176 1.702042
-4.397781 0.126450 1.703598
-4.400040 0.139297 1.708389
-4.397964 0.126419 1.714828
-4.401474 0.152908 1.713791
-4.401688 0.167740 1.697342
-4.400314 0.186447 1.694260
-4.400742 0.169449 1.709702
-4.399399 0.140732 1.731918
-4.396835 0.128647 1.738876
-4.399796 0.155960 1.738388
-4.398758 0.142044 1.744095
-4.399796 0.156235 1.749954
-4.400253 0.170486 1.721664
-4.399307 0.172195 1.734116
-4.397903 0.174637 1.747025
-4.396164 0.193375 1.721237
-4.391891 0.216049 1.697739
-4.397934 0.190353 1.707993
-4.389236 0.220383 1.711807
-4.393906 0.197128 1.734970
-4.392105 0.200150 1.748306
-4.386307 0.225235 1.726181
-4.384598 0.228165 1.739456
-4.061844 0.126663 1.733047
-4.150101 0.002579 1.598007
-4.143784 0.012589 1.536057
-4.163132 0.002579 1.507645
-4.161423 0.002579 1.518845
-4.158981 0.002579 1.529831
-4.150253 0.012619 1.502975
-4.149460 0.012619 1.514511
-4.147049 0.012833 1.512253
-4.143204 0.017502 1.504105
-4.138138 0.022842 1.510361
-4.150345 0.008774 1.520737
-4.154037 0.004288 1.529007
-4.147812 0.012619 1.525711
-4.136490 0.022842 1.521561
-4.128494 0.033310 1.506882
-4.125900 0.033279 1.517715
-4.125839 0.033279 1.529465
-4.157272 0.002579 1.541061
-4.156784 0.001480 1.560074
-4.154312 0.004196 1.539871
-4.142807 0.012100 1.539505
-4.135635 0.022842 1.533066
-4.135727 0.020676 1.532028
-4.134598 0.022812 1.544510
-4.155380 0.003036 1.550064
-4.156204 0.002579 1.552567
-4.144211 0.012589 1.548080
-4.141617 0.012589 1.558975
-4.132828 0.022812 1.555710
-4.144058 0.004166 1.609299
-4.155563 0.002579 1.564224
-4.153580 0.002579 1.575424
-4.141617 0.012589 1.570877
-4.134476 0.019089 1.568405
-4.131821 0.022812 1.567184
-4.151291 0.002579 1.586502
-4.140457 0.012589 1.582352
-4.138992 0.013718 1.584518
-4.138229 0.012558 1.593430
-4.129562 0.022781 1.578201
-4.129959 0.021530 1.586685
-4.128647 0.022781 1.589767
-4.146347 0.002548 1.608536
-4.135239 0.014969 1.593796
-4.137497 0.012558 1.605087
-4.138046 0.011642 1.602829
-4.128098 0.022781 1.601456
-4.133194 0.017532 1.604752
-4.145462 0.002548 1.620193
-4.134079 0.012558 1.615738
-4.136703 0.006149 1.617538
-4.126663 0.022781 1.612869
-4.123795 0.022751 1.623703
-4.116623 0.044449 1.537857
-4.121170 0.044510 1.504257
-4.118027 0.044449 1.514847
-4.113052 0.054367 1.501328
-4.110977 0.054337 1.512283
-4.107254 0.061020 1.511734
-4.117691 0.044449 1.526474
-4.110245 0.054306 1.523758
-4.124405 0.033249 1.540726
-4.115768 0.038498 1.541611
-4.114639 0.049362 1.531326
-4.108261 0.054306 1.534775
-4.106308 0.056595 1.531540
-4.107315 0.054276 1.546188
-4.123520 0.033249 1.552231
-4.114731 0.044418 1.548935
-4.113815 0.041275 1.554276
-4.118637 0.035355 1.561813
-4.113907 0.044418 1.560440
-4.106216 0.054276 1.557571
-4.090866 0.084793 1.540207
-4.104691 0.064560 1.510025
-4.100235 0.074539 1.508469
-4.094406 0.084854 1.506393
-4.103989 0.064560 1.521500
-4.098587 0.074509 1.519547
-4.097763 0.074509 1.530960
-4.095688 0.077621 1.530991
-4.093796 0.084854 1.517838
-4.091446 0.084793 1.528702
-4.089096 0.095413 1.504532
-4.085220 0.105087 1.503189
-4.083755 0.105057 1.514297
-4.082504 0.114365 1.502274
-4.079666 0.124802 1.501328
-4.080795 0.113602 1.508682
-4.082718 0.110855 1.508347
-4.081345 0.114334 1.513504
-4.078598 0.124771 1.512589
-4.087753 0.095383 1.515701
-4.086746 0.095352 1.527023
-4.083084 0.100876 1.525894
-4.082748 0.105026 1.525620
-4.080154 0.114304 1.524734
-4.077774 0.122452 1.523392
-4.077225 0.124741 1.523758
-4.102493 0.064529 1.532669
-4.102921 0.064316 1.536667
-4.101425 0.064499 1.544052
-4.096970 0.074478 1.542435
-4.095901 0.074448 1.553787
-4.099503 0.064468 1.555099
-4.099106 0.067276 1.561630
-4.089798 0.084763 1.551559
-4.085037 0.095322 1.538101
-4.081711 0.104996 1.536942
-4.078598 0.110641 1.531693
-4.079819 0.113052 1.533249
-4.078659 0.114273 1.535873
-4.076370 0.124710 1.535141
-4.074570 0.124649 1.546158
-4.084885 0.095322 1.549789
-4.080460 0.104965 1.548203
-4.084366 0.095291 1.561325
-4.080307 0.104935 1.559860
-4.076920 0.114212 1.546951
-4.076706 0.115402 1.558182
-4.076950 0.114212 1.558701
-4.073380 0.124619 1.557419
-4.119370 0.033218 1.598099
-4.123917 0.029037 1.580154
-4.121567 0.033218 1.563309
-4.121140 0.032333 1.571060
-4.121078 0.033218 1.574997
-4.112778 0.044388 1.571854
-4.111710 0.046982 1.567154
-4.104904 0.054245 1.568893
-4.101334 0.058212 1.576248
-4.111984 0.044388 1.583420
-4.119736 0.033218 1.586349
-4.104385 0.054245 1.580521
-4.102921 0.054214 1.591812
-4.111710 0.044388 1.595200
-4.117477 0.033188 1.609299
-4.110306 0.044357 1.606522
-4.108871 0.044662 1.603073
-4.102188 0.054214 1.603409
-4.116318 0.033188 1.620773
-4.108780 0.044357 1.617844
-4.102707 0.054214 1.615494
-4.096451 0.059830 1.621017
-4.091904 0.074387 1.599503
-4.100357 0.064499 1.567215
-4.095078 0.074448 1.565262
-4.094467 0.074417 1.576828
-4.098373 0.064468 1.578262
-4.095352 0.070084 1.586594
-4.098190 0.064438 1.590042
-4.092606 0.075180 1.566788
-4.088974 0.084732 1.563004
-4.090256 0.084763 1.575302
-4.093582 0.074417 1.588303
-4.088425 0.084732 1.586411
-4.083206 0.095261 1.572678
-4.078323 0.104904 1.570877
-4.078995 0.102493 1.570694
-4.076614 0.108719 1.567825
-4.074783 0.114151 1.569626
-4.073349 0.124619 1.569168
-4.082321 0.095261 1.584122
-4.079483 0.104935 1.583115
-4.075119 0.114151 1.581528
-4.075058 0.116684 1.583237
-4.072678 0.124588 1.580673
-4.075058 0.114151 1.593277
-4.071945 0.124557 1.592178
-4.097549 0.064438 1.601639
-4.095566 0.064407 1.612747
-4.095383 0.064407 1.624588
-4.091629 0.073746 1.603195
-4.087875 0.084702 1.598007
-4.086441 0.084671 1.609299
-4.092239 0.074387 1.611526
-4.092941 0.071945 1.611649
-4.090683 0.074356 1.622787
-4.085739 0.084671 1.620895
-4.081589 0.095230 1.595657
-4.078751 0.104904 1.594650
-4.081375 0.095230 1.607407
-4.076370 0.107620 1.604385
-4.076401 0.104843 1.605545
-4.073654 0.114120 1.604538
-4.071182 0.124557 1.603714
-4.071823 0.119095 1.608109
-4.080582 0.095200 1.618942
-4.075607 0.104813 1.617081
-4.073257 0.104080 1.615250
-4.073227 0.114090 1.616226
-4.068863 0.116592 1.617050
-4.070480 0.124527 1.615250
-4.068222 0.135330 1.602676
-4.074295 0.132462 1.537949
-4.076675 0.135605 1.500381
-4.075516 0.135574 1.511581
-4.072159 0.150101 1.506149
-4.072922 0.145615 1.510757
-4.071335 0.155411 1.510300
-4.074051 0.135544 1.522720
-4.071274 0.145035 1.522232
-4.072586 0.145584 1.522293
-4.070999 0.155411 1.521835
-4.069870 0.151810 1.531082
-4.070847 0.165390 1.510269
-4.069870 0.179428 1.502823
-4.068436 0.182755 1.502274
-4.069717 0.183731 1.504654
-4.069870 0.175705 1.510056
-4.069565 0.186478 1.510117
-4.070969 0.165390 1.521957
-4.070084 0.175735 1.521805
-4.069595 0.181747 1.517929
-4.068558 0.186417 1.521408
-4.068802 0.184433 1.529617
-4.072830 0.135483 1.533951
-4.071976 0.135452 1.545303
-4.071548 0.145554 1.533585
-4.069412 0.146072 1.534409
-4.070816 0.155380 1.533432
-4.069748 0.145493 1.544601
-4.069382 0.155350 1.544601
-4.071701 0.135452 1.556931
-4.069870 0.144577 1.552231
-4.069504 0.145493 1.556229
-4.068466 0.155289 1.555954
-4.067886 0.153336 1.555984
-4.070114 0.165359 1.533340
-4.069534 0.165329 1.544815
-4.068405 0.175644 1.532852
-4.068344 0.186386 1.532822
-4.069321 0.186447 1.533371
-4.067154 0.181137 1.538589
-4.069290 0.175674 1.544876
-4.067795 0.186386 1.544479
-4.068436 0.165268 1.556107
-4.067581 0.185318 1.554581
-4.068680 0.175674 1.556351
-4.067642 0.186356 1.556137
-4.068344 0.197037 1.533188
-4.068771 0.197067 1.510025
-4.071091 0.213211 1.503525
-4.069412 0.207352 1.510452
-4.070877 0.217422 1.511185
-4.070724 0.218613 1.514450
-4.069626 0.189194 1.520370
-4.068253 0.197037 1.521469
-4.069351 0.207321 1.522079
-4.070236 0.217392 1.522598
-4.070297 0.213760 1.528458
-4.070084 0.222275 1.507797
-4.073166 0.227280 1.500565
-4.072281 0.227249 1.511917
-4.075790 0.240463 1.502670
-4.073990 0.237473 1.501114
-4.076553 0.248428 1.502274
-4.074905 0.237534 1.513077
-4.076248 0.248398 1.513840
-4.076126 0.244675 1.511978
-4.071121 0.232773 1.519058
-4.070999 0.227158 1.523087
-4.070755 0.220230 1.529587
-4.073898 0.237473 1.524399
-4.075333 0.240768 1.527603
-4.076370 0.248398 1.525558
-4.076065 0.246475 1.526993
-4.068802 0.197067 1.545059
-4.068893 0.207321 1.533585
-4.071182 0.217422 1.534653
-4.068283 0.207291 1.545059
-4.069260 0.217331 1.545639
-4.067551 0.189987 1.547806
-4.067123 0.196976 1.556137
-4.069412 0.214401 1.553391
-4.067856 0.207260 1.556625
-4.067612 0.217239 1.556717
-4.072037 0.227219 1.535172
-4.070419 0.222702 1.544601
-4.068069 0.219833 1.543900
-4.070786 0.227158 1.546402
-4.073410 0.237442 1.535904
-4.076828 0.248428 1.537430
-4.076614 0.246933 1.542160
-4.069962 0.225479 1.559555
-4.070236 0.227127 1.557938
-4.073380 0.237442 1.547623
-4.075455 0.240616 1.552628
-4.075180 0.248337 1.548538
-4.072556 0.237381 1.559036
-4.076218 0.249496 1.557114
-4.075577 0.248367 1.560440
-4.066971 0.145401 1.602310
-4.070389 0.135391 1.568161
-4.070877 0.146622 1.567642
-4.068558 0.145462 1.567612
-4.066696 0.155228 1.567032
-4.068130 0.150497 1.567093
-4.069016 0.144913 1.570969
-4.068863 0.135361 1.579330
-4.068985 0.135361 1.591171
-4.067673 0.145401 1.579025
-4.066483 0.155228 1.578690
-4.066116 0.154617 1.580948
-4.067612 0.145401 1.590775
-4.066116 0.155197 1.590317
-4.066757 0.165207 1.567184
-4.066513 0.175552 1.567276
-4.066879 0.186325 1.567581
-4.066086 0.179642 1.574997
-4.066269 0.156540 1.581894
-4.067459 0.165237 1.579239
-4.067032 0.165207 1.590836
-4.067154 0.175583 1.579269
-4.066025 0.186295 1.579025
-4.065842 0.186630 1.579483
-4.066788 0.175583 1.590927
-4.065842 0.186295 1.590744
-4.065994 0.142471 1.606857
-4.065567 0.155197 1.601913
-4.065231 0.155289 1.605972
-4.067184 0.135300 1.614090
-4.065109 0.148239 1.612198
-4.066177 0.145370 1.613815
-4.064133 0.155136 1.613144
-4.063492 0.155106 1.624741
-4.065598 0.159897 1.596970
-4.065353 0.165146 1.601974
-4.065842 0.175522 1.602341
-4.065384 0.186264 1.602341
-4.064713 0.187454 1.604416
-4.064957 0.163132 1.612045
-4.064926 0.165146 1.613632
-4.065262 0.178268 1.611496
-4.064133 0.175461 1.613480
-4.064316 0.186203 1.613754
-4.066086 0.196915 1.602829
-4.067368 0.192123 1.562912
-4.066238 0.190750 1.565262
-4.067032 0.196976 1.567856
-4.066544 0.195786 1.577896
-4.067856 0.207260 1.568344
-4.068649 0.217300 1.568863
-4.066360 0.196945 1.579330
-4.066452 0.197739 1.593002
-4.065994 0.196915 1.590988
-4.067337 0.207230 1.579910
-4.068619 0.214951 1.578354
-4.068314 0.217270 1.580490
-4.066910 0.218246 1.580307
-4.065781 0.207138 1.591110
-4.067398 0.217209 1.591934
-4.071732 0.227188 1.570267
-4.069992 0.234329 1.564407
-4.070175 0.226639 1.574692
-4.072006 0.237350 1.570572
-4.073410 0.242142 1.577408
-4.075363 0.248337 1.572128
-4.070206 0.227127 1.581436
-4.070694 0.227127 1.589859
-4.070480 0.227127 1.593338
-4.072617 0.237381 1.582596
-4.075882 0.248367 1.584122
-4.065536 0.201523 1.607895
-4.066055 0.207169 1.603012
-4.067795 0.215591 1.603317
-4.067856 0.217239 1.603928
-4.063950 0.192337 1.610367
-4.065750 0.196915 1.614517
-4.066269 0.207169 1.614944
-4.067245 0.217209 1.615524
-4.066940 0.217270 1.617142
-4.065048 0.204361 1.622910
-4.070358 0.229630 1.604874
-4.069351 0.227066 1.604721
-4.071701 0.237320 1.594040
-4.075821 0.248367 1.595901
-4.073380 0.242142 1.602432
-4.070175 0.237259 1.605270
-4.075027 0.248306 1.607437
-4.069412 0.227066 1.616592
-4.070847 0.230179 1.620071
-4.069046 0.235916 1.609756
-4.071793 0.237350 1.617783
-4.074997 0.248306 1.619278
-4.133224 0.002548 1.724136
-4.128952 0.012527 1.661758
-4.144455 0.002548 1.631790
-4.131363 0.015366 1.628891
-4.132523 0.012558 1.627121
-4.128952 0.014542 1.640335
-4.131851 0.012527 1.638870
-4.143509 0.002548 1.643478
-4.141495 0.002548 1.654739
-4.130508 0.010910 1.642410
-4.132004 0.012527 1.650955
-4.139359 0.002548 1.665939
-4.128372 0.012527 1.667648
-4.138596 0.002548 1.677750
-4.128464 0.012527 1.673660
-4.129196 0.013687 1.677170
-4.127396 0.012527 1.685287
-4.125137 0.014114 1.686691
-4.132492 0.002548 1.736038
-4.137131 0.002548 1.689255
-4.129379 0.008957 1.694687
-4.135635 0.002548 1.700790
-4.133713 0.003677 1.702591
-4.125565 0.012527 1.696671
-4.134781 0.002548 1.712601
-4.136581 0.000229 1.711685
-4.125656 0.011032 1.712997
-4.130508 0.002548 1.747421
-4.123337 0.012497 1.720016
-4.120346 0.022720 1.658340
-4.122299 0.022751 1.635086
-4.122269 0.022751 1.647079
-4.112595 0.033157 1.631271
-4.107956 0.044327 1.629471
-4.105606 0.044327 1.640488
-4.104996 0.041824 1.638718
-4.098801 0.054153 1.625870
-4.096664 0.054123 1.636948
-4.113602 0.033157 1.643631
-4.110397 0.031998 1.652878
-4.110550 0.033127 1.654404
-4.104050 0.044296 1.651840
-4.097000 0.054123 1.649033
-4.113571 0.028183 1.661758
-4.119125 0.022720 1.669876
-4.115646 0.025742 1.671524
