7.845169 1.846085 27.767960
7.778763 1.904404 27.781448
7.814407 1.920517 27.850784
7.959030 1.930008 27.849777
7.961258 1.957291 27.856857
7.962112 1.943008 27.842697
7.926254 1.868973 27.945236
7.835037 1.944321 27.876328
7.934799 1.882156 27.928940
7.976608 1.916214 27.952286
7.670700 2.013535 26.982101
7.789597 2.089401 27.693130
7.735092 2.049240 27.716568
1.988297 1.654495 29.642044
3.129135 0.637589 28.976639
3.627823 0.874313 28.597855
3.559097 0.876877 28.651749
2.982956 1.472000 28.566605
2.890549 1.432388 28.639908
2.383621 1.642990 28.968857
2.466812 1.720474 28.625748
2.381119 1.650436 28.990768
2.296921 1.643326 28.997086
2.304733 1.631790 28.993576
2.300247 1.637314 28.988937
2.638779 1.817154 28.896591
2.818100 1.506393 28.558548
2.767044 1.660995 28.651505
2.805801 1.602280 28.820724
2.915237 1.736038 28.815506
2.659958 1.822556 28.957077
3.299088 1.469315 28.263474
3.693344 1.346115 28.452255
3.197128 1.821732 28.414841
3.145340 1.800186 28.483963
3.989212 1.865494 28.328415
3.936234 1.639023 28.239761
3.920242 1.941544 28.019272
3.977554 1.540695 28.250809
3.907516 1.524490 28.260452
3.910507 1.514786 28.255508
3.929825 1.540207 28.348068
3.966660 1.605392 28.341537
3.938156 1.652176 28.285141
3.925919 1.681808 28.287033
3.931961 1.661057 28.270126
3.922501 1.703751 28.323746
3.971725 1.521652 28.392838
3.942917 1.568039 28.401138
3.967575 1.515671 28.482285
3.907425 1.580643 28.471420
3.854935 1.644302 28.446121
3.906876 1.631393 28.444412
3.911270 1.998001 28.373764
3.796402 1.988937 28.385605
3.934250 1.910172 28.395187
3.901108 1.996750 28.380875
3.455368 1.308487 28.880753
3.019302 1.101974 28.954117
3.415176 1.343155 28.966537
3.969681 1.492111 28.896225
3.685867 1.417191 28.581833
3.632187 1.386124 28.669754
3.743881 1.456863 28.632797
3.759384 1.411148 28.742874
3.704025 1.362137 28.780319
3.648544 1.342575 28.844864
3.586258 1.320206 28.889938
3.517471 1.323898 28.943008
3.380478 1.818832 28.867630
3.250290 1.580063 28.824203
3.253098 1.571426 28.814285
3.322891 1.740494 28.872116
3.442612 1.661118 28.800583
3.427475 1.661057 28.803207
3.437180 1.728867 28.832352
3.442947 1.792648 28.883987
3.431595 1.789505 28.910294
3.455490 1.931900 28.913864
3.461075 1.993668 28.981766
3.772324 1.763443 28.508194
3.717941 1.514114 28.735458
3.675735 1.519211 28.700394
3.667221 1.585129 28.739212
2.619217 0.747726 29.787796
2.976761 0.660568 29.728378
2.989731 0.655411 29.744522
3.357407 0.156601 29.264206
3.594131 0.100998 29.272690
3.594528 0.791489 29.355576
3.993790 0.581314 29.089981
3.617599 0.970505 29.340714
3.654160 0.919052 29.452499
3.758286 0.077438 29.981369
3.592117 0.401016 29.558701
3.005173 0.658188 29.718338
2.802750 1.398361 29.122452
2.806229 1.390732 29.119705
2.436630 1.837570 29.061539
2.217178 1.534164 29.009018
2.190994 1.542557 29.022141
2.179306 1.559341 29.024063
2.342728 1.624619 29.045364
2.300919 1.594955 29.024734
2.474564 1.671036 29.031448
2.435623 1.660324 29.029190
2.373520 1.756119 29.113541
2.470993 1.922287 29.107773
2.384781 1.826370 29.130600
2.450790 1.952408 29.165482
2.790878 1.984787 29.298233
2.639145 1.669815 29.153976
2.235794 1.457870 29.734543
2.993881 1.815933 29.976608
3.283096 1.049667 29.276932
3.216751 1.019485 29.295853
3.178238 1.459854 29.137039
3.096634 1.477982 29.136948
3.146347 1.023514 29.373459
3.117508 1.101822 29.354599
3.142288 1.039597 29.383926
3.800888 1.450455 29.445541
3.891373 1.052536 29.177383
3.817093 1.031265 29.223648
3.556686 1.166275 29.257492
3.570541 1.151443 29.324600
3.710770 1.437668 29.347031
3.713608 1.438889 29.380539
3.247269 1.917862 29.320511
3.763443 1.772110 29.031265
3.744522 1.682877 29.172806
3.755997 1.780167 29.008286
3.764114 1.760330 29.000565
3.087051 1.026993 29.712204
3.726944 1.080246 29.982315
3.473740 1.998703 29.981644
3.863388 1.794937 29.730515
3.655746 1.604294 29.522537
3.531021 1.628128 29.558365
3.733322 1.991623 29.530716
3.663345 1.990097 29.625656
2.647690 2.048904 28.436356
2.293655 2.343369 28.801254
2.402267 2.278671 28.700943
2.458694 2.107925 28.751724
2.358963 2.121353 28.799423
2.441574 2.181839 28.797470
2.468948 2.226974 28.865982
2.455765 2.237015 28.839676
2.461105 2.230545 28.836258
2.460403 2.188034 28.852463
2.479263 2.362961 28.933395
2.912613 2.373367 28.793015
2.672470 2.053177 28.537491
2.739243 2.034073 28.613632
2.595444 2.190872 28.647751
2.540146 2.212723 28.724167
2.846664 2.077316 28.620132
2.812851 2.159500 28.618851
2.783371 2.032944 28.656113
2.855209 2.069412 28.657578
2.825912 2.108109 28.703415
2.880112 2.126755 28.724197
2.864639 2.280746 28.705154
2.566605 2.204819 28.783035
2.801254 2.161545 28.823532
2.588943 2.299576 28.789047
2.535080 2.263077 28.864395
2.594009 2.255844 28.883865
2.701218 2.292435 28.923355
2.647812 2.472885 28.952042
2.889053 2.334763 28.798233
2.899765 2.339127 28.750137
2.925095 2.400650 28.791885
2.758102 2.301620 28.958145
2.833267 2.379715 28.921677
2.480087 2.509964 28.974075
2.913498 2.852646 28.779648
2.717392 2.621902 28.957626
2.962021 2.592697 28.938736
2.988998 2.654373 28.933304
2.738235 2.787582 28.946854
3.754776 2.481216 28.458694
3.740952 2.286118 28.339218
3.747421 2.175125 28.352524
3.699265 2.229416 28.363846
3.746353 2.234970 28.408676
3.725784 2.224411 28.384323
3.771713 2.024094 28.350113
3.821091 2.079269 28.366959
3.818405 2.111801 28.415756
3.810196 2.119949 28.394913
3.818954 2.099594 28.380508
3.858719 2.066025 28.387863
3.817917 2.133835 28.407761
3.792557 2.159409 28.420792
3.806168 2.130264 28.404709
3.801773 2.140213 28.411331
3.787735 2.170059 28.427811
3.827774 2.136642 28.388443
3.751663 2.225357 28.406296
3.778671 2.209335 28.377487
3.789017 2.201828 28.428360
3.947647 2.199875 28.451767
3.704086 2.345718 28.425400
3.695206 2.348953 28.404312
3.713516 2.348648 28.402237
3.567490 2.401443 28.423904
3.624741 2.382431 28.444626
3.668198 2.419815 28.410934
3.677841 2.390274 28.420853
3.635056 2.489761 28.428329
3.644028 2.489273 28.428543
3.471024 2.528244 28.404770
3.651016 2.623032 28.483994
3.633347 2.623062 28.491226
3.584763 2.544815 28.476456
3.546799 2.546249 28.487381
3.620773 2.558548 28.449081
3.580032 2.625900 28.495865
3.000107 2.290421 28.926315
3.716812 2.267868 28.837326
3.749039 2.147964 28.616776
3.739548 2.154861 28.585159
3.740799 2.167648 28.634689
3.973679 2.169266 28.856949
3.963455 2.151566 28.860001
3.928879 2.095718 28.998032
3.930191 2.085159 28.973221
3.917526 2.180374 28.943008
3.875259 2.230728 28.992020
3.931107 2.195816 28.956863
3.722031 2.258896 28.835922
3.614609 2.416000 28.889084
3.499222 2.510422 28.885300
3.205032 2.733749 28.528549
3.383408 2.603622 28.543716
3.220413 2.774460 28.640152
3.121811 2.786026 28.688126
3.495651 2.761673 28.602005
3.494034 2.830734 28.620956
3.459518 2.822586 28.717575
3.002548 2.640213 28.938858
3.547287 2.757980 28.593491
3.628494 2.580826 28.519211
3.570786 2.621597 28.534256
3.562424 2.624466 28.516769
2.467545 2.473465 29.047531
2.450943 2.467880 29.057236
2.478683 2.459793 29.032822
2.476547 2.469864 29.079178
2.508347 2.414474 29.030746
2.469711 2.509659 29.002121
2.898270 2.600296 29.266861
2.714279 2.724319 29.024857
2.722366 2.739059 29.017349
2.937485 2.886917 29.007675
2.433640 2.264145 29.684464
2.777512 2.377182 29.753860
2.715714 2.178238 29.527420
2.632828 2.276443 29.678391
2.645004 2.279312 29.633743
2.645401 2.351761 29.666092
2.234482 2.527939 29.520737
2.908646 2.809891 29.800858
2.983841 2.703690 29.693985
2.961838 2.802109 29.504288
2.774734 2.879654 29.626755
2.834152 2.508926 29.798874
2.868973 2.510452 29.798721
2.854385 2.582596 29.780563
3.663589 2.497635 29.269424
3.877762 2.213852 29.357559
3.728500 2.184952 29.054031
3.928329 2.108109 29.033035
3.928207 2.121262 29.072769
3.966843 2.185135 29.051712
3.951553 2.162674 29.059677
3.950027 2.130051 29.023239
3.889450 2.244766 29.011673
3.988266 2.195450 29.055099
3.884750 2.166061 29.122910
3.922958 2.130844 29.072464
3.919022 2.141647 29.083572
3.942398 2.179123 29.065720
3.891251 2.203140 29.120316
3.943863 2.191299 29.070694
3.837845 2.237411 29.179306
3.874161 2.224594 29.158401
3.873032 2.244217 29.150375
3.851669 2.192795 29.230392
3.877365 2.234238 29.142166
3.882584 2.197250 29.149918
3.678604 2.399124 29.170364
3.566147 2.490707 29.191788
3.735916 2.458206 29.173080
3.704514 2.404709 29.222610
3.712418 2.381912 29.213333
3.743637 2.386215 29.241653
3.655350 2.477127 29.245010
3.696426 2.488510 29.243088
3.717148 2.453018 29.216537
3.726639 2.455460 29.195999
3.994614 2.258194 29.061661
3.839066 2.276047 29.075455
3.826767 2.261032 29.064865
3.956284 2.252090 29.095383
3.936264 2.253311 29.082626
3.975601 2.251297 29.105972
3.965836 2.256332 29.067184
3.946274 2.254135 29.078629
3.985458 2.254501 29.085434
3.959152 2.283005 29.077560
3.857590 2.310471 29.184250
3.775711 2.292923 29.125900
3.767929 2.274338 29.140182
3.785843 2.309158 29.125900
3.857620 2.275314 29.165817
3.869370 2.254959 29.164841
3.863083 2.264816 29.161850
3.867599 2.253677 29.173172
3.789047 2.334366 29.178726
3.814651 2.339371 29.159775
3.866989 2.313187 29.164749
3.857712 2.312027 29.211136
3.866745 2.284866 29.203751
3.945511 2.310776 29.129288
3.886703 2.312057 29.174759
3.876633 2.312851 29.168106
3.915573 2.315994 29.149582
3.925583 2.317368 29.141251
3.896317 2.313553 29.164932
3.905716 2.314774 29.157303
3.983292 2.311203 29.199600
3.992447 2.312210 29.195053
3.973587 2.308395 29.217758
3.762039 2.387344 29.156509
3.809738 2.385117 29.168655
3.771774 2.388748 29.144821
3.791397 2.383987 29.178268
3.800766 2.384018 29.177383
3.840561 2.180191 29.251755
3.837845 2.220840 29.305679
3.793625 2.190262 29.258713
3.848007 2.221359 29.302292
3.828629 2.205734 29.250046
3.821548 2.201065 29.296982
3.860855 2.173538 29.344437
3.855301 2.182846 29.342758
3.824234 2.228683 29.315506
3.858139 2.218643 29.322006
3.849167 2.123917 29.435226
3.859390 2.097244 29.432175
3.806900 2.043808 29.473923
3.791275 2.022476 29.461502
3.761185 2.117081 29.484085
3.798935 2.071762 29.483566
3.837997 2.120407 29.499161
3.841080 2.086502 29.451920
3.845291 2.076584 29.445114
3.850479 2.066452 29.443436
3.834213 2.095413 29.440079
3.848343 2.124283 29.472031
3.864120 2.156509 29.389328
3.772720 2.156723 29.432297
3.782059 2.174301 29.425064
3.767075 2.137283 29.457718
3.858719 2.125443 29.464279
3.400528 2.823349 29.368851
3.291122 2.552383 29.308884
3.310654 2.731064 29.321701
3.406845 2.630264 29.255569
3.327591 2.711105 29.428543
3.324966 2.722397 29.463577
3.237839 2.754532 29.319931
3.106033 2.773758 29.447922
3.175858 2.751083 29.433548
3.216599 2.828781 29.407486
3.392471 2.825180 29.362564
3.260239 2.781754 29.345322
3.453293 2.783585 29.376694
3.408768 2.821274 29.377396
3.383774 2.889236 29.451675
3.671005 2.520523 29.255295
3.676865 2.610550 29.130783
3.570694 2.515060 29.172867
3.597183 2.608383 29.182724
3.616379 2.529953 29.230789
3.561142 2.603958 29.237961
3.569717 2.603592 29.235611
3.578568 2.601425 29.247635
3.587601 2.602127 29.237076
3.664322 2.526505 29.225571
3.684799 2.515030 29.245438
3.673264 2.527328 29.216110
3.566269 2.670547 29.284134
3.557846 2.671158 29.284439
3.548843 2.670120 29.298660
3.484573 2.069107 29.928360
3.481155 2.047379 29.971817
3.839920 2.366318 29.858017
3.716721 2.031296 29.560349
3.743362 2.048691 29.549728
3.721603 2.021683 29.558151
3.727036 2.012833 29.561935
3.731339 2.002609 29.554581
3.689926 2.026566 29.622604
3.713394 2.041763 29.574997
3.686264 2.096573 29.589462
3.674850 2.080429 29.586868
3.696671 2.111588 29.591049
3.577377 2.040451 29.657211
3.623245 2.015762 29.630783
3.601334 2.029526 29.648575
3.601425 2.059250 29.704239
3.614029 2.073837 29.714249
3.643234 2.039322 29.669327
3.640305 2.049576 29.686722
3.651871 2.019974 29.656143
3.655960 2.010269 29.648239
3.660324 2.000534 29.642197
3.648178 2.030075 29.667923
3.678635 2.053879 29.665695
3.686386 2.097092 29.682053
3.671219 2.087692 29.655380
3.705948 2.098373 29.668503
3.639267 2.060745 29.719528
3.654037 2.092728 29.722061
3.664932 2.096451 29.692490
3.675217 2.094803 29.701187
3.786972 2.045151 29.508926
3.792068 2.035141 29.507156
3.767258 2.112076 29.561569
3.755936 2.096970 29.512985
3.798416 2.119034 29.509933
3.808029 2.117386 29.520950
3.818192 2.113876 29.545273
3.828110 2.120224 29.500504
3.756790 2.109268 29.582779
3.777634 2.107834 29.590439
3.717484 2.458084 29.739059
3.726883 2.456558 29.748978
3.857559 2.333633 29.552200
3.852402 2.253433 29.578629
3.828537 2.327499 29.597458
3.847733 2.328751 29.588089
3.837906 2.327805 29.594925
3.944534 2.322006 29.650284
3.772049 2.392685 29.664780
3.762344 2.394180 29.654648
3.643692 2.084091 29.786057
3.566849 2.055618 29.796799
3.570847 2.046127 29.787766
3.571823 2.039047 29.803726
3.544022 2.074417 29.792740
3.539658 2.053940 29.828629
3.556137 2.085159 29.837448
3.522202 2.018570 29.890335
3.536514 2.095810 29.963455
3.499954 2.552475 29.822189
3.237228 2.703140 29.528336
3.079056 2.682846 29.582413
3.191666 2.761185 29.546127
3.225815 2.758621 29.515976
3.391464 2.882401 29.501114
3.396866 2.636063 29.916916
3.819595 2.777267 29.879593
3.641312 2.594833 29.854019
3.649918 2.591293 29.878952
3.632004 2.590591 29.892258
3.654800 2.608109 29.952835
3.592300 2.665787 29.905197
2.947678 0.336685 30.461075
2.980698 0.413773 30.486343
2.945938 0.470901 30.483414
2.797318 0.969131 30.301041
2.527786 0.930832 30.410141
2.478073 0.940842 30.895096
2.826828 0.608109 30.524460
2.670639 0.556320 30.541306
2.591476 0.589828 30.544662
2.577927 0.574570 30.553177
2.599747 0.694504 30.531967
3.021713 0.345047 30.433243
3.114090 0.468246 30.453995
3.388443 0.173935 30.014603
3.846451 0.370377 30.051987
3.214767 0.598068 30.402786
3.837601 0.844894 30.114029
3.989914 0.728867 30.230728
3.756058 0.876236 30.147690
3.979080 0.992691 30.798050
3.964462 0.680374 30.908646
3.729599 0.751907 30.974930
3.728409 0.770950 30.996536
3.721298 0.778854 30.952835
3.926712 0.894821 30.863876
3.843307 0.886673 30.830643
3.868942 0.830978 30.931473
3.800919 0.795456 30.971664
3.800278 0.785751 30.951035
3.815262 0.827347 30.960434
2.988174 1.509384 30.407425
2.936447 1.937607 30.214828
2.678848 1.589981 30.399673
2.783676 1.777023 30.705734
3.392014 1.363632 30.394485
3.960007 1.345230 30.184158
3.731369 1.266220 30.197159
3.802994 1.365677 30.172287
3.460953 1.863785 30.353622
3.406265 1.866806 30.054947
3.257187 1.655136 30.375839
3.406754 1.997757 30.265701
3.342270 1.976578 30.339798
3.508560 1.810776 30.329086
3.461288 1.350998 30.891464
3.815414 1.368515 30.975388
3.990891 1.112106 30.687241
3.982376 1.000595 30.864059
3.862503 1.118179 30.815781
3.921280 1.149582 30.780228
3.778061 1.155411 30.881546
3.740219 1.382797 30.909348
3.607498 1.459396 30.936813
3.602646 1.456314 30.946976
3.834183 1.363815 30.939102
3.171585 1.878189 30.770737
3.214920 1.973099 30.710281
3.267715 1.994431 30.533340
3.173111 1.915665 30.816086
3.180069 1.908707 30.835831
3.122208 1.874039 30.930069
3.125443 1.865311 30.915543
3.852982 1.802017 30.786819
3.606735 1.538651 30.915024
3.537003 1.530502 30.993210
3.610062 1.605118 30.986435
3.636185 1.683517 30.972977
3.867569 1.784897 30.830429
2.590652 0.793228 31.048569
2.699753 0.829300 31.611069
3.328812 0.011429 31.428391
3.271561 0.048782 31.048080
3.768448 0.362045 31.340164
3.653549 0.398453 31.216751
3.661942 0.389938 31.279892
3.538651 0.839432 31.032852
3.664017 0.719345 31.043869
3.885391 0.253860 31.693802
3.667801 0.210800 31.504318
3.955551 0.091446 31.556717
3.868881 0.011093 31.599747
3.986984 0.034256 31.605576
3.916000 0.161789 31.550919
3.410416 0.630753 31.902145
3.880203 0.770370 31.625809
3.993240 0.625473 31.649002
2.563553 1.348526 31.347733
2.731400 1.484787 31.108994
2.493027 1.748337 31.093460
2.678085 1.422134 31.964737
2.345779 1.785812 31.763199
2.403244 1.966232 31.789932
2.307297 1.980972 31.774673
2.389145 1.955338 31.769455
2.418015 1.976517 31.815384
2.640305 1.882889 31.765366
2.751144 1.651962 31.713333
2.712784 1.870560 31.680710
2.740524 1.894974 31.712479
2.894394 1.767075 31.530045
2.838821 1.791855 31.617020
2.955246 1.816727 31.593369
2.874985 1.758347 31.663498
2.807663 1.862869 31.673508
2.752762 1.906845 31.723312
2.695602 1.683487 31.801773
2.569107 1.918777 31.777451
2.500351 1.952988 31.805832
3.827286 1.422134 31.127975
3.740799 1.460678 31.050186
3.329178 1.756424 31.294479
3.109024 1.796432 31.018051
3.300797 1.864944 31.233841
3.878372 1.940506 31.020035
3.760910 1.371017 31.926865
3.933243 1.254288 31.663620
3.495529 1.540085 31.754196
3.838821 1.947006 31.840317
3.603012 1.674362 31.687973
3.612625 1.657211 31.700211
3.609177 1.665939 31.704453
3.615952 1.647751 31.693039
3.621811 1.639175 31.707199
3.757858 1.510513 31.657639
3.943039 1.856827 31.545303
3.753067 1.574753 31.751083
3.810410 1.507065 31.880020
2.687027 3.162918 30.485672
2.492081 2.005447 30.204941
2.984207 2.307114 30.438675
2.975082 2.178879 30.186508
2.907181 2.205856 30.214218
2.679428 2.127457 30.374008
2.752335 2.297745 30.472000
2.719040 2.725296 30.091629
2.785385 2.223068 30.939316
2.881485 2.461105 30.636276
2.956039 2.563309 30.918198
2.805618 2.637436 30.896469
3.096268 2.308517 30.260056
3.371140 2.031937 30.304520
3.444626 2.056412 30.096481
3.417709 2.043991 30.091934
3.437119 2.062668 30.129410
3.378250 2.039230 30.240433
3.384506 2.031143 30.249649
3.220566 2.090591 30.289383
3.159439 2.111099 30.362320
3.105881 2.172562 30.350143
3.234940 2.056259 30.440842
3.297256 2.058975 30.307999
3.359238 2.025284 30.360489
3.318558 2.025375 30.389114
3.299210 2.033768 30.384720
3.751419 2.299362 30.376266
3.690750 2.043625 30.416855
3.369827 2.848618 30.257706
3.361710 2.523727 30.030472
3.309952 2.731369 30.053909
3.327011 2.741776 30.100021
3.231033 2.841019 30.195480
3.174484 2.874466 30.249130
3.259995 2.781876 30.089432
3.276077 2.793442 30.129135
3.499802 2.796402 30.126938
3.482742 2.796524 30.140854
3.490952 2.794296 30.152573
3.423080 2.869064 30.223038
3.431564 2.868454 30.218826
3.446915 2.865707 30.202347
3.440048 2.868393 30.210587
3.443863 2.877823 30.238754
3.119186 2.907211 30.311478
3.070236 2.936203 30.414261
3.020615 2.985794 30.460007
3.788559 2.599747 30.327927
3.527481 2.727127 30.057266
3.518967 2.728897 30.049057
3.974533 2.670425 30.038071
3.573074 2.806992 30.093948
3.769058 2.827194 30.021439
3.064285 2.300400 30.938919
3.241013 2.028580 30.541641
3.207443 2.052017 30.718002
3.264542 2.003464 30.549179
3.202286 2.009018 30.753433
3.091293 2.061905 30.893417
3.072037 2.094131 30.910477
3.080399 2.076920 30.887619
3.087814 2.070511 30.909286
3.094864 2.136826 30.945023
3.053329 2.140274 30.976608
3.318314 2.187973 30.884781
3.040909 2.380966 30.959824
3.486526 2.973709 30.875137
3.550980 2.861252 30.948196
3.808395 2.893723 30.655167
3.508133 2.961044 30.930954
2.468430 3.292313 30.796524
2.330673 3.356094 30.812057
2.203171 3.431961 30.844589
2.264877 3.395248 30.812943
2.386002 3.351791 30.924332
2.284317 3.401291 30.901077
2.322159 3.406876 30.989731
2.442154 3.413559 30.952469
2.392624 3.453415 30.982468
2.541000 3.268021 30.784744
2.749435 3.181808 30.742325
2.973160 3.033524 30.522415
2.863846 3.115189 30.620956
2.914230 3.068008 30.568497
2.924026 3.080154 30.581467
2.858231 3.100784 30.634659
2.804428 3.149734 30.666519
2.797165 3.136490 30.668686
2.690475 3.216110 30.793289
2.616409 3.242264 30.792038
2.680069 3.205032 30.773392
2.906357 3.238358 30.867172
2.868088 3.241013 30.775375
2.881210 3.230759 30.829941
2.909958 3.208572 30.833481
2.719284 3.283096 30.878647
2.599167 3.305954 30.974045
2.533951 3.343460 30.986649
2.726242 3.280441 30.878647
2.662155 3.269699 30.946243
2.713760 3.311417 30.953537
2.740616 3.430405 30.995804
2.900650 3.617874 30.921310
3.264938 3.016342 30.478867
3.280746 3.016525 30.451431
3.241196 3.019730 30.487961
3.272598 3.016464 30.465225
3.288345 3.014206 30.460434
3.603256 3.123245 30.003891
3.361740 3.120193 30.789810
3.042862 3.103104 30.585953
3.067795 3.191727 30.971298
3.365494 3.190414 30.850327
3.837692 3.311203 30.797012
3.887558 3.182571 30.660812
3.852737 3.241196 30.736618
3.837601 3.470016 30.721085
3.883530 3.554153 30.631546
2.897171 2.278976 31.371445
2.830185 2.256638 31.341080
2.968582 2.156479 31.003525
2.921829 2.190384 31.109360
2.777786 2.374100 31.495956
2.803055 2.319382 31.448288
2.755142 2.376144 31.486191
2.695145 2.599960 31.205124
2.193497 2.078720 31.828598
2.679794 2.450272 31.787369
2.905411 2.234848 31.532791
2.901627 2.421616 31.501633
2.800400 2.268692 31.627975
2.810562 2.266129 31.627060
2.981094 2.464432 31.647659
2.768478 2.164536 31.919449
2.722183 2.427109 31.834427
2.695999 2.459824 31.830032
2.601303 2.316818 31.876755
2.742264 2.494003 31.909592
2.445480 2.537643 31.775986
2.785782 2.639450 31.965988
2.963882 2.553543 31.613419
2.924637 2.576675 31.621262
2.973038 2.630936 31.622726
2.860550 2.619522 31.634171
3.283951 2.027969 31.422928
3.838455 2.321732 31.385391
3.665848 2.222366 31.315262
3.828659 2.164352 31.357071
3.252884 2.757370 31.412827
3.269241 2.995163 31.378036
3.283920 2.912704 31.457870
3.083328 2.292404 31.567337
3.201065 2.024063 31.629257
3.953873 2.354385 31.766251
3.696426 2.020462 31.663071
3.973312 2.022995 31.529312
3.875565 2.250839 31.699234
3.747360 2.499008 31.869400
3.982651 2.345901 31.842636
3.972916 2.347305 31.828537
3.991684 2.347824 31.830429
3.932663 2.421951 31.854691
3.998245 2.419876 31.891037
3.894028 2.502121 31.838943
3.887100 2.889633 31.546432
3.995987 2.992355 31.545029
3.957413 2.893173 31.579422
3.989059 2.997452 31.658981
3.590561 2.517349 31.797012
3.829880 2.645218 31.965378
3.812973 2.724960 31.961105
2.399246 3.403000 31.037521
2.327103 3.427628 31.053848
2.252945 3.454697 31.050797
2.804214 3.286697 31.270737
2.742538 3.223587 31.036179
2.584274 3.485703 31.074661
2.782730 3.319839 31.071518
2.788284 3.398727 31.080978
2.953903 3.062973 31.424423
2.785721 3.550217 31.223312
2.686783 3.581131 31.244980
2.566544 3.502731 31.162643
2.447495 3.304916 31.617661
2.455490 3.487503 31.666672
2.387405 3.498245 31.675766
2.545853 3.376175 31.782333
2.874588 3.158401 31.514572
2.530563 3.452805 31.608627
2.687515 3.348892 31.665665
2.742386 3.442032 31.634903
2.748947 3.438400 31.644547
2.771805 3.460892 31.622818
2.797409 3.467545 31.659744
2.932236 3.831863 31.801529
2.951187 3.572739 31.616806
2.850601 3.550919 31.609634
2.960464 3.602921 31.586899
2.843704 3.518326 31.662125
2.863419 3.512985 31.629929
2.941879 3.554550 31.635178
2.945877 3.556351 31.631729
2.937302 3.567245 31.682480
2.937485 3.618881 31.632462
2.950211 3.614365 31.632645
2.943405 3.615128 31.649979
2.962784 3.608658 31.647263
2.785355 3.810867 31.518021
2.875565 3.908554 31.778641
2.836838 3.994614 31.837479
3.489761 3.106186 31.499344
3.054062 3.257401 31.163925
3.980942 3.274246 31.342606
3.997299 3.368729 31.223404
3.993210 3.350021 31.242630
3.928360 3.399734 31.240372
3.922348 3.382034 31.249130
3.723526 3.090988 31.490250
3.555374 3.071609 31.472183
3.750351 3.038742 31.433853
3.830002 3.115585 31.402328
3.769272 3.097580 31.412186
3.761795 3.098495 31.404709
3.776566 3.090897 31.476730
3.849075 3.128342 31.459030
3.949326 3.166428 31.385605
3.997025 3.232620 31.389023
3.966568 3.218063 31.395584
3.958725 3.200851 31.397018
3.717667 3.455368 31.352982
3.722275 3.472824 31.337296
3.720505 3.337265 31.491989
3.682022 3.332718 31.453293
3.573013 3.482742 31.433060
3.714554 3.437485 31.376694
3.650284 3.486099 31.379044
3.639725 3.451889 31.403336
3.644821 3.469437 31.389114
3.676224 3.433914 31.496597
3.642899 3.484024 31.485092
3.895309 3.316605 31.374313
3.850723 3.394577 31.292343
3.862503 3.429428 31.274246
3.854691 3.412674 31.273056
3.786972 3.443375 31.296646
3.782883 3.425522 31.315140
3.858078 3.488968 31.364304
3.864731 3.489212 31.362411
3.871597 3.489517 31.360123
3.932297 3.419754 31.307907
3.878281 3.489273 31.363998
3.891739 3.492020 31.335709
3.880753 3.455917 31.358932
3.908859 3.446335 31.356735
3.961868 3.438339 31.335739
3.868668 3.368118 31.377396
3.770767 3.350784 31.418503
3.772598 3.370956 31.383713
3.983078 3.251602 31.398819
3.994522 3.254257 31.443069
3.775925 3.386856 31.426071
3.771225 3.484756 31.418839
3.811661 3.485306 31.405502
3.791092 3.484421 31.418350
3.797958 3.484787 31.412827
3.805008 3.484756 31.412521
3.824753 3.486862 31.386887
3.856369 3.464249 31.394943
3.818008 3.485519 31.402542
3.831284 3.485580 31.401413
3.828171 3.486862 31.396774
3.844650 3.486679 31.389175
3.851547 3.485916 31.398148
3.831131 3.401779 31.470901
3.764175 3.480453 31.469589
3.784164 3.481796 31.449326
3.777695 3.480026 31.470749
3.429794 3.530228 31.477829
3.036850 3.952896 31.169632
3.203690 3.597580 31.498398
3.434128 3.546829 31.461105
3.352341 3.546310 31.489059
3.279770 3.580124 31.483414
3.274948 3.564133 31.496780
3.439896 3.625107 31.488632
3.423050 3.643448 31.499802
3.802292 3.505142 31.423355
3.713943 3.559799 31.470261
3.577316 3.500443 31.414597
3.516098 3.547348 31.435440
3.508896 3.531815 31.434799
3.503250 3.514908 31.445114
3.612839 3.535385 31.483658
3.623184 3.507370 31.470291
3.623886 3.559128 31.493576
3.564560 3.568802 31.496231
3.610184 3.563522 31.452103
3.700943 3.558151 31.497055
3.727097 3.558762 31.475662
3.694717 3.561264 31.464554
3.730667 3.555679 31.451706
3.738968 3.545273 31.444595
3.747421 3.533188 31.453262
3.720230 3.560257 31.461685
3.746445 3.566574 31.481155
3.707443 3.562759 31.439560
3.756851 3.526535 31.445511
3.449783 3.286179 31.719284
3.358749 3.012619 31.543869
3.427872 3.138809 31.549179
3.025986 3.498428 31.740036
3.754166 3.400436 31.642319
3.880600 3.032516 31.543869
3.844040 3.235672 31.599991
3.965775 3.135178 31.624893
3.897324 3.227280 31.677841
3.603531 3.330399 31.503128
3.520798 3.329117 31.532150
3.539841 3.333755 31.531357
3.634903 3.412338 31.615067
3.545883 3.338394 31.630356
3.721268 3.371231 31.638779
3.595291 3.394577 31.663315
3.592392 3.389542 31.634109
3.473892 3.870071 31.802170
3.198868 3.581375 31.512863
3.050400 3.615372 31.566513
3.046127 3.599289 31.585037
3.126724 3.615402 31.508194
3.056168 3.630814 31.558182
3.034897 3.549423 31.653824
3.002121 3.608536 31.627365
3.012314 3.602798 31.641586
3.115982 3.509842 31.717484
3.108810 3.564499 31.744675
3.211197 3.538956 31.680161
3.202927 3.524155 31.674240
3.139481 3.573257 31.679581
3.202225 3.505417 31.717239
3.159470 3.571091 31.702805
3.069016 3.655167 31.659775
3.087570 3.649307 31.662430
3.077347 3.653000 31.627487
3.075974 3.655563 31.631577
3.082016 3.649551 31.637253
3.081650 3.651627 31.656082
3.073196 3.657486 31.639786
3.474228 3.606247 31.552292
3.351913 3.528152 31.529495
3.360703 3.622482 31.504471
3.452164 3.619553 31.516617
3.462753 3.612442 31.530258
3.473099 3.581802 31.507431
3.479202 3.593948 31.518387
3.355515 3.653152 31.535385
3.268600 3.677719 31.513992
3.263474 3.688980 31.546188
3.309860 3.592422 31.675552
3.297531 3.596725 31.655685
3.302811 3.590256 31.716599
3.328751 3.586685 31.697891
3.450455 3.576828 31.650650
3.380722 3.617050 31.710587
3.286179 3.707779 31.664261
3.495224 3.639389 31.684738
3.498917 3.713638 31.734390
3.148666 3.805527 31.625046
3.089218 3.720627 31.773880
3.132584 3.884872 31.820328
3.451401 3.944962 31.911758
3.939682 3.955063 31.847580
3.514725 3.557449 31.510422
3.515610 3.545853 31.515060
3.531845 3.522751 31.521561
3.500259 3.578842 31.542709
3.507706 3.567581 31.524826
3.512070 3.572861 31.518387
3.538193 3.571274 31.500626
3.557877 3.567978 31.513779
3.544693 3.566940 31.542465
3.551010 3.566574 31.538651
3.607010 3.578110 31.501877
3.772934 3.525162 31.511398
3.503616 3.790939 31.746262
6.334549 1.004929 28.310013
4.032944 1.389755 28.251907
4.498550 0.713028 28.216049
4.924759 0.728470 28.493881
4.943253 0.728134 28.132980
4.959305 0.702591 28.154190
4.899216 0.334702 28.614822
4.695358 0.307907 28.727097
4.951248 0.398941 28.562790
4.386826 0.860458 28.632523
4.007034 0.965897 28.612167
4.103897 0.953751 28.719742
4.338028 0.865372 28.642044
4.316422 0.835861 28.631546
4.881180 0.751877 28.818893
4.930222 0.749557 28.627518
4.729782 0.872452 28.620804
4.575485 0.970688 28.659561
4.533646 0.925308 28.689560
4.645157 0.935989 28.662094
4.628372 0.949722 28.660019
4.921921 0.761429 28.601761
4.859604 0.807114 28.595840
4.877670 0.814438 28.851456
4.847458 0.776291 28.964127
4.842514 0.837875 28.993210
4.973099 0.859818 28.972000
4.979996 0.834610 28.986679
5.449387 0.482040 28.437119
5.482071 0.495682 28.435104
5.487869 0.058640 28.249924
5.431107 0.195755 28.165298
5.424118 0.150955 28.206070
5.315475 0.343124 28.132919
5.292252 0.346878 28.182327
5.243179 0.423904 28.499893
5.164688 0.417618 28.473862
5.167313 0.404099 28.482376
5.245499 0.470322 28.478745
5.384811 0.476334 28.485641
5.315201 0.443314 28.496078
5.312393 0.457016 28.487228
5.883102 0.267685 28.305527
5.732346 0.123276 28.113815
5.694412 0.115738 28.081924
5.716446 0.123672 28.091904
5.552017 0.220871 28.061142
5.690018 0.129959 28.061722
5.692337 0.144333 28.074844
5.711868 0.065445 28.154282
5.676895 0.114761 28.146652
5.641678 0.041397 28.192551
5.628433 0.150528 28.193344
5.951309 0.042648 28.028641
5.798752 0.072769 28.096786
5.885330 0.090836 28.013138
5.789932 0.228897 28.054245
5.767258 0.175186 28.085953
5.800125 0.219528 28.120377
5.762924 0.189377 28.067032
5.767136 0.222519 28.063248
5.755936 0.205490 28.118637
5.785049 0.175247 28.185715
5.783127 0.146591 28.159286
5.761765 0.213425 28.176590
5.767105 0.171982 28.194809
5.706619 0.288132 28.172073
5.631241 0.256332 28.156357
5.717758 0.417953 28.141251
5.690323 0.458481 28.242935
5.703568 0.464066 28.237473
5.896317 0.357590 28.038437
5.757797 0.298782 28.048630
5.804398 0.305557 28.012466
5.782669 0.335739 28.052292
5.863235 0.348190 28.124069
5.841202 0.324295 28.118179
5.880630 0.351944 28.119461
5.909744 0.342972 28.097916
5.758926 0.394150 28.028549
5.791367 0.392868 28.018967
5.834213 0.398026 28.106522
5.837692 0.383530 28.118576
5.844894 0.310135 28.132156
5.794937 0.286026 28.153061
5.847122 0.295151 28.139206
5.787552 0.357956 28.160355
5.852158 0.369736 28.183670
5.827621 0.344101 28.149307
5.845963 0.345413 28.132767
5.850327 0.339554 28.166061
5.851547 0.354752 28.176254
5.788773 0.275558 28.228928
5.768356 0.302994 28.196732
5.860092 0.281601 28.198227
5.876968 0.318161 28.137100
5.771164 0.422745 28.167282
5.772171 0.408035 28.166977
5.763260 0.430069 28.142441
5.552658 0.107895 28.314926
5.730270 0.212814 28.314102
5.764572 0.098434 28.377945
5.791916 0.218826 28.428116
5.811844 0.205093 28.427017
5.765518 0.221512 28.392014
5.781906 0.243668 28.392624
5.844193 0.236343 28.470810
5.816299 0.218430 28.457596
5.910995 0.239029 28.433517
5.987991 0.242111 28.445389
5.588181 0.296616 28.374802
5.585312 0.451584 28.358749
5.536728 0.475662 28.350510
5.540970 0.467209 28.335739
5.573257 0.479385 28.320938
5.588821 0.480850 28.335678
5.716782 0.432877 28.267105
5.676712 0.451065 28.255844
5.652634 0.441788 28.320236
5.563004 0.463730 28.376114
5.522049 0.460464 28.418747
5.922318 0.309677 28.277573
5.839249 0.294235 28.275925
5.761642 0.271530 28.360641
5.817795 0.299240 28.324173
5.899246 0.362869 28.302292
5.903854 0.271896 28.369370
5.834976 0.250473 28.428818
5.796646 0.252090 28.418167
5.864151 0.257889 28.448257
5.845963 0.256699 28.465591
5.899887 0.260483 28.416092
5.890732 0.254379 28.430252
5.899155 0.253220 28.379593
5.919327 0.257553 28.379593
5.306412 0.806503 28.282944
5.309586 0.739212 28.248306
5.077560 0.984940 28.009476
5.069046 0.920425 28.145218
5.004807 0.966782 28.227768
5.446609 0.992538 28.056473
5.282944 0.917740 28.036331
5.277267 0.925430 28.019058
5.307755 0.963455 28.031754
5.292953 0.943771 28.027695
5.323135 0.982376 28.038986
5.308914 0.974045 28.095688
5.294418 0.971817 28.086563
5.283005 0.962387 28.116867
5.333755 0.986252 28.071365
5.320908 0.983200 28.068008
5.346786 0.989395 28.074387
5.358475 0.995224 28.063004
5.371475 0.997757 28.069382
5.456833 0.972214 28.021469
5.386978 0.958603 28.061752
5.468613 0.962326 28.025375
5.393814 0.974533 28.110641
5.485428 0.952194 28.098557
5.324753 0.766220 28.126938
5.251602 0.794693 28.187424
5.304581 0.764297 28.145645
5.286026 0.792130 28.161667
5.256027 0.845963 28.126968
5.266678 0.817520 28.133591
5.299789 0.791885 28.236923
5.281479 0.770676 28.200943
5.294937 0.764297 28.190445
5.292679 0.777237 28.188583
5.300949 0.751938 28.212570
5.321243 0.993942 28.168930
5.329208 0.975845 28.162430
5.325516 0.962204 28.130814
5.296341 0.970535 28.228104
5.305923 0.993393 28.212906
5.333694 0.990189 28.198868
5.495529 0.997696 28.170761
5.153854 0.573746 28.496567
5.273544 0.709061 28.361771
5.362442 0.531570 28.475998
5.402664 0.508865 28.460373
5.230789 0.843704 28.263687
5.231613 0.807999 28.351120
5.218826 0.786392 28.357132
5.247299 0.826797 28.358078
5.221909 0.824997 28.342331
5.236069 0.873703 28.485184
5.243423 0.816269 28.475937
5.252182 0.784653 28.277695
5.257736 0.775925 28.252579
5.315262 0.822037 28.341385
5.309982 0.929459 28.299362
5.293839 0.942459 28.271774
5.287796 0.995346 28.324814
5.315079 0.994919 28.351913
5.317642 0.764847 28.461838
5.300186 0.967239 28.487320
5.504166 0.977676 28.141220
5.158127 0.360489 28.543747
5.075363 0.217087 28.551895
5.082596 0.367783 28.554337
5.104660 0.399246 28.543930
5.034592 0.381546 28.559677
5.908279 0.265213 28.795853
5.741409 0.116745 28.683395
5.740585 0.102463 28.678024
5.547958 0.196213 28.631058
5.738113 0.131088 28.668594
5.734695 0.145432 28.653183
5.747299 0.156540 28.693680
5.787613 0.204239 28.553360
5.802139 0.176285 28.620468
5.784531 0.182846 28.566116
5.801010 0.190659 28.617142
5.750961 0.060013 28.726852
5.751785 0.045578 28.730209
5.808029 0.026901 28.747116
5.801773 0.059097 28.747116
5.785965 0.089005 28.724625
5.770035 0.117233 28.701218
5.751541 0.185104 28.653793
5.791336 0.148026 28.723434
5.765610 0.148605 28.705612
5.821396 0.136368 28.702927
5.900223 0.238510 28.686539
5.939743 0.264786 28.551132
5.820419 0.256332 28.681381
5.829605 0.328140 28.672226
5.863174 0.327042 28.726273
5.845383 0.329819 28.688248
5.731216 0.110764 28.809799
5.686905 0.101547 28.785263
5.687454 0.087265 28.786850
5.680069 0.115524 28.752090
5.693924 0.161697 28.787186
5.726761 0.166824 28.801620
5.581863 0.033524 28.884232
5.582138 0.048416 28.955093
5.694290 0.058914 28.906082
5.637009 0.044724 28.910965
5.633316 0.058853 28.892685
5.680771 0.069717 28.876755
5.729721 0.066971 28.892838
5.637466 0.061905 28.976151
5.644974 0.015701 28.951035
5.642532 0.001358 28.938248
5.643631 0.030228 28.944443
5.669968 0.055252 28.952866
5.685135 0.061142 28.947403
5.627762 0.113693 28.946945
5.554703 0.140976 28.883163
5.630356 0.145187 28.896439
5.823959 0.064163 28.751846
5.840103 0.069412 28.754257
5.800674 0.141830 28.754654
5.782730 0.140457 28.772293
5.946030 0.193741 28.804153
5.920273 0.164597 28.829025
5.962997 0.127518 28.862106
5.997787 0.135910 28.858047
5.925491 0.198807 28.852280
5.939957 0.105972 28.918289
5.935989 0.120621 28.900223
5.945480 0.091110 28.943954
5.949997 0.125381 28.912796
5.929947 0.153030 28.879959
5.934067 0.135513 28.892502
5.977097 0.138840 28.896713
5.966293 0.241837 28.997513
5.724136 0.302139 28.846390
5.747726 0.380508 28.763809
5.709335 0.288315 28.931015
5.674118 0.303879 28.934616
5.662674 0.313065 28.910995
5.743057 0.324509 28.893112
5.692825 0.297836 28.942154
5.707596 0.299881 28.953690
5.924149 0.272903 28.810959
5.820572 0.306564 28.750900
5.825974 0.280014 28.757950
5.816422 0.258286 28.872421
5.898605 0.321640 28.801926
5.881607 0.323135 28.770187
5.937790 0.286606 28.855911
5.776749 0.306625 28.894699
5.779007 0.291794 28.902054
5.759018 0.332047 28.905594
5.835892 0.357376 28.889786
5.849777 0.365585 28.875168
5.865341 0.369431 28.881912
5.881943 0.368698 28.910233
5.929184 0.359482 28.914169
5.934464 0.374954 28.944534
5.256363 0.785477 28.794724
5.233475 0.542343 28.506393
5.235367 0.590805 28.560959
5.238205 0.591171 28.527542
5.083817 0.630417 28.557907
5.106094 0.655533 28.549973
5.013718 0.685196 28.623550
5.086227 0.656845 28.589767
5.007401 0.710312 28.607803
5.012527 0.698013 28.626755
5.233871 0.805466 28.605759
5.227859 0.854782 28.566635
5.239975 0.831070 28.574692
5.244858 0.851578 28.702408
5.230057 0.896317 28.733810
5.264725 0.791580 28.509323
5.253159 0.867599 28.536942
5.251633 0.850632 28.515762
5.295334 0.804855 28.616165
5.260513 0.847183 28.599747
5.268570 0.861984 28.584427
5.283401 0.860031 28.613571
5.302963 0.820175 28.668961
5.267136 0.795425 28.718735
5.301071 0.846573 28.702438
5.069962 0.500076 28.776932
5.005997 0.640396 28.798264
5.233536 0.742020 28.880905
5.223984 0.727402 28.983994
5.219193 0.740280 28.967880
5.188522 0.713211 28.994156
5.211197 0.702286 28.998734
5.268295 0.747208 28.828964
5.280411 0.735214 28.884781
5.218430 0.815536 28.793533
5.240158 0.860672 28.767929
5.227097 0.839310 28.772598
5.210403 0.790512 28.819016
5.198471 0.859787 28.873337
5.210159 0.870163 28.837051
5.214249 0.844986 28.831375
5.219101 0.888199 28.759689
5.226395 0.763107 28.916000
5.210953 0.753281 28.877396
5.191727 0.771225 28.895981
5.247421 0.764023 28.890915
5.176346 0.813950 28.934464
5.187515 0.847885 28.918167
5.184677 0.763199 28.973892
5.168381 0.789291 28.959518
5.215256 0.779373 28.977402
5.204422 0.765884 28.957169
5.216415 0.753098 28.962631
5.216019 0.766068 28.970810
5.177444 0.830765 28.990097
5.192917 0.832779 28.943619
5.260483 0.772568 28.806595
5.263260 0.759811 28.811539
5.266403 0.800491 28.860641
5.268723 0.764206 28.862839
5.318130 0.934860 28.839584
5.935440 0.646530 28.965836
5.607437 0.790634 28.644608
5.597641 0.855850 28.746323
4.598373 1.355484 28.362442
4.600327 1.343033 28.352829
4.598770 1.330673 28.323563
4.651291 1.433975 28.362411
4.377274 1.823196 28.257401
4.229111 1.588791 28.011154
4.104568 1.553726 28.109787
4.235733 1.581528 28.097061
4.171371 1.567154 28.077347
4.167770 1.577621 28.079422
4.226730 1.562943 28.108658
4.137650 1.626541 28.013412
4.079941 1.560318 28.210587
4.041092 1.553452 28.193771
4.078598 1.600418 28.239731
4.110947 1.565811 28.237961
4.152390 1.562241 28.154678
4.169449 1.587021 28.186966
4.201523 1.592606 28.165665
4.240921 1.581619 28.143478
4.222244 1.595932 28.132034
4.226852 1.698318 28.244064
4.318069 1.618942 28.057938
4.292770 1.599930 28.075363
4.333328 1.716080 28.002213
4.338120 1.705215 28.004959
4.278152 1.706406 28.108566
4.283096 1.696213 28.113602
4.419357 1.736221 28.040359
4.425003 1.740646 28.015060
4.428055 1.745712 28.103867
4.493881 1.755875 28.037491
4.350845 1.785202 28.033371
4.365829 1.801010 28.048386
4.341446 1.766403 28.042038
4.472733 1.761398 28.017807
4.405075 1.762772 28.049423
4.388840 1.794052 28.095352
4.410843 1.800552 28.072983
4.421829 1.800858 28.080307
4.423721 1.776260 28.120102
4.400528 1.795273 28.097061
4.433884 1.799332 28.099533
4.346786 1.776505 28.170975
4.368515 1.780502 28.162491
4.357590 1.780716 28.153000
4.317368 1.781723 28.208878
4.269363 1.837601 28.218033
4.339951 1.835159 28.242569
4.350327 1.841873 28.208542
4.467850 1.783890 28.127029
4.378494 1.786728 28.132004
4.375443 1.791611 28.225723
4.394058 1.766861 28.246689
4.111526 1.595383 28.251572
4.064346 1.661484 28.294449
4.049850 1.726059 28.329239
4.225723 1.722733 28.294418
4.225601 1.710007 28.264023
4.011887 1.530899 28.390488
4.166824 1.734909 28.439896
4.165604 1.747452 28.463211
4.215286 1.847946 28.302628
4.024490 1.793503 28.344040
4.035263 1.795425 28.334976
4.000320 1.861557 28.356186
4.229904 1.862961 28.318619
4.191177 1.912857 28.371414
4.242172 1.880112 28.322433
4.238602 1.868393 28.413528
4.248734 1.874252 28.382553
4.148483 1.801743 28.498306
4.162186 1.758194 28.469650
4.151077 1.790939 28.486343
4.184494 1.892197 28.393082
4.210739 1.925247 28.490189
4.232895 1.928940 28.479416
4.236862 1.912796 28.486099
4.221878 1.926590 28.487900
4.243576 1.928055 28.491592
4.164780 1.953781 28.485153
4.149826 1.939285 28.466415
4.328903 1.832138 28.253311
4.318161 1.828415 28.268936
4.286362 1.819565 28.302597
4.296951 1.826279 28.267746
4.307266 1.827316 28.268265
4.361862 1.835220 28.258499
4.325699 1.835251 28.354233
4.269119 1.878220 28.370377
4.290756 1.884445 28.345200
4.332596 1.871475 28.402115
4.277664 1.873276 28.427078
4.305374 1.842453 28.379776
4.271103 1.861435 28.485916
4.273361 1.848801 28.451889
4.258896 1.875961 28.378220
4.280350 1.877487 28.382431
4.263229 1.906113 28.480270
4.258316 1.896042 28.465134
4.271347 1.878189 28.473648
4.777969 1.690201 28.443954
4.722336 1.667648 28.328445
4.436356 1.321762 28.791458
4.285324 1.216415 28.531265
4.490341 1.115829 28.671402
4.478653 1.193222 28.724228
4.068832 1.335526 28.532150
4.145309 1.406174 28.506027
4.456589 1.260849 28.738144
4.034866 1.007065 28.764816
4.999527 1.336288 28.999557
4.546921 1.066849 28.667557
4.538467 1.054581 28.697678
4.511795 1.133255 28.677231
4.803696 1.058243 28.641647
4.507889 1.499405 28.555954
4.530136 1.102493 28.901627
4.294907 1.893448 28.982162
4.035599 1.602097 28.510117
4.396866 1.714218 28.615646
4.134384 1.844925 28.526718
4.141098 1.823013 28.509415
4.137589 1.834061 28.517441
4.113327 1.986649 28.534409
4.026871 1.932205 28.607101
4.035660 1.912460 28.603409
4.032944 1.922501 28.615372
4.190811 1.920059 28.512375
4.200668 1.920731 28.513535
4.220078 1.941360 28.541794
4.164993 1.975845 28.600998
4.185623 1.981918 28.572372
4.175430 1.978897 28.586472
4.196945 1.976425 28.600143
4.203110 1.947647 28.587570
4.205460 1.984726 28.565231
4.195236 1.983902 28.564743
4.018234 1.977219 28.683365
4.019852 1.965775 28.660446
4.026138 1.944138 28.635941
4.022812 1.954880 28.646744
4.197495 1.968735 28.638870
4.182144 1.995621 28.642014
4.156204 1.991989 28.730026
4.021042 1.710770 28.941788
4.483475 1.682358 28.854904
4.407639 1.721603 28.901108
4.231461 1.989975 28.936752
4.204330 1.998642 28.948196
4.662308 1.751633 28.528519
5.462173 1.040695 28.289932
5.451920 1.057999 28.258865
5.397873 1.007950 28.058609
5.338272 1.001846 28.044754
5.358963 1.015396 28.075912
5.410446 1.011398 28.060287
5.384567 1.028641 28.120743
5.385513 1.001541 28.071487
5.424728 1.012161 28.077927
5.451828 1.015640 28.101852
5.439133 1.013168 28.094620
5.311569 1.019211 28.181931
5.347000 1.034073 28.218918
5.326523 1.036575 28.191238
5.334274 1.032089 28.210190
5.344803 1.054611 28.208389
5.359146 1.039169 28.211563
5.322769 1.024277 28.232101
5.339737 1.005020 28.243820
5.373672 1.040848 28.224625
5.366074 1.069626 28.239182
5.481400 1.007614 28.185257
5.466171 1.012985 28.136398
5.397629 1.053207 28.199966
5.385605 1.048477 28.204971
5.411514 1.054977 28.212051
5.425156 1.057938 28.218430
5.437973 1.059647 28.229507
5.482529 1.017502 28.216812
5.468307 1.048691 28.329636
5.351181 1.036819 28.262466
5.299820 1.006180 28.288406
5.312149 1.013779 28.268509
5.303665 1.051315 28.345688
5.297104 1.028366 28.368973
5.320084 1.070541 28.355789
5.323898 1.030838 28.394455
5.295059 1.000137 28.414108
5.364609 1.071030 28.430954
5.339371 1.086807 28.379257
5.340897 1.054672 28.476913
5.327438 1.055405 28.453751
5.317032 1.043991 28.495285
5.351639 1.064285 28.444992
5.376297 1.079056 28.408676
5.388535 1.083023 28.407700
5.401840 1.086227 28.412125
5.416061 1.087082 28.429794
5.491440 1.047989 28.481033
5.430069 1.084763 28.462753
5.443985 1.082932 28.493301
5.462906 1.151443 28.467117
5.787521 1.034500 28.311874
5.521652 1.005417 28.372299
5.505936 1.025497 28.428940
5.863388 1.216385 28.298752
5.466690 1.101761 28.813278
5.089523 1.221481 28.692062
5.458145 1.080368 28.528366
5.290329 1.059677 28.539963
5.283401 1.037003 28.562027
5.305923 1.035355 28.522171
5.293289 1.029037 28.535629
5.301865 1.082108 28.531113
5.334671 1.119125 28.554764
5.313187 1.103592 28.523636
5.282089 1.008255 28.610550
5.281235 1.018753 28.569778
5.462875 1.071945 28.585770
5.379379 1.112808 28.620712
5.391983 1.118149 28.613449
5.318863 1.084763 28.670517
5.289200 1.118973 28.678848
5.342484 1.095108 28.653519
5.329666 1.092789 28.646133
5.355118 1.102585 28.635086
5.368149 1.105911 28.638199
5.284134 1.061234 28.738419
5.295120 1.027481 28.726639
5.279343 1.096573 28.692123
5.269272 1.073196 28.706772
5.307419 1.077103 28.692245
5.296188 1.069199 28.715622
5.420425 1.115402 28.671707
5.433243 1.116776 28.684982
5.406479 1.117844 28.637527
5.433548 1.094376 28.693802
5.447556 1.113480 28.724045
5.333084 1.148605 28.747086
5.305038 1.138168 28.688004
5.249344 1.042526 28.996048
5.268600 1.046341 28.753891
5.297440 1.061295 28.753922
5.309341 1.117355 28.874954
5.320450 1.124069 28.857346
5.317764 1.100388 28.825546
5.333420 1.125443 28.869919
5.294815 1.173203 28.848648
5.277176 1.155960 28.830612
5.265121 1.134384 28.836227
5.369492 1.145126 28.825485
5.357559 1.140823 28.828629
5.345200 1.135483 28.836899
5.408340 1.153305 28.845139
5.421463 1.153946 28.862839
5.382889 1.147537 28.834122
5.395645 1.152451 28.829330
5.286057 1.027634 28.908920
5.287216 1.100540 28.927811
5.263992 1.106247 28.884445
5.298172 1.109085 28.900467
5.293716 1.095444 28.971054
5.264175 1.075974 28.940384
5.323044 1.183548 28.909042
5.251694 1.172226 28.984848
5.296066 1.129379 28.999039
5.357559 1.184036 28.998428
5.280716 1.210587 28.996902
5.264633 1.192459 28.984390
5.370438 1.187820 28.999313
5.434464 1.154404 28.881516
5.451645 1.148422 28.939621
5.511642 1.254654 28.990189
5.508377 1.387375 28.999710
4.951218 0.475449 29.427414
4.805649 0.407120 29.488632
4.992508 0.401840 29.249954
4.635544 0.216843 29.481705
4.865280 0.188065 29.356949
4.786514 0.187515 29.413284
4.908859 0.224838 29.430283
4.351425 0.842697 29.355240
4.057053 0.526657 29.117905
4.117447 0.720047 29.165146
4.085342 0.711014 29.155258
4.065567 0.851608 29.188309
4.062790 0.915634 29.240402
4.072678 0.988022 29.251114
4.858505 0.862808 29.259781
4.904556 0.623215 29.084671
4.949905 0.676559 29.111954
4.973679 0.527084 29.223862
4.800949 0.675278 29.211472
4.954269 0.665115 29.128098
4.585556 0.823471 29.084488
4.630478 0.919968 29.271561
4.741745 0.997910 29.288773
4.573654 0.908707 29.381790
4.741562 0.892838 29.444931
4.740585 0.905167 29.453140
4.821884 0.845657 29.412399
4.814072 0.857071 29.378067
4.774429 0.815689 29.393997
4.708664 0.381088 29.766129
4.567978 0.210220 29.584274
4.838791 0.001572 29.529800
4.851517 0.198410 29.506149
4.522659 0.272568 29.652084
4.597305 0.416855 29.637131
4.516220 0.427261 29.662460
4.812546 0.487106 29.519699
4.453629 0.857651 29.800705
4.185379 0.706406 29.904526
4.459915 0.829391 29.795792
4.996231 0.957565 29.873978
4.659134 0.846725 29.526230
4.624588 0.843735 29.546951
4.665421 0.796494 29.614639
4.675156 0.768509 29.619308
4.614731 0.905106 29.631271
4.998367 0.698410 29.984604
4.732254 0.989578 29.976089
4.988998 0.971268 29.954575
4.976822 0.949966 29.962296
5.215012 0.439804 29.444901
5.448715 0.049179 29.347336
5.082840 0.103683 29.184402
5.085190 0.129318 29.201248
5.192795 0.193466 29.125900
5.495285 0.079544 29.162582
5.263809 0.055984 29.170090
5.280533 0.062332 29.170334
5.188126 0.361862 29.106705
5.201004 0.437363 29.038864
5.079208 0.372452 29.235764
5.035690 0.337265 29.237137
5.225266 0.269241 29.179031
5.144333 0.265060 29.136612
5.232742 0.488266 29.237534
5.380508 0.295822 29.114578
5.156906 0.154617 29.280045
5.387863 0.062881 29.416092
5.368484 0.045670 29.401077
5.309036 0.058365 29.476273
5.292679 0.039261 29.472824
5.323807 0.053207 29.456253
5.925003 0.298508 29.304062
5.590378 0.001358 29.059280
5.588242 0.015579 29.048386
5.571091 0.089340 29.090256
5.513535 0.099228 29.170731
5.844833 0.162552 29.205338
5.794968 0.321701 29.055832
5.865677 0.368454 29.226913
5.833817 0.363327 29.200821
5.843857 0.366440 29.189224
5.905746 0.342819 29.167068
5.902206 0.327744 29.145401
5.844162 0.381577 29.137131
5.898453 0.247116 29.489853
5.894516 0.238449 29.466293
5.948807 0.270767 29.360703
5.859695 0.431564 29.288315
5.844040 0.430069 29.270615
5.840469 0.485977 29.368820
5.867905 0.300491 29.382828
5.963211 0.316574 29.424179
5.898972 0.253311 29.491592
5.197708 0.790146 29.308609
5.236526 0.715561 29.043350
5.173264 0.738022 29.036240
5.069870 0.613876 29.183731
