1.840683 -2.493637 5.196060
1.832169 -2.493454 5.195297
1.826706 -2.495377 5.209610
1.848740 -2.492172 5.199448
1.857376 -2.490585 5.203171
1.866043 -2.486038 5.211685
1.824844 -2.490677 5.228622
1.832443 -2.490891 5.229172
1.841019 -2.490158 5.231461
1.827286 -2.494247 5.237442
1.874893 -2.481735 5.219894
1.849106 -2.488480 5.235214
1.857773 -2.486893 5.238937
1.866196 -2.484940 5.243271
1.945999 -2.431107 5.223129
1.882523 -2.481033 5.163101
1.882339 -2.482315 5.131912
1.878006 -2.487625 5.151962
1.899796 -2.475296 5.145615
1.891434 -2.477005 5.141647
1.916672 -2.465439 5.134811
1.935440 -2.445908 5.139572
1.925644 -2.455582 5.151779
1.875534 -2.488663 5.177841
1.891586 -2.475998 5.172470
1.899918 -2.474411 5.176224
1.908249 -2.468796 5.157211
1.916916 -2.463547 5.166946
1.935593 -2.444839 5.170334
1.908340 -2.468491 5.186996
1.925644 -2.455978 5.180313
1.945938 -2.430679 5.165146
1.945908 -2.430862 5.135971
1.956039 -2.409378 5.142197
1.956009 -2.410049 5.170029
1.877151 -2.485947 5.233963
1.882706 -2.479660 5.194748
1.876785 -2.486984 5.206131
1.900467 -2.469650 5.213394
1.891739 -2.475082 5.203384
1.917068 -2.462357 5.198196
1.935532 -2.445877 5.197983
1.925797 -2.455124 5.211105
1.882828 -2.478745 5.225845
1.891800 -2.474838 5.233444
1.900497 -2.469925 5.242722
1.917252 -2.461411 5.229263
1.908554 -2.466782 5.219254
1.935776 -2.444077 5.230331
1.908463 -2.468277 5.246628
1.925888 -2.454453 5.241806
1.956161 -2.409348 5.229660
1.946152 -2.429520 5.196243
1.955948 -2.410782 5.198044
1.934464 -2.254105 5.222031
1.933578 -2.255569 5.168381
1.933090 -2.256607 5.142075
1.959427 -2.307816 5.162155
1.958817 -2.311844 5.138748
1.946640 -2.277023 5.133438
1.947098 -2.275742 5.159470
1.947556 -2.275040 5.186264
1.969742 -2.360611 5.219986
1.971664 -2.347916 5.227585
1.934006 -2.251633 5.224075
1.934067 -2.253891 5.194260
1.935013 -2.251633 5.247269
1.961075 -2.300186 5.237381
1.959915 -2.306595 5.188400
1.960434 -2.304642 5.214096
1.948074 -2.272751 5.211533
1.948624 -2.269974 5.236465
1.730057 -2.245834 5.102371
1.732407 -2.248642 5.108017
1.729813 -2.248581 5.042191
1.729233 -2.249466 5.009903
1.734299 -2.242844 5.013443
1.731522 -2.246841 5.015182
1.737137 -2.237747 5.004562
1.748093 -2.227829 5.006454
1.732803 -2.247299 5.023880
1.731216 -2.247269 5.021378
1.737259 -2.237900 5.029953
1.737900 -2.242203 5.022232
1.742783 -2.236710 5.019882
1.744675 -2.235672 5.029587
1.749405 -2.230301 5.026657
1.748032 -2.231979 5.018387
1.748581 -2.232864 5.020828
1.732346 -2.246628 5.043320
1.734634 -2.243515 5.040787
1.749924 -2.228561 5.039566
1.748978 -2.231857 5.046646
1.733109 -2.247665 5.054367
1.735031 -2.238358 5.054123
1.735458 -2.243240 5.051163
1.738083 -2.242416 5.052353
1.743057 -2.237076 5.050278
1.748611 -2.232895 5.050522
1.749832 -2.230057 5.053146
1.733231 -2.245804 5.099380
1.725235 -2.249405 5.078079
1.733109 -2.246384 5.071487
1.730606 -2.247971 5.074692
1.735031 -2.243698 5.067795
1.741592 -2.233810 5.065018
1.732590 -2.246994 5.082687
1.735641 -2.241287 5.092453
1.737473 -2.241653 5.080521
1.735489 -2.238480 5.079849
1.742905 -2.236893 5.079727
1.748703 -2.233017 5.080673
1.735153 -2.238663 5.105209
1.744583 -2.235153 5.102646
1.749405 -2.230759 5.102463
1.747513 -2.231491 5.107285
1.733597 -2.248276 5.115768
1.735855 -2.243362 5.121536
1.738327 -2.242783 5.113174
1.743118 -2.237137 5.110458
1.737656 -2.241592 5.229477
1.742691 -2.236588 5.170242
1.732437 -2.247025 5.140091
1.741257 -2.236435 5.136795
1.734604 -2.245895 5.128067
1.736160 -2.238724 5.131393
1.737320 -2.241470 5.140579
1.742783 -2.236740 5.139877
1.742691 -2.233902 5.138626
1.749435 -2.230087 5.130356
1.734207 -2.244980 5.155777
1.732773 -2.247238 5.143814
1.736343 -2.242447 5.147842
1.748550 -2.232834 5.140732
1.735458 -2.238968 5.156662
1.743668 -2.233810 5.165817
1.748154 -2.232315 5.170212
1.732773 -2.247238 5.174515
1.733475 -2.246719 5.172958
1.734879 -2.239243 5.182114
1.738022 -2.242355 5.173294
1.736923 -2.240616 5.173386
1.734634 -2.244553 5.184067
1.742783 -2.233749 5.175339
1.735001 -2.239548 5.233932
1.743301 -2.237381 5.203079
1.737137 -2.242722 5.202957
1.747787 -2.231827 5.200058
1.733597 -2.248276 5.207901
1.745224 -2.234848 5.212967
1.738235 -2.242630 5.204910
1.734695 -2.246658 5.206100
1.736588 -2.239182 5.208939
1.736282 -2.244766 5.213120
1.742538 -2.236404 5.231979
1.747330 -2.231247 5.229935
1.733414 -2.248032 5.238663
1.738174 -2.242538 5.236038
1.735855 -2.243881 5.241043
1.735641 -2.246231 5.239120
1.749649 -2.227524 5.242783
1.742508 -2.233139 5.248764
1.880295 -2.223099 5.094711
1.750534 -2.226028 5.103928
1.764877 -2.223190 5.044937
1.761459 -2.225876 5.025253
1.764389 -2.224319 5.019272
1.754745 -2.228745 5.021896
1.768173 -2.222580 5.028061
1.775070 -2.221451 5.027237
1.779221 -2.217514 5.011246
1.773514 -2.217545 5.008621
1.780869 -2.216141 5.003769
1.774246 -2.218613 5.029251
1.787888 -2.213455 5.007858
1.788742 -2.210983 5.009293
1.792496 -2.211899 5.004532
1.802139 -2.208572 5.012039
1.806503 -2.212540 5.003647
1.807297 -2.214218 5.001114
1.805191 -2.212448 5.009964
1.807053 -2.210434 5.028305
1.797409 -2.213577 5.018539
1.805283 -2.211746 5.024796
1.760788 -2.225052 5.052933
1.754715 -2.228683 5.051315
1.767502 -2.221725 5.055740
1.772476 -2.219406 5.053513
1.773911 -2.216446 5.040756
1.780716 -2.215958 5.032730
1.779648 -2.217239 5.037643
1.773636 -2.217819 5.057114
1.780685 -2.215927 5.062363
1.784012 -2.211838 5.032120
1.787643 -2.213150 5.036575
1.792862 -2.212112 5.031387
1.802475 -2.207352 5.044174
1.804642 -2.211502 5.037369
1.783157 -2.212112 5.057175
1.793259 -2.212479 5.058487
1.805466 -2.211990 5.054855
1.797836 -2.214096 5.049210
1.807510 -2.209793 5.054398
1.859268 -2.221176 5.039017
1.863174 -2.225510 5.010452
1.860611 -2.222794 5.013443
1.853592 -2.218765 5.019394
1.815689 -2.213120 5.008957
1.821548 -2.213211 5.002823
1.835800 -2.215103 5.003220
1.836288 -2.215714 5.006149
1.822250 -2.209152 5.025497
1.824326 -2.212265 5.017349
1.834244 -2.213242 5.029770
1.838791 -2.210953 5.021439
1.836472 -2.211380 5.026260
1.849136 -2.217789 5.004440
1.849564 -2.217453 5.030777
1.846939 -2.217331 5.020096
1.863693 -2.223282 5.034988
1.864212 -2.221664 5.060257
1.872330 -2.224838 5.058517
1.822372 -2.209915 5.041428
1.813797 -2.210800 5.033005
1.822586 -2.209976 5.053085
1.833664 -2.212540 5.057571
1.841507 -2.212051 5.051926
1.836807 -2.212234 5.053818
1.838425 -2.208786 5.053146
1.845871 -2.216049 5.046524
1.850082 -2.215561 5.055740
1.750900 -2.227036 5.104111
1.751663 -2.229202 5.072769
1.750290 -2.231888 5.075119
1.765488 -2.220840 5.069504
1.760635 -2.224838 5.082321
1.754868 -2.228897 5.081650
1.750229 -2.229996 5.079941
1.766891 -2.220963 5.083908
1.773880 -2.219498 5.082138
1.760544 -2.206223 5.065933
1.774094 -2.215042 5.072861
1.780167 -2.215622 5.062912
1.773392 -2.217514 5.086319
1.778336 -2.212967 5.080032
1.780594 -2.215469 5.089706
1.779892 -2.214951 5.090012
1.787766 -2.213333 5.066635
1.804001 -2.207687 5.077255
1.806686 -2.211929 5.066360
1.786575 -2.211838 5.093155
1.793747 -2.211563 5.084518
1.804428 -2.210098 5.093002
1.797592 -2.213791 5.078323
1.805405 -2.211868 5.084427
1.807877 -2.210373 5.081894
1.753342 -2.226944 5.107315
1.765945 -2.220200 5.095810
1.759750 -2.223709 5.109909
1.766342 -2.220505 5.123245
1.766281 -2.220200 5.112259
1.774460 -2.213852 5.105118
1.776627 -2.214645 5.108200
1.770798 -2.214157 5.101395
1.779190 -2.214035 5.118118
1.773300 -2.218521 5.109695
1.772659 -2.216599 5.114334
1.781204 -2.212967 5.114304
1.795334 -2.211014 5.101883
1.802444 -2.204056 5.108170
1.803024 -2.208969 5.107742
1.808456 -2.208023 5.106613
1.786240 -2.211411 5.122391
1.794327 -2.209335 5.109390
1.805283 -2.209885 5.121445
1.823563 -2.207718 5.104782
1.857407 -2.218948 5.063370
1.867691 -2.219315 5.075424
1.823318 -2.211075 5.073685
1.813828 -2.210861 5.062698
1.830338 -2.208511 5.078110
1.843369 -2.213058 5.069229
1.837448 -2.208817 5.077438
1.813553 -2.210526 5.091751
1.823044 -2.209427 5.079453
1.828293 -2.204758 5.084000
1.837418 -2.205887 5.084488
1.851730 -2.212173 5.077499
1.850693 -2.212784 5.079941
1.860764 -2.213882 5.090317
1.864914 -2.217239 5.082870
1.862717 -2.213425 5.091568
1.821609 -2.208969 5.098740
1.828903 -2.206924 5.104233
1.841782 -2.211105 5.094559
1.837997 -2.207199 5.102829
1.813095 -2.209915 5.120499
1.829025 -2.204941 5.120987
1.837296 -2.205765 5.112167
1.835068 -2.201187 5.114914
1.851273 -2.209488 5.103775
1.850113 -2.210251 5.102829
1.865646 -2.212479 5.105301
1.845474 -2.204666 5.120010
1.847855 -2.206375 5.110947
1.859818 -2.209976 5.113541
1.881729 -2.220047 5.100204
1.890213 -2.234756 5.043564
1.876755 -2.229782 5.013290
1.877640 -2.231155 5.014359
1.888565 -2.233719 5.008621
1.889664 -2.236893 5.018845
1.894852 -2.240311 5.016403
1.903580 -2.242447 5.022934
1.891006 -2.235733 5.035172
1.887253 -2.230362 5.039780
1.877274 -2.228195 5.038467
1.875259 -2.228317 5.037064
1.904099 -2.240311 5.047653
1.877853 -2.225204 5.062393
1.889114 -2.233505 5.059402
1.912155 -2.249130 5.047073
1.891251 -2.224533 5.109024
1.904495 -2.240799 5.074997
1.884872 -2.228470 5.077408
1.884537 -2.225266 5.069992
1.883774 -2.226669 5.075394
1.890793 -2.231888 5.067642
1.903580 -2.239029 5.082870
1.878372 -2.223404 5.087601
1.891373 -2.228592 5.091415
1.905472 -2.231033 5.092514
1.908249 -2.244522 5.065872
1.912094 -2.237778 5.090744
1.918015 -2.247269 5.080093
1.922287 -2.249710 5.088364
1.916489 -2.231247 5.087112
1.919601 -2.229660 5.090012
1.897232 -2.231583 5.095444
1.905045 -2.229507 5.101517
1.878922 -2.221115 5.112411
1.876785 -2.218918 5.114975
1.905716 -2.233810 5.122269
1.891953 -2.226303 5.116226
1.911697 -2.225662 5.103958
1.752670 -2.222214 5.234146
1.753464 -2.226547 5.170242
1.751328 -2.228775 5.132919
1.754074 -2.227890 5.139877
1.752396 -2.226822 5.137344
1.760056 -2.224075 5.141159
1.766891 -2.218887 5.148880
1.765732 -2.219498 5.141098
1.774796 -2.212631 5.137436
1.773636 -2.218033 5.137833
1.772751 -2.214066 5.128189
1.768997 -2.214767 5.151810
1.772293 -2.216141 5.143692
1.775894 -2.214035 5.144638
1.779129 -2.213974 5.148453
1.794632 -2.210220 5.137405
1.795486 -2.211166 5.132553
1.808853 -2.208084 5.133835
1.785965 -2.211075 5.152115
1.781509 -2.213852 5.142349
1.805618 -2.209396 5.149643
1.804001 -2.210159 5.140854
1.805588 -2.206436 5.142532
1.812210 -2.208847 5.148392
1.760025 -2.224045 5.171768
1.754044 -2.227829 5.170395
1.750290 -2.229874 5.158829
1.751846 -2.227676 5.159134
1.751328 -2.229782 5.187485
1.752274 -2.227371 5.186203
1.765976 -2.219772 5.172409
1.767197 -2.219650 5.176987
1.774368 -2.217758 5.166275
1.777298 -2.214188 5.171371
1.779404 -2.214310 5.179947
1.772446 -2.216324 5.174820
1.768509 -2.215012 5.177322
1.776718 -2.214249 5.181686
1.795090 -2.209793 5.164322
1.781967 -2.213272 5.169113
1.795334 -2.210983 5.162643
1.803726 -2.209824 5.170609
1.809250 -2.208023 5.161057
1.785660 -2.210709 5.181961
1.806046 -2.205368 5.175034
1.811966 -2.208572 5.178329
1.806107 -2.208969 5.178024
1.824356 -2.207809 5.159256
1.821518 -2.208847 5.128616
1.823898 -2.208420 5.132584
1.828445 -2.206345 5.133072
1.838577 -2.204483 5.127304
1.839584 -2.205307 5.150284
1.838089 -2.206711 5.144577
1.851578 -2.211411 5.132767
1.865860 -2.215378 5.135269
1.863022 -2.213760 5.152512
1.861008 -2.212662 5.146622
1.820969 -2.208176 5.157486
1.829117 -2.207169 5.165421
1.830429 -2.205460 5.158279
1.838821 -2.206711 5.156754
1.825027 -2.207077 5.185959
1.820450 -2.207565 5.186722
1.839218 -2.206924 5.184341
1.838608 -2.207321 5.176529
1.838364 -2.202164 5.181656
1.849319 -2.209274 5.160995
1.852127 -2.209488 5.158188
1.874283 -2.215958 5.168381
1.866226 -2.215622 5.162796
1.852646 -2.207718 5.183792
1.857101 -2.209946 5.172531
1.866837 -2.212814 5.187485
1.860275 -2.210495 5.175308
1.759659 -2.223587 5.232925
1.754044 -2.225632 5.202866
1.759445 -2.223312 5.201004
1.753616 -2.227280 5.200089
1.765793 -2.219559 5.202866
1.752640 -2.227768 5.214157
1.751846 -2.229416 5.215927
1.767654 -2.218948 5.203781
1.768112 -2.215225 5.202957
1.774612 -2.217239 5.194504
1.777176 -2.214249 5.218643
1.772110 -2.215897 5.204849
1.776718 -2.211838 5.203201
1.779221 -2.214096 5.210403
1.782425 -2.212906 5.196182
1.795700 -2.207382 5.189346
1.794998 -2.210587 5.192490
1.803360 -2.209335 5.200363
1.809738 -2.207230 5.187698
1.785660 -2.210678 5.212967
1.796066 -2.207626 5.217148
1.810287 -2.205551 5.213547
1.807266 -2.208939 5.206894
1.811783 -2.208359 5.208725
1.806076 -2.203262 5.207108
1.753281 -2.226852 5.230301
1.765701 -2.219437 5.233810
1.768112 -2.218948 5.231400
1.753311 -2.224838 5.238937
1.765793 -2.215714 5.227585
1.777176 -2.217911 5.224197
1.777298 -2.210922 5.235886
1.771744 -2.215439 5.235001
1.778183 -2.212784 5.238632
1.782883 -2.212326 5.223221
1.795486 -2.211166 5.224991
1.803116 -2.209091 5.230881
1.808487 -2.204330 5.230362
1.805252 -2.207199 5.233932
1.785507 -2.210495 5.243820
1.783371 -2.211258 5.249863
1.796555 -2.206955 5.244156
1.810806 -2.203873 5.239548
1.805405 -2.200668 5.238876
1.820938 -2.208145 5.219040
1.829086 -2.207138 5.196091
1.829941 -2.204941 5.194992
1.825455 -2.206406 5.212845
1.839615 -2.206802 5.211777
1.838699 -2.207443 5.207626
1.839615 -2.202072 5.214859
1.848160 -2.207901 5.188431
1.860825 -2.211227 5.202927
1.872849 -2.214249 5.194962
1.853012 -2.208481 5.212082
1.867233 -2.212936 5.215134
1.860062 -2.210220 5.205368
1.828262 -2.206161 5.224747
1.826645 -2.202957 5.230698
1.819016 -2.205826 5.244766
1.840256 -2.203842 5.236465
1.837540 -2.206009 5.235367
1.826126 -2.203110 5.237198
1.839157 -2.199844 5.246902
1.859207 -2.209244 5.233994
1.848434 -2.208206 5.219986
1.859756 -2.209976 5.230667
1.872238 -2.213547 5.224106
1.846725 -2.206192 5.246323
1.853500 -2.207321 5.238632
1.867752 -2.211441 5.241287
1.893845 -2.221909 5.221512
1.879868 -2.219315 5.165115
1.879440 -2.219498 5.138016
1.891769 -2.225143 5.140366
1.892380 -2.225662 5.142807
1.919479 -2.238693 5.125839
1.919754 -2.241104 5.155472
1.909439 -2.234665 5.143143
1.906326 -2.230515 5.146317
1.880081 -2.216263 5.131210
1.875534 -2.217453 5.141586
1.889816 -2.222824 5.165176
1.892838 -2.224716 5.169235
1.920181 -2.240829 5.182632
1.909744 -2.235001 5.174088
1.906754 -2.230270 5.173447
1.880936 -2.215744 5.164139
1.894363 -2.220413 5.247726
1.887833 -2.220505 5.190201
1.893387 -2.222549 5.194565
1.906052 -2.230698 5.194443
1.886856 -2.219345 5.218185
1.903732 -2.227982 5.218704
1.907059 -2.231857 5.202499
1.920761 -2.237869 5.207230
1.881577 -2.214920 5.196915
1.880356 -2.217789 5.191055
1.901993 -2.225937 5.244736
1.921249 -2.236771 5.233780
1.907700 -2.227798 5.226089
1.929062 -2.245865 5.241379
1.882401 -2.214310 5.229935
1.880753 -2.218002 5.218826
1.881393 -2.214676 5.243210
1.884262 -2.216293 5.241928
1.714828 -2.406509 5.355453
1.716629 -2.412033 5.349777
1.737930 -2.451492 5.292740
1.738144 -2.444870 5.264572
1.745865 -2.452133 5.253403
1.741867 -2.455429 5.273972
1.730545 -2.437881 5.275314
1.744064 -2.452438 5.274277
1.738937 -2.451523 5.265762
1.745895 -2.452530 5.282791
1.747421 -2.457901 5.305862
1.738266 -2.443466 5.296951
1.747574 -2.452225 5.302414
1.714127 -2.415451 5.292709
1.714157 -2.416794 5.259537
1.714249 -2.416122 5.265182
1.714310 -2.414200 5.252548
1.708298 -2.408279 5.274368
1.722122 -2.425461 5.264786
1.724899 -2.435928 5.264145
1.725143 -2.435257 5.264542
1.704086 -2.399490 5.254990
1.699692 -2.379318 5.262405
1.700943 -2.380661 5.254623
1.703140 -2.386581 5.251419
1.706497 -2.397293 5.279099
1.705215 -2.402634 5.265640
1.705063 -2.394882 5.267349
1.699295 -2.381027 5.279617
1.698898 -2.383682 5.274551
1.713455 -2.417068 5.285110
1.714340 -2.414627 5.281693
1.709000 -2.408005 5.303207
1.722244 -2.424759 5.295975
1.726059 -2.434250 5.292496
1.728378 -2.435074 5.292465
1.730728 -2.435562 5.309250
1.705002 -2.394150 5.294907
1.704758 -2.399582 5.281357
1.705643 -2.405716 5.282639
1.699631 -2.378647 5.290695
1.702988 -2.384689 5.283859
1.705978 -2.399643 5.308121
1.704727 -2.402115 5.302475
1.701004 -2.381027 5.306686
1.748398 -2.452469 5.355301
1.740829 -2.448563 5.322281
1.746750 -2.452499 5.328079
1.746109 -2.449844 5.317459
1.744827 -2.455734 5.332870
1.738419 -2.441452 5.330551
1.739822 -2.448532 5.349380
1.746292 -2.447769 5.351456
1.743393 -2.454239 5.360672
1.738510 -2.441055 5.361893
1.714188 -2.417770 5.372330
1.715347 -2.413773 5.321182
1.714615 -2.409958 5.319382
1.716446 -2.416885 5.312943
1.718735 -2.416824 5.340469
1.710831 -2.413040 5.330154
1.711319 -2.408615 5.333145
1.726303 -2.433304 5.320297
1.730728 -2.434982 5.319992
1.730911 -2.433090 5.343704
1.722397 -2.422012 5.330704
1.707535 -2.391464 5.324295
1.706772 -2.391983 5.317703
1.702286 -2.379410 5.320755
1.701889 -2.387863 5.315262
1.701889 -2.375046 5.327988
1.704453 -2.384933 5.317581
1.710007 -2.404800 5.341507
1.708603 -2.399490 5.335831
1.704666 -2.380753 5.334976
1.713058 -2.408920 5.362808
1.718521 -2.417007 5.366592
1.730270 -2.435226 5.345901
1.727676 -2.431534 5.348953
1.730942 -2.433731 5.373367
1.722488 -2.421951 5.361374
1.730240 -2.435379 5.372147
1.705612 -2.393082 5.358658
1.708908 -2.389664 5.352982
1.704391 -2.379929 5.350571
1.707840 -2.387741 5.352829
1.707108 -2.385086 5.359207
1.710037 -2.399490 5.362900
1.703995 -2.380997 5.360764
1.703506 -2.377304 5.364975
1.702744 -2.302383 5.348587
1.697525 -2.359970 5.293503
1.695755 -2.361374 5.253128
1.696793 -2.355240 5.261765
1.696091 -2.351700 5.253006
1.695877 -2.359299 5.255997
1.698807 -2.347641 5.250992
1.697250 -2.361374 5.279953
1.701462 -2.371078 5.272690
1.699722 -2.363907 5.272232
1.698044 -2.347366 5.278122
1.699234 -2.335373 5.264175
1.696854 -2.330215 5.256332
1.694473 -2.342087 5.253922
1.701797 -2.318954 5.260605
1.696762 -2.322372 5.256882
1.697220 -2.343399 5.276138
1.695999 -2.342056 5.280777
1.698624 -2.324936 5.275162
1.698013 -2.319565 5.273270
1.699509 -2.371719 5.288925
1.697678 -2.356461 5.295975
1.697037 -2.351547 5.281906
1.698257 -2.361435 5.306595
1.702316 -2.369675 5.300919
1.699051 -2.345840 5.306442
1.699356 -2.352127 5.311691
1.698013 -2.344467 5.310196
1.697861 -2.331619 5.290939
1.701767 -2.318192 5.288254
1.698471 -2.322311 5.283859
1.698990 -2.322281 5.287796
1.695663 -2.342300 5.306625
1.701309 -2.336441 5.298233
1.698441 -2.320145 5.306259
1.698502 -2.324203 5.303421
1.697861 -2.322586 5.309555
1.700485 -2.311325 5.295364
1.700394 -2.302170 5.260605
1.700180 -2.310928 5.262833
1.707596 -2.284866 5.263962
1.705002 -2.282303 5.264969
1.704605 -2.303055 5.271744
1.711990 -2.281937 5.275711
1.704330 -2.292770 5.272049
1.710526 -2.281479 5.268417
1.710281 -2.276199 5.254105
1.718857 -2.268387 5.276413
1.722916 -2.259995 5.277176
1.721725 -2.260269 5.267593
1.722427 -2.257004 5.270981
1.726913 -2.251572 5.268082
1.718826 -2.260727 5.274826
1.718918 -2.264175 5.277634
1.702011 -2.301407 5.282333
1.701797 -2.302170 5.287460
1.706253 -2.282333 5.291733
1.706436 -2.296341 5.284103
1.705185 -2.296799 5.287521
1.706955 -2.287796 5.284439
1.705124 -2.302689 5.300400
1.705490 -2.294357 5.307480
1.708420 -2.285934 5.298233
1.711472 -2.281326 5.297287
1.711533 -2.277878 5.289688
1.714798 -2.270615 5.282547
1.713455 -2.280014 5.304489
1.718613 -2.263809 5.308670
1.716873 -2.261154 5.299728
1.721970 -2.259720 5.296066
1.723129 -2.258286 5.284225
1.720139 -2.268387 5.309830
1.728561 -2.253738 5.304977
1.722733 -2.257431 5.303848
1.723221 -2.261093 5.306259
1.704544 -2.366379 5.357895
1.699326 -2.360764 5.331192
1.701065 -2.361252 5.334396
1.704086 -2.367569 5.329788
1.697983 -2.350693 5.339310
1.699570 -2.359116 5.333633
1.699631 -2.344620 5.334610
1.698349 -2.344955 5.343185
1.697983 -2.331802 5.323135
1.699326 -2.322250 5.324844
1.702652 -2.316727 5.316574
1.700211 -2.333267 5.329971
1.697342 -2.342270 5.333755
1.698654 -2.320419 5.338882
1.699112 -2.323868 5.332199
1.698624 -2.322647 5.336136
1.700363 -2.350418 5.353745
1.701096 -2.361221 5.370468
1.701309 -2.361374 5.360733
1.701584 -2.361740 5.369095
1.698959 -2.350571 5.368454
1.698257 -2.332169 5.356094
1.702591 -2.315964 5.344376
1.698837 -2.329727 5.361557
1.696732 -2.342514 5.359604
1.701035 -2.342758 5.363388
1.702377 -2.315384 5.372116
1.699570 -2.322128 5.361923
1.697861 -2.322922 5.361862
1.699356 -2.323318 5.360855
1.698898 -2.320755 5.371933
1.704269 -2.300827 5.356735
1.700241 -2.310989 5.326492
1.702255 -2.301712 5.314865
1.700668 -2.302505 5.312851
1.703415 -2.301071 5.327744
1.707718 -2.287979 5.321609
1.705521 -2.293411 5.315872
1.705978 -2.294540 5.313309
1.708023 -2.282272 5.318893
1.699966 -2.302750 5.338577
1.704544 -2.293076 5.336594
1.708267 -2.285751 5.329788
1.706528 -2.293167 5.340103
1.711807 -2.278214 5.322495
1.711227 -2.280533 5.325516
1.714523 -2.270218 5.313583
1.717606 -2.261215 5.326309
1.715500 -2.277664 5.333664
1.718246 -2.263290 5.339706
1.721970 -2.257431 5.320724
1.723434 -2.259842 5.325333
1.720169 -2.266708 5.342361
1.728500 -2.253647 5.336990
1.723862 -2.258865 5.332169
1.724380 -2.259537 5.341049
1.707809 -2.287796 5.358627
1.707809 -2.282486 5.344955
1.705612 -2.291855 5.348526
1.701920 -2.302658 5.365982
1.700760 -2.311661 5.360306
1.705460 -2.282944 5.369797
1.708115 -2.285507 5.361588
1.705185 -2.293900 5.370956
1.706955 -2.293137 5.368332
1.711014 -2.277176 5.352310
1.711746 -2.280136 5.354324
1.714157 -2.269730 5.344742
1.717728 -2.261368 5.352615
1.714218 -2.277847 5.360764
1.717850 -2.262772 5.370956
1.724442 -2.257187 5.358688
1.722244 -2.257339 5.357773
1.722580 -2.258743 5.353256
1.728439 -2.253586 5.369308
1.724380 -2.259567 5.373642
1.719620 -2.264328 5.374527
1.714279 -2.406876 5.478745
1.746445 -2.446426 5.415634
1.739822 -2.447739 5.377213
1.746262 -2.448715 5.380692
1.749252 -2.452560 5.382187
1.746567 -2.455338 5.391373
1.740707 -2.446274 5.405685
1.738541 -2.441727 5.391647
1.740097 -2.445969 5.433243
1.738785 -2.438522 5.428146
1.718124 -2.423325 5.416855
1.716019 -2.411697 5.377213
1.717148 -2.410049 5.405869
1.713852 -2.408676 5.391953
1.726913 -2.431320 5.376266
1.733109 -2.435257 5.400223
1.727615 -2.429977 5.404648
1.720200 -2.416977 5.393906
1.722641 -2.420120 5.395187
1.710373 -2.399643 5.389420
1.714951 -2.404953 5.388687
1.709885 -2.404495 5.378616
1.705673 -2.380966 5.388077
1.709335 -2.388535 5.381088
1.704330 -2.379196 5.379135
1.708969 -2.387497 5.386490
1.707291 -2.395432 5.396042
1.704514 -2.378708 5.400345
1.707382 -2.379684 5.398605
1.717392 -2.409103 5.434036
1.731094 -2.432266 5.406754
1.719742 -2.417221 5.420059
1.727158 -2.429520 5.432297
1.732468 -2.435501 5.426285
1.731125 -2.432816 5.437088
1.722733 -2.418777 5.428513
1.710251 -2.404465 5.415970
1.711807 -2.399643 5.416672
1.715012 -2.405228 5.419205
1.706711 -2.380997 5.415054
1.710617 -2.386826 5.409866
1.705063 -2.378922 5.408249
1.708847 -2.385666 5.419235
1.708115 -2.396561 5.431015
1.707535 -2.378067 5.432236
1.709641 -2.386734 5.437241
1.705460 -2.379990 5.435867
1.748062 -2.454117 5.479050
1.746536 -2.446426 5.446976
1.748917 -2.453110 5.461441
1.738998 -2.445999 5.460556
1.738693 -2.440811 5.455734
1.746658 -2.445511 5.480179
1.739548 -2.444748 5.489090
1.716354 -2.408279 5.489517
1.714371 -2.407608 5.449875
1.717239 -2.408401 5.461990
1.730392 -2.435898 5.451553
1.719589 -2.417374 5.446426
1.726913 -2.429276 5.460098
1.722794 -2.418808 5.459824
1.715103 -2.404434 5.451706
1.710281 -2.399979 5.442184
1.707199 -2.381729 5.450882
1.708298 -2.380051 5.439041
1.705154 -2.381393 5.440567
1.708237 -2.396744 5.464188
1.713516 -2.406021 5.454453
1.709946 -2.400192 5.468521
1.707596 -2.377762 5.463913
1.709152 -2.386337 5.465012
1.706192 -2.378159 5.466537
1.705338 -2.381546 5.467209
1.704697 -2.378922 5.466293
1.731308 -2.430313 5.472733
1.734848 -2.435593 5.480881
1.719223 -2.417618 5.472763
1.728561 -2.427261 5.489365
1.738998 -2.436447 5.494797
1.722946 -2.417709 5.493271
1.719986 -2.417709 5.499863
1.706894 -2.379562 5.483597
1.707321 -2.395432 5.494217
1.715225 -2.403091 5.485458
1.713547 -2.405838 5.491806
1.711288 -2.400223 5.495956
1.704819 -2.376724 5.494583
1.707474 -2.382401 5.487747
1.708603 -2.385941 5.492813
1.706680 -2.381546 5.494675
1.704453 -2.378616 5.498703
1.702408 -2.301926 5.479111
1.701401 -2.361740 5.413437
1.701645 -2.361526 5.387222
1.704697 -2.365524 5.385910
1.699203 -2.346146 5.378098
1.701797 -2.362167 5.405045
1.699722 -2.360458 5.405502
1.699570 -2.350204 5.397415
1.698013 -2.331802 5.387650
1.697433 -2.342606 5.386276
1.700150 -2.323074 5.389938
1.698166 -2.323044 5.388351
1.700851 -2.339706 5.401474
1.700882 -2.342087 5.391220
1.700424 -2.330124 5.395432
1.698563 -2.321365 5.398636
1.703659 -2.313583 5.400955
1.704697 -2.364731 5.413864
1.699356 -2.346359 5.411118
1.701675 -2.362015 5.437393
1.700668 -2.345596 5.422714
1.698227 -2.348770 5.425278
1.697617 -2.331253 5.419052
1.699600 -2.342270 5.418350
1.697495 -2.342758 5.412674
1.698929 -2.323105 5.415176
1.699539 -2.321609 5.406509
1.700027 -2.322311 5.418472
1.697891 -2.319351 5.434158
1.698502 -2.325882 5.426712
1.702347 -2.313797 5.428146
1.699142 -2.321426 5.435928
1.701309 -2.303116 5.418289
1.702347 -2.301865 5.379776
1.705826 -2.301010 5.386215
1.705185 -2.289627 5.380814
1.701065 -2.302963 5.391769
1.701279 -2.312393 5.394516
1.705032 -2.293686 5.403122
1.707596 -2.290817 5.394455
1.707230 -2.282883 5.397202
1.707138 -2.287186 5.395401
1.708267 -2.285721 5.394730
1.711472 -2.277756 5.386337
1.712387 -2.279800 5.383224
1.714279 -2.269913 5.377670
1.714371 -2.276932 5.388840
1.716904 -2.261673 5.378433
1.716690 -2.261856 5.404678
1.717636 -2.262497 5.403152
1.724930 -2.256424 5.386337
1.723404 -2.258499 5.382309
1.722000 -2.256454 5.399002
1.723557 -2.257828 5.395279
1.728256 -2.253311 5.401474
1.702682 -2.302292 5.413559
1.705948 -2.300430 5.414932
1.708267 -2.288193 5.420364
1.708206 -2.291885 5.415817
1.700760 -2.311661 5.425674
1.708328 -2.287582 5.432968
1.707291 -2.283066 5.423660
1.708420 -2.285934 5.428146
1.705032 -2.293686 5.436142
1.716019 -2.274857 5.418045
1.711441 -2.277725 5.419144
1.712540 -2.279221 5.411942
1.714096 -2.269638 5.409836
1.717087 -2.262009 5.431351
1.717728 -2.262619 5.436508
1.725449 -2.255447 5.413895
1.720688 -2.263992 5.408005
1.723648 -2.257919 5.411057
1.722672 -2.257095 5.432053
1.723038 -2.257797 5.435379
1.727524 -2.252335 5.432266
1.700180 -2.360245 5.480087
1.701035 -2.361954 5.439651
1.700363 -2.360580 5.442917
1.704880 -2.363754 5.442032
1.700668 -2.347427 5.450699
1.697556 -2.343857 5.438156
1.702255 -2.361984 5.466904
1.700882 -2.349594 5.455704
1.699875 -2.341263 5.446609
1.695969 -2.343124 5.438187
1.699844 -2.321518 5.447067
1.698257 -2.323380 5.441208
1.698868 -2.342941 5.466476
1.698288 -2.332199 5.454239
1.700729 -2.327103 5.461288
1.697739 -2.323624 5.467453
1.702133 -2.362625 5.471786
1.704605 -2.363174 5.469986
1.699814 -2.346939 5.478470
1.699173 -2.347946 5.483475
1.701309 -2.362259 5.492935
1.704453 -2.362473 5.498093
1.700821 -2.344803 5.486282
1.701248 -2.339401 5.475693
1.699234 -2.321213 5.471695
1.699905 -2.320877 5.475937
1.699142 -2.321182 5.473129
1.698654 -2.332687 5.488724
1.697250 -2.343338 5.492081
1.698593 -2.323685 5.494553
1.701004 -2.325729 5.494370
1.700851 -2.303513 5.471054
1.699661 -2.303482 5.443771
1.702103 -2.301529 5.444809
1.705154 -2.299271 5.443130
1.705154 -2.283524 5.448837
1.707932 -2.289810 5.448349
1.708755 -2.287460 5.448349
1.700546 -2.311417 5.458176
1.703445 -2.312149 5.457047
1.707718 -2.284988 5.459152
1.716385 -2.273788 5.446487
1.711411 -2.277695 5.452255
1.714249 -2.279434 5.441696
1.713913 -2.269424 5.442490
1.716415 -2.262253 5.457504
1.726120 -2.252823 5.439865
1.722855 -2.256851 5.439285
1.721512 -2.263382 5.441330
1.727829 -2.252731 5.466629
1.704697 -2.298325 5.471634
1.707565 -2.287613 5.480881
1.705307 -2.294052 5.470352
1.709030 -2.287766 5.470383
1.709274 -2.286514 5.476181
1.706924 -2.283463 5.476486
1.699661 -2.303818 5.496933
1.700394 -2.311172 5.491074
1.703751 -2.311111 5.485458
1.707870 -2.285202 5.493271
1.714157 -2.269730 5.476700
1.717056 -2.272476 5.475204
1.713242 -2.278214 5.469803
1.716476 -2.262405 5.484146
1.718216 -2.263229 5.471481
1.710373 -2.279373 5.497849
1.711411 -2.277664 5.485764
1.713211 -2.277512 5.498672
1.724014 -2.256790 5.468765
1.726395 -2.254349 5.470261
1.723984 -2.259048 5.471786
1.723038 -2.263718 5.475327
1.721909 -2.256454 5.468918
1.724564 -2.256393 5.497940
1.726974 -2.252640 5.497452
1.955002 -2.421585 5.360123
1.776505 -2.469467 5.370682
1.770523 -2.469589 5.288437
1.767807 -2.469711 5.260727
1.777603 -2.471329 5.254929
1.777725 -2.473892 5.276321
1.808701 -2.485733 5.264786
1.798233 -2.486618 5.254318
1.804855 -2.485001 5.254929
1.785324 -2.474991 5.279861
1.792740 -2.480331 5.271866
1.800644 -2.483414 5.267685
1.769302 -2.467178 5.260941
1.753983 -2.458054 5.274429
1.756424 -2.465256 5.269516
1.761795 -2.462723 5.267532
1.777756 -2.469833 5.287552
1.775558 -2.474686 5.302567
1.808823 -2.484695 5.296738
1.798294 -2.485825 5.281937
1.808853 -2.484787 5.283371
1.798386 -2.484940 5.309708
1.792923 -2.478531 5.305191
1.800766 -2.482376 5.299728
1.769424 -2.465836 5.293320
1.754166 -2.456009 5.308029
1.756851 -2.464157 5.297379
1.761887 -2.462143 5.298691
1.816940 -2.485275 5.296707
1.816666 -2.487686 5.262497
1.825272 -2.487045 5.264511
1.826950 -2.493698 5.264847
1.832565 -2.489700 5.261063
1.841141 -2.489182 5.263016
1.849228 -2.487381 5.267044
1.857925 -2.485764 5.270859
1.866379 -2.483505 5.275711
1.825363 -2.486801 5.295242
1.832840 -2.487106 5.295639
1.830063 -2.490677 5.294510
1.841385 -2.486832 5.297195
1.849197 -2.488632 5.295242
1.857956 -2.486099 5.300583
1.866501 -2.482986 5.306900
1.777634 -2.471634 5.359451
1.771652 -2.469650 5.315201
1.777817 -2.469498 5.318497
1.773239 -2.469650 5.342422
1.776474 -2.473251 5.330917
1.785538 -2.473312 5.313004
1.792953 -2.478745 5.335373
1.798538 -2.484085 5.337570
1.800797 -2.482925 5.329300
1.808945 -2.483994 5.328445
1.757950 -2.462570 5.325790
1.769516 -2.465012 5.325119
1.754288 -2.455124 5.340012
1.762070 -2.459915 5.332809
1.785660 -2.472122 5.345596
1.793198 -2.476028 5.370743
1.801102 -2.479507 5.365738
1.800308 -2.481979 5.366562
1.809128 -2.482254 5.362137
1.757126 -2.462418 5.353012
1.769669 -2.463638 5.358047
1.777939 -2.468491 5.350845
1.754379 -2.453842 5.372940
1.762161 -2.459274 5.364578
1.830917 -2.488480 5.350662
1.817001 -2.485245 5.327316
1.825485 -2.485764 5.327469
1.828384 -2.491104 5.321182
1.841415 -2.487259 5.327011
1.814468 -2.484360 5.312851
1.833023 -2.485764 5.328384
1.818832 -2.484055 5.341782
1.849442 -2.486343 5.329575
1.858353 -2.482346 5.337326
1.866714 -2.480881 5.340958
1.825638 -2.484451 5.360428
1.833176 -2.484665 5.361008
1.841721 -2.484512 5.362350
1.826950 -2.483414 5.373001
1.817215 -2.483170 5.361557
1.858353 -2.482620 5.367752
1.849808 -2.482620 5.366562
1.866898 -2.479538 5.374069
1.966476 -2.390915 5.350571
1.875381 -2.485672 5.288254
1.879440 -2.483536 5.263077
1.883072 -2.477005 5.258560
1.875015 -2.480820 5.251205
1.891953 -2.473679 5.265274
1.900406 -2.471237 5.270584
1.917221 -2.462051 5.258041
1.935654 -2.445663 5.257523
1.908646 -2.466873 5.278915
1.925980 -2.454300 5.271957
1.883194 -2.476120 5.290176
1.875198 -2.479691 5.283218
1.892136 -2.472519 5.297409
1.900742 -2.468277 5.305679
1.917435 -2.460464 5.290726
1.935623 -2.446304 5.286484
1.908798 -2.465744 5.311050
1.926102 -2.453659 5.303146
1.945908 -2.433395 5.309036
1.946030 -2.431351 5.252335
1.955856 -2.412552 5.254166
1.945755 -2.434219 5.277573
1.955551 -2.415604 5.279099
1.955246 -2.418625 5.304184
1.967972 -2.377243 5.312149
1.883530 -2.473831 5.355026
1.883286 -2.475632 5.321365
1.875259 -2.479630 5.313614
1.878189 -2.482864 5.317856
1.892166 -2.472763 5.327408
1.900955 -2.466812 5.338516
1.917923 -2.456345 5.327835
1.935989 -2.443741 5.320938
1.908890 -2.465347 5.342209
1.926193 -2.453323 5.334122
1.879593 -2.481064 5.346634
1.875534 -2.477127 5.348434
1.879288 -2.480515 5.374435
1.892502 -2.469864 5.362930
1.901138 -2.465652 5.371262
1.917526 -2.460342 5.351822
1.935928 -2.444656 5.349899
1.909073 -2.464462 5.374496
1.926163 -2.454025 5.363602
1.945877 -2.434250 5.337997
1.955154 -2.419785 5.332596
1.967026 -2.385574 5.328842
1.936234 -2.252792 5.332474
1.968735 -2.370132 5.293564
1.935867 -2.251114 5.302658
1.935501 -2.250534 5.274063
1.961685 -2.304337 5.297287
1.961319 -2.303177 5.268173
1.948990 -2.271194 5.265488
1.949356 -2.272354 5.294571
1.974319 -2.335464 5.355392
1.973434 -2.345657 5.337296
1.962692 -2.300827 5.350113
1.962143 -2.303757 5.324844
1.949783 -2.272110 5.322433
1.950333 -2.269302 5.347855
1.777054 -2.470108 5.477158
1.778275 -2.469589 5.415695
1.777634 -2.470840 5.387344
1.778366 -2.469437 5.398239
1.785782 -2.471207 5.377975
1.793320 -2.475204 5.403214
1.801254 -2.478348 5.398849
1.798599 -2.482468 5.393326
1.809341 -2.480240 5.396622
1.757278 -2.461502 5.380936
1.769791 -2.462784 5.390457
1.778183 -2.467758 5.382980
1.754471 -2.453629 5.404312
1.762283 -2.458847 5.396317
1.778091 -2.469650 5.424576
1.785934 -2.469650 5.411789
1.793472 -2.473801 5.436966
1.801376 -2.477280 5.431961
1.800491 -2.480270 5.422592
1.809464 -2.479416 5.429306
1.757004 -2.460922 5.408676
1.778366 -2.465408 5.418045
1.750412 -2.452591 5.409256
1.756516 -2.460464 5.436356
1.762375 -2.457748 5.429367
1.769882 -2.461838 5.423233
1.754593 -2.452560 5.437363
1.751114 -2.452682 5.436203
1.830673 -2.487076 5.406387
1.831955 -2.486954 5.379227
1.817368 -2.481827 5.394821
1.825790 -2.483047 5.393845
1.830215 -2.483261 5.401443
1.833237 -2.484329 5.392624
1.841873 -2.483139 5.395798
1.858536 -2.481125 5.401352
1.849899 -2.482407 5.398026
1.830093 -2.486740 5.434067
1.817459 -2.481369 5.426987
1.826004 -2.481339 5.428085
1.833420 -2.482559 5.426956
1.830399 -2.483383 5.428146
1.841965 -2.482864 5.427536
1.867020 -2.478775 5.406479
1.850021 -2.481491 5.430893
1.858658 -2.480545 5.433701
1.776230 -2.469528 5.470474
1.776993 -2.469711 5.442886
1.786057 -2.468979 5.444290
1.801254 -2.478928 5.451187
1.784134 -2.469193 5.454788
1.801437 -2.477249 5.463669
1.809586 -2.478500 5.462479
1.750626 -2.456284 5.451675
1.778458 -2.464951 5.450333
1.755112 -2.460739 5.463486
1.762436 -2.458084 5.460373
1.754593 -2.453842 5.466782
1.770004 -2.461380 5.455551
1.786026 -2.470078 5.474136
1.793533 -2.473679 5.468857
1.799210 -2.479660 5.477951
1.801620 -2.475266 5.498947
1.809769 -2.476639 5.497543
1.778366 -2.467117 5.478378
1.756454 -2.458939 5.492538
1.762619 -2.455948 5.495804
1.776443 -2.468552 5.498825
1.770096 -2.461014 5.487869
1.754654 -2.452652 5.491623
1.830734 -2.484695 5.490891
1.831345 -2.485031 5.463058
1.817642 -2.479660 5.461502
1.826157 -2.480270 5.461502
1.840775 -2.482498 5.461105
1.833542 -2.481674 5.460007
1.842148 -2.481125 5.462082
1.867111 -2.478348 5.438583
1.850204 -2.480057 5.465012
1.858810 -2.479538 5.467056
1.817795 -2.478714 5.494980
1.826218 -2.479965 5.493942
1.833664 -2.481216 5.492691
1.841263 -2.482620 5.488174
1.842300 -2.480118 5.495682
1.874649 -2.480698 5.484055
1.867203 -2.478104 5.470718
1.850418 -2.478378 5.499741
1.858902 -2.479019 5.499893
1.946457 -2.431015 5.499008
1.883713 -2.472763 5.418991
1.883560 -2.474014 5.385696
1.875656 -2.476578 5.380234
1.878922 -2.479996 5.402237
1.892563 -2.469772 5.394058
1.901260 -2.464676 5.403915
1.917770 -2.458725 5.385361
1.936081 -2.443588 5.382370
1.926498 -2.451340 5.399033
1.875748 -2.475967 5.412460
1.878769 -2.479324 5.430252
1.892715 -2.468948 5.426773
1.901382 -2.464188 5.436020
1.909195 -2.463638 5.406937
1.936295 -2.442123 5.415878
1.918350 -2.453720 5.424820
1.926590 -2.451035 5.430710
1.945908 -2.435013 5.429337
1.946182 -2.432114 5.403000
1.955185 -2.420395 5.392807
1.966202 -2.393387 5.377029
1.955307 -2.419876 5.424698
1.966415 -2.392227 5.409683
1.966110 -2.395096 5.435959
1.875931 -2.475235 5.476822
1.883774 -2.472733 5.450516
1.875809 -2.475906 5.443985
1.877396 -2.479507 5.457565
1.892685 -2.469772 5.456833
1.901169 -2.466751 5.463272
1.909286 -2.463364 5.438705
1.936142 -2.444107 5.443802
1.918289 -2.454849 5.454391
1.926712 -2.450241 5.463455
1.883865 -2.472275 5.482986
1.892929 -2.467697 5.492203
1.909317 -2.463669 5.469742
1.936478 -2.441513 5.479752
1.918442 -2.453903 5.487686
1.926804 -2.449783 5.495987
1.955246 -2.421158 5.485275
1.955124 -2.421829 5.452652
1.946060 -2.434311 5.461838
1.965469 -2.400803 5.457718
1.965652 -2.399673 5.491074
1.964951 -2.298538 5.491074
1.974136 -2.349106 5.397476
1.964218 -2.295792 5.430527
1.963211 -2.298965 5.376602
1.963608 -2.299820 5.405991
1.950790 -2.269119 5.376053
1.951218 -2.269211 5.404648
1.951706 -2.268051 5.432083
1.975327 -2.351669 5.486374
1.974045 -2.360825 5.437881
1.974442 -2.361252 5.467148
1.952682 -2.265610 5.487289
1.964706 -2.294693 5.458206
1.952347 -2.263901 5.456619
1.737381 -2.242020 5.355392
1.747421 -2.231339 5.358047
1.734085 -2.240036 5.285416
1.735184 -2.239700 5.260025
1.743179 -2.237198 5.265396
1.738083 -2.241409 5.257004
1.747696 -2.231705 5.262589
1.733505 -2.248154 5.270523
1.735611 -2.243057 5.269150
1.737930 -2.242233 5.266830
1.735397 -2.244217 5.271255
1.742966 -2.236923 5.296585
1.738754 -2.238663 5.282181
1.742355 -2.232803 5.285599
1.734085 -2.240219 5.311569
1.733505 -2.248123 5.302322
1.739090 -2.239456 5.310989
1.738571 -2.243027 5.300552
1.736862 -2.243088 5.298203
1.735092 -2.242111 5.303421
1.748581 -2.232834 5.297012
1.733841 -2.240585 5.363907
1.737778 -2.242874 5.327164
1.743881 -2.233383 5.323074
1.747818 -2.231827 5.326797
1.733475 -2.240463 5.337418
1.732773 -2.247208 5.332291
1.739548 -2.238937 5.338638
1.737869 -2.242142 5.330612
1.742783 -2.236710 5.328232
1.737442 -2.243484 5.337662
1.732590 -2.246964 5.364151
1.737808 -2.242264 5.370499
1.737503 -2.241684 5.361954
1.740219 -2.236343 5.364304
1.742508 -2.236313 5.359756
1.743118 -2.232742 5.359756
1.739700 -2.239700 5.470078
1.731461 -2.241287 5.415329
1.730942 -2.241165 5.388565
1.737289 -2.241257 5.383896
1.741745 -2.235336 5.390121
1.746475 -2.230148 5.387894
1.732407 -2.246719 5.396317
1.736557 -2.239029 5.402206
1.740738 -2.235214 5.391556
1.737045 -2.241074 5.393234
1.742203 -2.232040 5.396469
1.741226 -2.234390 5.419296
1.736740 -2.240311 5.412186
1.732162 -2.246414 5.428696
1.738480 -2.239792 5.436356
1.741562 -2.235092 5.422592
1.737228 -2.241287 5.426834
1.742691 -2.232040 5.433762
1.746994 -2.230789 5.422470
1.737289 -2.239212 5.469986
1.729691 -2.241684 5.440750
1.737228 -2.239883 5.441147
1.741684 -2.234146 5.447739
1.731003 -2.241684 5.468155
1.732132 -2.246323 5.461899
1.741714 -2.235336 5.456467
1.737228 -2.241287 5.460220
1.746750 -2.230453 5.455032
1.742111 -2.233963 5.476395
1.742416 -2.231674 5.470810
1.731339 -2.241837 5.495041
1.732285 -2.246536 5.496109
1.737076 -2.241104 5.493454
1.741470 -2.235001 5.489365
1.737808 -2.238815 5.499191
1.746445 -2.230057 5.487747
1.936813 -2.249710 5.357651
1.844772 -2.185593 5.354294
1.759598 -2.223495 5.296036
1.752975 -2.226456 5.260910
1.759781 -2.223709 5.264755
1.754074 -2.222366 5.267502
1.753525 -2.227188 5.269058
1.752518 -2.228409 5.272781
1.766251 -2.220108 5.266983
1.762650 -2.216324 5.251755
1.768539 -2.218460 5.258713
1.775101 -2.216141 5.251205
1.775925 -2.213364 5.255051
1.766525 -2.215988 5.280136
1.772079 -2.215866 5.267563
1.778854 -2.213608 5.272171
1.778336 -2.210556 5.268997
1.777420 -2.216721 5.280869
1.794266 -2.209671 5.252792
1.802109 -2.207809 5.259293
1.807541 -2.207748 5.263565
1.785294 -2.210251 5.274796
1.783737 -2.212173 5.278641
1.796921 -2.207413 5.272446
1.810287 -2.206497 5.266953
1.811050 -2.206161 5.269638
1.807755 -2.202042 5.272995
1.753983 -2.226791 5.296616
1.753860 -2.227585 5.295456
1.768875 -2.219467 5.287582
1.757370 -2.224991 5.302383
1.753586 -2.228287 5.301773
1.765915 -2.219711 5.297897
1.780258 -2.215469 5.293564
1.766800 -2.216110 5.306473
1.771744 -2.215439 5.298386
1.778763 -2.213516 5.303787
1.780472 -2.211685 5.302963
1.777603 -2.216110 5.309402
1.794724 -2.210220 5.285812
1.802292 -2.208054 5.291550
1.807877 -2.207230 5.292160
1.785263 -2.210190 5.306625
1.784225 -2.211441 5.305923
1.797348 -2.207779 5.300766
1.810684 -2.206985 5.299911
1.811508 -2.205521 5.296982
1.808304 -2.201065 5.305893
1.826859 -2.204483 5.294327
1.826614 -2.204147 5.251236
1.837143 -2.205551 5.265549
1.819260 -2.206131 5.276962
1.827713 -2.203293 5.268051
1.826401 -2.205185 5.267075
1.840530 -2.205643 5.266068
1.854050 -2.205338 5.264420
1.857986 -2.207779 5.261734
1.859695 -2.209305 5.258987
1.870529 -2.211502 5.250351
1.846695 -2.206161 5.277664
1.870224 -2.211166 5.280869
1.868057 -2.213150 5.270859
1.827133 -2.204758 5.284286
1.841049 -2.204422 5.292770
1.836716 -2.205032 5.295975
1.841934 -2.201767 5.281387
1.819016 -2.205795 5.307999
1.825424 -2.201859 5.304245
1.854446 -2.205704 5.292740
1.857620 -2.207321 5.292160
1.858200 -2.207809 5.286575
1.868698 -2.210007 5.295639
1.846634 -2.206070 5.309158
1.868484 -2.209091 5.307510
1.752762 -2.226212 5.356644
1.754532 -2.225266 5.323166
1.759262 -2.223068 5.327164
1.753525 -2.227158 5.326553
1.756027 -2.221512 5.333817
1.752701 -2.227158 5.329666
1.765732 -2.219467 5.329453
1.769363 -2.218521 5.314651
1.762985 -2.216812 5.330460
1.769882 -2.217392 5.341690
1.771744 -2.215439 5.330582
1.777328 -2.213669 5.329483
1.778549 -2.213242 5.335373
1.780350 -2.209854 5.335403
1.779282 -2.216354 5.338913
1.793991 -2.209335 5.315598
1.802353 -2.208115 5.323715
1.809280 -2.207321 5.321487
1.811966 -2.205551 5.325119
1.784958 -2.209793 5.337845
1.784592 -2.211411 5.334000
1.797745 -2.207321 5.328415
1.810226 -2.206436 5.330612
1.809433 -2.200851 5.339218
1.759018 -2.222733 5.358841
1.753647 -2.226974 5.358719
1.754959 -2.224960 5.351059
1.757339 -2.221573 5.367355
1.765457 -2.219131 5.361038
1.762863 -2.216995 5.356705
1.770401 -2.216354 5.368973
1.771652 -2.215317 5.362717
1.778091 -2.212662 5.366440
1.778091 -2.215042 5.366714
1.776260 -2.212845 5.366104
1.794235 -2.209641 5.348618
1.798294 -2.205917 5.355240
1.808762 -2.206345 5.349716
1.801804 -2.207443 5.354355
1.812393 -2.205093 5.352859
1.782242 -2.210068 5.369186
1.785049 -2.211472 5.362350
1.784378 -2.209091 5.368637
1.809433 -2.205460 5.360550
1.810440 -2.200485 5.372574
1.825851 -2.203232 5.344528
1.827316 -2.204117 5.322037
1.827347 -2.205002 5.316727
1.841476 -2.204239 5.320663
1.836319 -2.204575 5.326767
1.842392 -2.200668 5.314255
1.818436 -2.205124 5.338455
1.825302 -2.201553 5.341263
1.856400 -2.205887 5.320480
1.858475 -2.207291 5.315262
1.854904 -2.205032 5.320114
1.869156 -2.209213 5.322922
1.845108 -2.204239 5.336716
1.856491 -2.205551 5.342667
1.867111 -2.207443 5.335434
1.827774 -2.203415 5.349564
1.834610 -2.202499 5.353958
1.842392 -2.198990 5.346817
1.842056 -2.202042 5.346634
1.817245 -2.203629 5.367233
1.824295 -2.201340 5.372360
1.828445 -2.200241 5.374649
1.843216 -2.201981 5.363480
1.842850 -2.196976 5.369827
1.855392 -2.204300 5.347580
1.854996 -2.204208 5.348495
1.869675 -2.207932 5.349838
1.874771 -2.205246 5.373672
1.864548 -2.204422 5.360214
1.870407 -2.203598 5.373795
1.856400 -2.195877 5.367325
1.849228 -2.197342 5.364090
1.846878 -2.199814 5.365494
1.855179 -2.193375 5.365585
1.918991 -2.222946 5.354965
1.897385 -2.220505 5.294327
1.894730 -2.221207 5.276382
1.899612 -2.223129 5.269211
1.921738 -2.235733 5.260513
1.925766 -2.242050 5.263260
1.908157 -2.227158 5.253159
1.918259 -2.233292 5.273727
1.925095 -2.230026 5.277237
1.881241 -2.211166 5.261581
1.881760 -2.215256 5.271652
1.884048 -2.216049 5.272507
1.895279 -2.219376 5.302536
1.908493 -2.228836 5.282761
1.922470 -2.229996 5.282700
1.909103 -2.225143 5.307053
1.916183 -2.230850 5.299210
1.882523 -2.210556 5.294815
1.881943 -2.213699 5.298233
1.913162 -2.227341 5.354080
1.922623 -2.234818 5.315598
1.918716 -2.233841 5.337845
1.909622 -2.223770 5.333786
1.923080 -2.233902 5.342850
1.881973 -2.208755 5.327255
1.879990 -2.211258 5.324203
1.882828 -2.211777 5.324203
1.895859 -2.216232 5.327469
1.895126 -2.217880 5.319626
1.923813 -2.228745 5.365921
1.881424 -2.205856 5.359268
1.878036 -2.209091 5.350815
1.883347 -2.210159 5.350815
1.896255 -2.216721 5.356216
1.892960 -2.215347 5.345352
1.884323 -2.204361 5.373215
1.889847 -2.211685 5.368576
1.903702 -2.203903 5.363907
1.904770 -2.217545 5.362503
1.900925 -2.202988 5.363235
1.910507 -2.215897 5.354080
1.909103 -2.211472 5.359268
1.910507 -2.197586 5.363480
1.755661 -2.225327 5.474716
1.751907 -2.224686 5.414841
1.753555 -2.226242 5.387222
1.755600 -2.222672 5.377090
1.756058 -2.222244 5.405136
1.753220 -2.226761 5.390732
1.758835 -2.222519 5.390976
1.758011 -2.220779 5.400497
1.761887 -2.217300 5.382523
1.764877 -2.218369 5.391983
1.776993 -2.212997 5.403488
1.770889 -2.214371 5.393173
1.770920 -2.215530 5.396591
1.778122 -2.214371 5.395370
1.777023 -2.211319 5.395950
1.785660 -2.209122 5.388351
1.793564 -2.208786 5.379074
1.801132 -2.206589 5.384903
1.807846 -2.205185 5.377762
1.798752 -2.205460 5.383163
1.808548 -2.204391 5.390579
1.781723 -2.207687 5.401382
1.783646 -2.208206 5.399216
1.806778 -2.203934 5.405807
1.809097 -2.197067 5.404221
1.752426 -2.225754 5.421341
1.757889 -2.221329 5.421127
1.756546 -2.221542 5.433090
1.758987 -2.220352 5.433914
1.758621 -2.217941 5.406998
1.758347 -2.218185 5.433365
1.764450 -2.217850 5.423721
1.771317 -2.215408 5.425095
1.770981 -2.214462 5.426437
1.779892 -2.214645 5.425125
1.777176 -2.211502 5.429459
1.786118 -2.208725 5.416519
1.793320 -2.208511 5.411270
1.800522 -2.205887 5.416031
1.799362 -2.203384 5.409531
1.807755 -2.203415 5.421097
1.783585 -2.208115 5.432114
1.782486 -2.207016 5.434708
1.807510 -2.203629 5.435013
1.820053 -2.198776 5.413712
1.812943 -2.203720 5.379837
1.822220 -2.199661 5.377274
1.840652 -2.198898 5.388504
1.832565 -2.200027 5.380386
1.840561 -2.195023 5.378098
1.813614 -2.200027 5.404556
1.815140 -2.201096 5.393661
1.823654 -2.200546 5.403122
1.828842 -2.200302 5.403183
1.843094 -2.199081 5.400467
1.867752 -2.197006 5.385941
1.870712 -2.205124 5.403854
1.856369 -2.202042 5.402145
1.850601 -2.201065 5.396500
1.847366 -2.195145 5.391251
1.832413 -2.199844 5.412674
1.842148 -2.195328 5.411972
1.814011 -2.200394 5.433609
1.815628 -2.201675 5.428085
1.822464 -2.199112 5.432602
1.829544 -2.196915 5.428360
1.840988 -2.199295 5.422318
1.843552 -2.198990 5.429001
1.860336 -2.199448 5.413132
1.871231 -2.203659 5.430984
1.873581 -2.203842 5.435471
1.850815 -2.199234 5.434158
1.849930 -2.200058 5.424911
1.856888 -2.200790 5.429428
1.841110 -2.186264 5.378647
1.757492 -2.220596 5.489822
1.754349 -2.225327 5.445114
1.756973 -2.221573 5.461929
1.752487 -2.225845 5.454880
1.758591 -2.222183 5.456619
1.759659 -2.219498 5.467209
1.776016 -2.212265 5.440292
1.764450 -2.217850 5.457077
1.759232 -2.218246 5.460556
1.777237 -2.211563 5.463028
1.771744 -2.215622 5.453995
1.770889 -2.214340 5.459549
1.779831 -2.213943 5.453903
1.786606 -2.208145 5.444595
1.792343 -2.207291 5.441452
1.799759 -2.204910 5.446854
1.799759 -2.203812 5.438675
1.806931 -2.202377 5.451828
1.811142 -2.198044 5.438492
1.783890 -2.207138 5.468521
1.781448 -2.205460 5.458939
1.787857 -2.197678 5.462570
1.787338 -2.201096 5.459579
1.793747 -2.195663 5.455276
1.792374 -2.195877 5.457870
1.788895 -2.194382 5.453751
1.800125 -2.194107 5.464737
1.800919 -2.194595 5.457901
1.752609 -2.225967 5.488907
1.758316 -2.221878 5.489517
1.772232 -2.214737 5.482010
1.775253 -2.211594 5.477188
1.779892 -2.213272 5.482773
1.758286 -2.218552 5.486649
1.764450 -2.217850 5.490768
1.770615 -2.214005 5.492416
1.777237 -2.211594 5.496780
1.809891 -2.194748 5.470322
1.782516 -2.206772 5.495895
1.787674 -2.205490 5.499710
1.800797 -2.201279 5.493820
1.806290 -2.201614 5.492020
1.831100 -2.198257 5.475204
1.818771 -2.197861 5.450485
1.840134 -2.198288 5.452866
1.829819 -2.196732 5.438095
1.842453 -2.194077 5.444992
1.814438 -2.201035 5.463058
1.814529 -2.200333 5.458023
1.822647 -2.199326 5.466446
1.829788 -2.199356 5.459671
1.860886 -2.200089 5.447678
1.873215 -2.203415 5.467545
1.871658 -2.204056 5.460190
1.850021 -2.198288 5.464981
1.850357 -2.199631 5.454056
1.844009 -2.198685 5.457443
1.857407 -2.199814 5.457230
1.821793 -2.198288 5.497452
1.816788 -2.196548 5.487045
1.813339 -2.198898 5.487961
1.814987 -2.199570 5.490433
