-0.828262 5.620682 5.078384
-0.855789 5.609451 5.123672
-0.869736 5.607376 5.097885
-0.848343 5.617966 5.096878
-0.855911 5.610184 5.098495
-0.869736 5.607468 5.123795
-0.828140 5.619949 5.103470
-0.762375 5.665054 5.109451
-0.814682 5.625259 5.055069
-0.762161 5.670975 5.048721
-0.790695 5.638687 5.008743
-0.801468 5.630081 5.006699
-0.798294 5.633408 5.012161
-0.788498 5.640488 5.014145
-0.775589 5.654404 5.024704
-0.777603 5.652573 5.010788
-0.751724 5.685379 5.020676
-0.762741 5.667892 5.009506
-0.760391 5.669144 5.014816
-0.752945 5.675705 5.004227
-0.774521 5.658615 5.027878
-0.762741 5.670334 5.017166
-0.750595 5.684158 5.022232
-0.750778 5.686691 5.027847
-0.789780 5.639420 5.049271
-0.801682 5.631546 5.033432
-0.805832 5.636459 5.039536
-0.788651 5.641647 5.040634
-0.802170 5.632736 5.049728
-0.802078 5.634323 5.061447
-0.775742 5.655441 5.051163
-0.779251 5.652542 5.045303
-0.759689 5.670700 5.055679
-0.762619 5.666855 5.034042
-0.751358 5.679916 5.044968
-0.750381 5.682724 5.046463
-0.762741 5.667862 5.060532
-0.814804 5.626266 5.107346
-0.814835 5.626389 5.081711
-0.759262 5.666794 5.120071
-0.789536 5.642929 5.090805
-0.788956 5.643875 5.068222
-0.806412 5.638199 5.080093
-0.809067 5.631149 5.091721
-0.802109 5.634567 5.087326
-0.788925 5.643570 5.093643
-0.778519 5.653244 5.076736
-0.775558 5.654099 5.075607
-0.760574 5.671890 5.079056
-0.774185 5.660049 5.067947
-0.750137 5.680893 5.070480
-0.762619 5.666885 5.085312
-0.755508 5.672989 5.082382
-0.788773 5.642532 5.118515
-0.801926 5.633316 5.111984
-0.805313 5.632706 5.119247
-0.805038 5.639267 5.119797
-0.775589 5.654312 5.101517
-0.775986 5.654434 5.105942
-0.750198 5.681351 5.096603
-0.771835 5.660751 5.107101
-0.758286 5.669266 5.095657
-0.757217 5.673355 5.107071
-0.901382 5.607376 5.241531
-0.967026 5.610764 5.179794
-0.987198 5.613510 5.146500
-0.971207 5.607346 5.138535
-0.988480 5.618607 5.156235
-0.941696 5.604233 5.131271
-0.967575 5.608444 5.138504
-0.955917 5.605942 5.134964
-0.987534 5.614487 5.173508
-0.971420 5.608536 5.165634
-0.941788 5.604813 5.183884
-0.956375 5.608627 5.163406
-0.951920 5.608231 5.158737
-0.942062 5.606522 5.159378
-0.883896 5.604599 5.175217
-0.913010 5.604660 5.153397
-0.927078 5.603439 5.128403
-0.929153 5.603165 5.133102
-0.912582 5.602066 5.125046
-0.927231 5.604446 5.155289
-0.884140 5.606064 5.150528
-0.890121 5.602921 5.129135
-0.898697 5.604416 5.151108
-0.912704 5.602890 5.177841
-0.914932 5.605698 5.163193
-0.909561 5.607040 5.164047
-0.928085 5.603317 5.173630
-0.927292 5.603653 5.180679
-0.898758 5.603775 5.176620
-0.888962 5.602798 5.169571
-0.951920 5.610489 5.238174
-0.988998 5.618759 5.195602
-0.971512 5.608963 5.192184
-0.987656 5.615067 5.200211
-0.941666 5.604080 5.209457
-0.956131 5.607254 5.188278
-0.951523 5.610092 5.198654
-0.956314 5.608170 5.215378
-0.971817 5.610794 5.246567
-0.987930 5.616776 5.228104
-0.971695 5.610123 5.219528
-0.988724 5.620438 5.235519
-0.956650 5.610123 5.243546
-0.965958 5.610764 5.220413
-0.941940 5.605667 5.237259
-0.883743 5.603592 5.226761
-0.912582 5.602188 5.203354
-0.916306 5.604019 5.202042
-0.927170 5.602921 5.206223
-0.926346 5.600449 5.213242
-0.887955 5.603012 5.210190
-0.898544 5.602341 5.201462
-0.903641 5.606583 5.201828
-0.883774 5.603745 5.200607
-0.916519 5.604752 5.241714
-0.927383 5.604141 5.233688
-0.912674 5.602676 5.230148
-0.898636 5.603073 5.228439
-0.817947 5.619522 5.248978
-0.825729 5.620804 5.179184
-0.855850 5.609879 5.150009
-0.871475 5.606461 5.129929
-0.855667 5.610306 5.127975
-0.844986 5.618332 5.135727
-0.869827 5.607956 5.150192
-0.828140 5.619949 5.155289
-0.828293 5.620834 5.130142
-0.841629 5.614731 5.126450
-0.821915 5.622818 5.128433
-0.824356 5.622391 5.140213
-0.841537 5.614120 5.151871
-0.855667 5.608627 5.174881
-0.871140 5.608200 5.169846
-0.854233 5.608871 5.167984
-0.869583 5.606461 5.174881
-0.828079 5.619522 5.181015
-0.814590 5.624741 5.157822
-0.820663 5.621994 5.168655
-0.841110 5.618546 5.174362
-0.841507 5.613876 5.177689
-0.814621 5.624924 5.184097
-0.827438 5.614212 5.221848
-0.853378 5.609634 5.208755
-0.869431 5.605484 5.200150
-0.855606 5.608261 5.200760
-0.872635 5.606461 5.208725
-0.827896 5.618301 5.206070
-0.841324 5.612808 5.202896
-0.839767 5.610062 5.205765
-0.838028 5.619064 5.213486
-0.819229 5.620438 5.208694
-0.814560 5.624496 5.209915
-0.828049 5.617477 5.217667
-0.873245 5.606430 5.248215
-0.869492 5.605789 5.226700
-0.855484 5.607468 5.226303
-0.814224 5.622208 5.234146
-0.841171 5.611649 5.228104
-0.827682 5.616745 5.230972
-0.761551 5.658859 5.234390
-0.814835 5.626480 5.133408
-0.756119 5.669022 5.176682
-0.788773 5.642471 5.144424
-0.801987 5.633713 5.138260
-0.788376 5.642593 5.131119
-0.802383 5.634048 5.148117
-0.775345 5.652664 5.151840
-0.775253 5.651962 5.125259
-0.774857 5.655228 5.137222
-0.750137 5.680832 5.147934
-0.762253 5.664200 5.134567
-0.757248 5.669357 5.136185
-0.756973 5.673874 5.139694
-0.770828 5.661942 5.146988
-0.787521 5.643570 5.171982
-0.801041 5.639420 5.158279
-0.801834 5.632645 5.163284
-0.788559 5.640884 5.168991
-0.798355 5.635727 5.175522
-0.775192 5.651413 5.176804
-0.762039 5.662552 5.185196
-0.772263 5.656479 5.166672
-0.762314 5.664688 5.161057
-0.761276 5.664047 5.158829
-0.755112 5.674911 5.170273
-0.767868 5.662430 5.185989
-0.763535 5.660019 5.221085
-0.785782 5.640610 5.211563
-0.801743 5.632004 5.188828
-0.797073 5.639603 5.196854
-0.788437 5.640060 5.194412
-0.794083 5.637466 5.202805
-0.801498 5.630173 5.213364
-0.775009 5.650223 5.201889
-0.761887 5.661545 5.210526
-0.769211 5.657852 5.195694
-0.763382 5.661026 5.197556
-0.752792 5.676071 5.200302
-0.754868 5.668289 5.217026
-0.794388 5.640213 5.236130
-0.788406 5.639816 5.220474
-0.788315 5.639664 5.228104
-0.801315 5.628983 5.238632
-0.788101 5.637589 5.244797
-0.767838 5.653488 5.234879
-0.774765 5.648270 5.226425
-0.763046 5.662308 5.224136
-0.748123 5.687210 5.099319
-0.728683 5.719894 5.117355
-0.749954 5.686295 5.059952
-0.718246 5.746750 5.059921
-0.732376 5.717453 5.024490
-0.740311 5.702377 5.008163
-0.738602 5.702469 5.011276
-0.736404 5.705551 5.014664
-0.737198 5.713791 5.017380
-0.732101 5.709274 5.023880
-0.727371 5.725937 5.030350
-0.727585 5.727524 5.006241
-0.726913 5.730942 5.012039
-0.721970 5.744736 5.000290
-0.722031 5.743240 5.013962
-0.729996 5.718582 5.053604
-0.738388 5.700912 5.035416
-0.739212 5.703171 5.038956
-0.738235 5.699509 5.059738
-0.748856 5.687729 5.057571
-0.735214 5.714615 5.056564
-0.732071 5.709824 5.052505
-0.719894 5.744003 5.053085
-0.724228 5.732193 5.040665
-0.721725 5.745285 5.032272
-0.726852 5.721878 5.052353
-0.719376 5.746872 5.094284
-0.729752 5.712265 5.092056
-0.737015 5.704269 5.068466
-0.730667 5.707535 5.063828
-0.738052 5.698105 5.084183
-0.748093 5.688431 5.089157
-0.719559 5.745407 5.093124
-0.722580 5.733109 5.070999
-0.726883 5.722000 5.078110
-0.729263 5.719284 5.085251
-0.744766 5.689835 5.117355
-0.737808 5.696396 5.108444
-0.735458 5.705185 5.098984
-0.733353 5.715500 5.095871
-0.729752 5.708206 5.104568
-0.722702 5.733566 5.103958
-0.726883 5.722122 5.103989
-0.748825 5.670883 5.243790
-0.749741 5.677841 5.171310
-0.718033 5.747910 5.173141
-0.728714 5.708298 5.145218
-0.737900 5.697006 5.134903
-0.746475 5.688156 5.138870
-0.735733 5.705551 5.132401
-0.730087 5.712204 5.133926
-0.732376 5.716660 5.135727
-0.744797 5.690323 5.150467
-0.728409 5.720444 5.150009
-0.727036 5.723221 5.130905
-0.724045 5.733658 5.138931
-0.719315 5.747391 5.127182
-0.719345 5.746872 5.133377
-0.726730 5.720688 5.154648
-0.715530 5.748947 5.154984
-0.727127 5.715195 5.173172
-0.737869 5.696671 5.160629
-0.734573 5.706406 5.163895
-0.745560 5.689377 5.178818
-0.743179 5.691238 5.181442
-0.737625 5.694839 5.185104
-0.731979 5.718094 5.175980
-0.727371 5.707077 5.185471
-0.726608 5.719864 5.180008
-0.723282 5.734390 5.171097
-0.726730 5.721420 5.180954
-0.749466 5.675644 5.221786
-0.749680 5.677414 5.197098
-0.748245 5.677872 5.227371
-0.715683 5.749863 5.222214
-0.726364 5.717819 5.204391
-0.732590 5.707443 5.194473
-0.739670 5.692734 5.209915
-0.737259 5.692093 5.208847
-0.740952 5.689285 5.217056
-0.728989 5.718552 5.215012
-0.723770 5.718582 5.212204
-0.725143 5.722336 5.212265
-0.720718 5.735550 5.201004
-0.716660 5.748978 5.212967
-0.717636 5.748825 5.191452
-0.735733 5.694382 5.237930
-0.736893 5.689224 5.232559
-0.729691 5.708755 5.223892
-0.726212 5.706772 5.226059
-0.725998 5.714890 5.228073
-0.722458 5.723618 5.242111
-0.719528 5.736374 5.232956
-0.715286 5.747635 5.229874
-0.775284 5.996231 5.105026
-0.771103 5.992630 5.104446
-0.751846 5.972122 5.052963
-0.764572 5.996689 5.023453
-0.751114 5.971756 5.019394
-0.758347 5.982437 5.025253
-0.774490 5.999771 5.025314
-0.759689 5.982651 5.059738
-0.752609 5.983261 5.032364
-0.767929 5.992477 5.034470
-0.763046 5.982407 5.097214
-0.752884 5.972366 5.087234
-0.753189 5.983017 5.073929
-0.774918 5.998337 5.064865
-0.768570 5.999741 5.065872
-0.768784 5.992813 5.068314
-0.778305 5.993149 5.248520
-0.775040 5.992844 5.176407
-0.750351 5.961502 5.154190
-0.774185 5.992477 5.141891
-0.763565 5.982803 5.131088
-0.775620 5.993912 5.145462
-0.776443 5.995438 5.183426
-0.756271 5.980728 5.159164
-0.757095 5.972458 5.159378
-0.764572 5.983109 5.165756
-0.757034 5.980576 5.242935
-0.751602 5.961716 5.189468
-0.776291 5.993057 5.211838
-0.766159 5.983261 5.201584
-0.758682 5.972610 5.195175
-0.756668 5.980637 5.201004
-0.752396 5.962051 5.224319
-0.767990 5.983353 5.237961
-0.759201 5.972977 5.229721
-0.776871 5.993881 5.223618
-0.737381 5.927933 5.115433
-0.713333 5.810074 5.098068
-0.710983 5.807663 5.056625
-0.711929 5.771103 5.018692
-0.717056 5.762009 5.009293
-0.710373 5.775375 5.000595
-0.715195 5.772110 5.013260
-0.714767 5.774704 5.014420
-0.718246 5.758621 5.022476
-0.710373 5.805923 5.016129
-0.712845 5.784927 5.005203
-0.709641 5.810837 5.023636
-0.710709 5.798294 5.029800
-0.708267 5.811935 5.025497
-0.714371 5.776077 5.054367
-0.717148 5.762558 5.035263
-0.709335 5.775589 5.041214
-0.714035 5.772903 5.044083
-0.716446 5.759598 5.052475
-0.716446 5.757095 5.056076
-0.710556 5.772629 5.058853
-0.710617 5.811081 5.057541
-0.712479 5.785507 5.037094
-0.710556 5.798813 5.062180
-0.716232 5.870499 5.042374
-0.710068 5.839127 5.019974
-0.708755 5.815994 5.003494
-0.708298 5.835220 5.012558
-0.709091 5.822952 5.018265
-0.709671 5.856766 5.023911
-0.712692 5.858871 5.009415
-0.709854 5.847061 5.010117
-0.714615 5.870438 5.007614
-0.711136 5.834976 5.048996
-0.709824 5.815598 5.040848
-0.711288 5.822861 5.053818
-0.712906 5.841721 5.061630
-0.712936 5.859268 5.042221
-0.711807 5.847061 5.045364
-0.712418 5.798782 5.097702
-0.709030 5.779099 5.082962
-0.714554 5.773270 5.077469
-0.716599 5.758133 5.082718
-0.716293 5.760117 5.084976
-0.711319 5.811356 5.091324
-0.712173 5.786087 5.069321
-0.715225 5.773544 5.111282
-0.716599 5.758316 5.108719
-0.714432 5.777603 5.094650
-0.711075 5.772385 5.100662
-0.716354 5.760574 5.117996
-0.713486 5.786209 5.104019
-0.715103 5.852249 5.110886
-0.712418 5.835129 5.083572
-0.710159 5.827408 5.064560
-0.710342 5.815323 5.082596
-0.712143 5.823105 5.087845
-0.709854 5.824966 5.088211
-0.718979 5.870285 5.078995
-0.715378 5.859146 5.078415
-0.713608 5.853378 5.068314
-0.713852 5.847000 5.081009
-0.713120 5.835434 5.117569
-0.708633 5.814865 5.105240
-0.713577 5.843521 5.102249
-0.712265 5.823563 5.121017
-0.719406 5.870712 5.112534
-0.717392 5.859146 5.114243
-0.715317 5.847122 5.116013
-0.733231 5.920731 5.120712
-0.735489 5.927353 5.047043
-0.719620 5.876968 5.028824
-0.720657 5.881271 5.011490
-0.728531 5.904037 5.013504
-0.725021 5.892838 5.012985
-0.719467 5.890732 5.014297
-0.728439 5.922775 5.005173
-0.731430 5.915512 5.013199
-0.734421 5.927109 5.012985
-0.729813 5.904190 5.047806
-0.723343 5.881088 5.047775
-0.721420 5.889206 5.057022
-0.726974 5.892868 5.048233
-0.732773 5.915665 5.047653
-0.729538 5.916306 5.038071
-0.728317 5.923141 5.046158
-0.746353 5.960892 5.049576
-0.744888 5.960709 5.015030
-0.736679 5.950638 5.005386
-0.736404 5.938675 5.011551
-0.740158 5.950119 5.012497
-0.741226 5.960617 5.015335
-0.741440 5.957474 5.056046
-0.738510 5.952866 5.046585
-0.738297 5.938705 5.046707
-0.737839 5.954575 5.037521
-0.741959 5.950180 5.047531
-0.734512 5.916245 5.115768
-0.730820 5.904465 5.081985
-0.723343 5.879868 5.070938
-0.724106 5.881363 5.081619
-0.728226 5.893051 5.082748
-0.736404 5.927658 5.081039
-0.729996 5.918015 5.078629
-0.734146 5.915878 5.082291
-0.730942 5.921005 5.089523
-0.729050 5.893326 5.116898
-0.722702 5.888290 5.099350
-0.722733 5.881180 5.111038
-0.724930 5.881668 5.115768
-0.732437 5.904556 5.117264
-0.748703 5.961349 5.118637
-0.747421 5.961136 5.083847
-0.743851 5.950241 5.082901
-0.739853 5.938858 5.081619
-0.737991 5.954697 5.078812
-0.740982 5.955307 5.088242
-0.739212 5.953842 5.121078
-0.741959 5.956711 5.095322
-0.740646 5.939194 5.115768
-0.745529 5.950363 5.118240
-0.707443 5.802078 5.224106
-0.710587 5.812119 5.177505
-0.715408 5.773972 5.144760
-0.716751 5.759384 5.135605
-0.714859 5.779312 5.135208
-0.715897 5.761215 5.150467
-0.715836 5.752060 5.155075
-0.710495 5.773178 5.141678
-0.711990 5.811661 5.125320
-0.709000 5.783829 5.125198
-0.714523 5.786392 5.138565
-0.712204 5.799332 5.130417
-0.712540 5.811295 5.138046
-0.713547 5.774979 5.175430
-0.715683 5.761734 5.183578
-0.716080 5.753983 5.182968
-0.713242 5.780258 5.174820
-0.709061 5.774734 5.182144
-0.712967 5.811905 5.159958
-0.712753 5.787338 5.169388
-0.708267 5.785477 5.166519
-0.710678 5.800247 5.161545
-0.715714 5.860550 5.178421
-0.713547 5.835831 5.151413
-0.711563 5.814468 5.125015
-0.712814 5.823898 5.155075
-0.718582 5.871384 5.144516
-0.715561 5.845749 5.143661
-0.714859 5.847733 5.148544
-0.713943 5.853622 5.151382
-0.717300 5.859665 5.147263
-0.712173 5.836685 5.182877
-0.710526 5.815689 5.165665
-0.710373 5.829269 5.170029
-0.711380 5.824783 5.186447
-0.718765 5.871841 5.178238
-0.714188 5.846786 5.183456
-0.712479 5.846451 5.159073
-0.714218 5.848404 5.181076
-0.708450 5.789536 5.230484
-0.711929 5.775894 5.206650
-0.715897 5.752457 5.207870
-0.713425 5.762833 5.214005
-0.711288 5.781052 5.214401
-0.707230 5.785507 5.207352
-0.710831 5.788376 5.200180
-0.710587 5.800735 5.194901
-0.710373 5.776810 5.238205
-0.706284 5.777573 5.221573
-0.710953 5.763992 5.244247
-0.704453 5.777786 5.245743
-0.715744 5.873611 5.241409
-0.710770 5.837540 5.214554
-0.711044 5.812912 5.190720
-0.710403 5.829361 5.196365
-0.708572 5.817734 5.205704
-0.709213 5.813156 5.217422
-0.709579 5.822678 5.216751
-0.709061 5.825882 5.216812
-0.717239 5.872726 5.209732
-0.713669 5.854111 5.192734
-0.711929 5.849472 5.211441
-0.714981 5.861252 5.211044
-0.709030 5.838486 5.245926
-0.708755 5.814011 5.221085
-0.708420 5.813278 5.234726
-0.708023 5.818527 5.247025
-0.707809 5.826706 5.248917
-0.712448 5.862411 5.241257
-0.711624 5.847366 5.222794
-0.711838 5.855515 5.233139
-0.711136 5.850204 5.244186
-0.734787 5.925888 5.243454
-0.739761 5.928360 5.185471
-0.732101 5.905136 5.149979
-0.723099 5.888168 5.141068
-0.725082 5.882126 5.149216
-0.723923 5.883133 5.152115
-0.729111 5.893845 5.150162
-0.739090 5.928024 5.151047
-0.731369 5.920853 5.131210
-0.735977 5.916428 5.151077
-0.725479 5.895218 5.178452
-0.722305 5.889175 5.181931
-0.724686 5.882736 5.182053
-0.731949 5.905685 5.183243
-0.731461 5.921036 5.172745
-0.734909 5.922897 5.162125
-0.736465 5.916794 5.185257
-0.742294 5.949387 5.178207
-0.746475 5.950668 5.152847
-0.742020 5.952194 5.137253
-0.743088 5.957626 5.129807
-0.741623 5.939468 5.150345
-0.746841 5.951096 5.186813
-0.740738 5.952774 5.163742
-0.745346 5.960007 5.171555
-0.743088 5.939651 5.185867
-0.740463 5.928726 5.220139
-0.732132 5.906174 5.217178
-0.722305 5.884048 5.191879
-0.723770 5.883469 5.214432
-0.728561 5.894974 5.216568
-0.731796 5.920975 5.214645
-0.735428 5.924637 5.203049
-0.727982 5.895615 5.249619
-0.722244 5.885574 5.232498
-0.720810 5.890793 5.222336
-0.723099 5.884171 5.247360
-0.736435 5.917343 5.218857
-0.741867 5.952225 5.247940
-0.747513 5.962357 5.213394
-0.740829 5.952896 5.205368
-0.742874 5.949081 5.217606
-0.748581 5.951218 5.223038
-0.743759 5.939987 5.220535
-0.761978 5.649918 5.360519
-0.876419 5.603531 5.366043
-0.961929 5.603073 5.299240
-0.989029 5.620987 5.275131
-0.987930 5.616623 5.254410
-0.971542 5.609299 5.271652
-0.987808 5.615982 5.280319
-0.956345 5.608444 5.268509
-0.942154 5.607071 5.265060
-0.965012 5.611526 5.261337
-0.953903 5.607712 5.276718
-0.987442 5.613907 5.305069
-0.970963 5.605942 5.295151
-0.978683 5.608932 5.305649
-0.941940 5.605698 5.290359
-0.963181 5.605331 5.283890
-0.955887 5.605637 5.292465
-0.883804 5.603897 5.306686
-0.912766 5.603317 5.257156
-0.926102 5.603989 5.255020
-0.927597 5.605423 5.261337
-0.884018 5.605209 5.281235
-0.898727 5.603561 5.255325
-0.887161 5.604324 5.251205
-0.883987 5.605179 5.254654
-0.912521 5.601730 5.308945
-0.927353 5.603928 5.286484
-0.924515 5.601822 5.294998
-0.916733 5.605484 5.281448
-0.912918 5.604202 5.284561
-0.926895 5.601242 5.310654
-0.898544 5.602432 5.307480
-0.898880 5.604538 5.282791
-0.900192 5.608536 5.281876
-0.886002 5.603928 5.291733
-0.941177 5.601120 5.366501
-0.976913 5.609634 5.337662
-0.970047 5.600662 5.316849
-0.990158 5.619797 5.314224
-0.987228 5.612778 5.330795
-0.940964 5.599869 5.338364
-0.955338 5.602524 5.316238
-0.956131 5.604385 5.315140
-0.941330 5.602158 5.313705
-0.960861 5.603104 5.340012
-0.955215 5.601822 5.342422
-0.973862 5.610123 5.370529
-0.970871 5.605301 5.348129
-0.990005 5.621323 5.354263
-0.987717 5.615494 5.360306
-0.955643 5.604324 5.371780
-0.956650 5.604477 5.354721
-0.883255 5.601364 5.372421
-0.912003 5.598557 5.332687
-0.919418 5.601303 5.319626
-0.922073 5.596054 5.333817
-0.926407 5.598251 5.334610
-0.883530 5.602219 5.331863
-0.889786 5.606491 5.317551
-0.875900 5.603439 5.326370
-0.898209 5.600388 5.332352
-0.884171 5.600571 5.331345
-0.912216 5.599930 5.360947
-0.920761 5.599777 5.358719
-0.926620 5.599503 5.362747
-0.921036 5.596329 5.374710
-0.883530 5.602188 5.358749
-0.898056 5.599289 5.358200
-0.881912 5.605362 5.354630
-0.800339 5.622086 5.365677
-0.818039 5.618484 5.309738
-0.855728 5.608932 5.280624
-0.869492 5.605911 5.253250
-0.855637 5.608414 5.253586
-0.852737 5.611679 5.250046
-0.869675 5.607101 5.280899
-0.828110 5.618423 5.257523
-0.834976 5.619553 5.252670
-0.841385 5.613144 5.255936
-0.830582 5.613754 5.259811
-0.827866 5.618027 5.258591
-0.814285 5.622452 5.260818
-0.855545 5.607864 5.306290
-0.873886 5.606247 5.287704
-0.851242 5.609909 5.290085
-0.869461 5.605637 5.306229
-0.813919 5.620010 5.311783
-0.841324 5.612656 5.282059
-0.829910 5.616043 5.296371
-0.831619 5.619980 5.291824
-0.814285 5.622543 5.287491
-0.827713 5.616898 5.284103
-0.817093 5.620529 5.289993
-0.834793 5.612961 5.299637
-0.841080 5.611008 5.307144
-0.827408 5.614944 5.308945
-0.827255 5.612625 5.360458
-0.855118 5.604965 5.330307
-0.869156 5.603683 5.331131
-0.849472 5.606857 5.329788
-0.827469 5.620071 5.330612
-0.840744 5.608810 5.331863
-0.831955 5.613205 5.335129
-0.815567 5.618484 5.330032
-0.827133 5.613052 5.333939
-0.813614 5.617966 5.336655
-0.847885 5.604691 5.369858
-0.869095 5.603226 5.357590
-0.855026 5.604416 5.356705
-0.813370 5.616318 5.362045
-0.840622 5.608047 5.358047
-0.833878 5.610519 5.373978
-0.819321 5.618820 5.367447
-0.813858 5.615860 5.369919
-0.807327 5.622177 5.328506
-0.800674 5.624405 5.340927
-0.779770 5.633072 5.371964
-0.758102 5.663651 5.303055
-0.791245 5.640671 5.275284
-0.784592 5.640121 5.252060
-0.782822 5.641769 5.253952
-0.801437 5.629807 5.265884
-0.787918 5.636459 5.270218
-0.772049 5.646439 5.272354
-0.774521 5.646530 5.251236
-0.774368 5.645370 5.276657
-0.756912 5.662918 5.279190
-0.753494 5.666855 5.257248
-0.761276 5.661148 5.251602
-0.761459 5.658249 5.260300
-0.759354 5.662552 5.262924
-0.783066 5.637985 5.292038
-0.801224 5.628281 5.291061
-0.787888 5.636154 5.296555
-0.760849 5.653763 5.309372
-0.778732 5.643478 5.281937
-0.774124 5.643661 5.301743
-0.774063 5.643661 5.311203
-0.774155 5.645340 5.309464
-0.751236 5.663681 5.296921
-0.761185 5.656265 5.285049
-0.753555 5.664383 5.308456
-0.760269 5.649490 5.359085
-0.781693 5.636765 5.332382
-0.800949 5.626450 5.316055
-0.787582 5.633865 5.321152
-0.786972 5.640732 5.313919
-0.760574 5.651596 5.334152
-0.773972 5.642532 5.327438
-0.768753 5.647415 5.335922
-0.751724 5.662949 5.340622
-0.788345 5.628860 5.369919
-0.797470 5.625626 5.348618
-0.787308 5.631943 5.346176
-0.786789 5.628342 5.369736
-0.777481 5.638077 5.349197
-0.780502 5.639999 5.351486
-0.773544 5.639511 5.351456
-0.876877 5.588089 5.490555
-0.959000 5.604507 5.422256
-0.977768 5.611771 5.399338
-0.971146 5.607010 5.376755
-0.987564 5.614609 5.386490
-0.971146 5.606949 5.403824
-0.991287 5.619858 5.393387
-0.941177 5.601089 5.393570
-0.960342 5.605667 5.381729
-0.955490 5.603378 5.397964
-0.955612 5.607681 5.395401
-0.982895 5.613602 5.427444
-0.987564 5.614548 5.413589
-0.970993 5.605972 5.430130
-0.991379 5.620804 5.433365
-0.955276 5.602188 5.424057
-0.940689 5.598343 5.418106
-0.957748 5.604599 5.434036
-0.882339 5.594559 5.432846
-0.921341 5.599777 5.398361
-0.926559 5.599289 5.389572
-0.912033 5.598709 5.386826
-0.875290 5.604660 5.392410
-0.897995 5.599075 5.385025
-0.883286 5.600601 5.384262
-0.878372 5.600784 5.404861
-0.911057 5.592667 5.435410
-0.925064 5.593552 5.435959
-0.897110 5.593369 5.433945
-0.911606 5.596054 5.411423
-0.926071 5.596176 5.413773
-0.919754 5.595535 5.415298
-0.882858 5.597946 5.408859
-0.897598 5.596542 5.409744
-0.881149 5.597000 5.411758
-0.954117 5.595322 5.472183
-0.939651 5.592026 5.466690
-0.986649 5.609421 5.463364
-0.987167 5.612289 5.438736
-0.992264 5.616196 5.453079
-0.970322 5.602097 5.453751
-0.956650 5.599350 5.461472
-0.954880 5.599747 5.449020
-0.940201 5.595291 5.442459
-0.938889 5.587570 5.489914
-0.953293 5.590469 5.494980
-0.939072 5.584457 5.488724
-0.952896 5.588089 5.498550
-0.986282 5.607285 5.488846
-0.969894 5.599716 5.478928
-0.999527 5.623123 5.473618
-0.991684 5.621414 5.473282
-0.995224 5.617691 5.482620
-0.960587 5.600052 5.472244
-0.884750 5.590591 5.480972
-0.917221 5.589462 5.454117
-0.925613 5.593491 5.438461
-0.935226 5.592789 5.460770
-0.925095 5.590378 5.462814
-0.910538 5.589523 5.459763
-0.882004 5.592422 5.458176
-0.896744 5.591232 5.459274
-0.881454 5.595901 5.442947
-0.879379 5.594162 5.451675
-0.918594 5.588699 5.493607
-0.928055 5.588730 5.474075
-0.909958 5.586044 5.483841
-0.924454 5.586380 5.486435
-0.914474 5.582291 5.492630
-0.881363 5.588455 5.481766
-0.896225 5.587906 5.483505
-0.756973 5.624924 5.499313
-0.826218 5.605667 5.435257
-0.854752 5.602646 5.382034
-0.868851 5.601730 5.383194
-0.812851 5.618118 5.405167
-0.840439 5.605515 5.382675
-0.826828 5.609726 5.384750
-0.813156 5.614822 5.387650
-0.854111 5.598312 5.432236
-0.868515 5.599472 5.408188
-0.846146 5.601761 5.409683
-0.854507 5.601059 5.407639
-0.864822 5.602615 5.428177
-0.868240 5.597794 5.433823
-0.839859 5.601761 5.433456
-0.840286 5.604507 5.408859
-0.836594 5.606430 5.412369
-0.826462 5.607224 5.409470
-0.812790 5.612137 5.412247
-0.785629 5.624588 5.424515
-0.799973 5.619583 5.390335
-0.812332 5.609024 5.436508
-0.811752 5.611282 5.409225
-0.799606 5.616898 5.414932
-0.786148 5.623672 5.419571
-0.816513 5.595718 5.492203
-0.853867 5.596664 5.458054
-0.844498 5.599411 5.449783
-0.867752 5.594528 5.458054
-0.851730 5.599686 5.462662
-0.825790 5.602676 5.459763
-0.831497 5.603043 5.438187
-0.839859 5.601120 5.450424
-0.839249 5.597702 5.456924
-0.844681 5.592789 5.487473
-0.867050 5.590134 5.481216
-0.853073 5.591629 5.480606
-0.844711 5.586594 5.498184
-0.841415 5.590744 5.487717
-0.834366 5.595230 5.494919
-0.838699 5.593979 5.480789
-0.824966 5.597061 5.481766
-0.772995 5.617142 5.489273
-0.791122 5.615005 5.461227
-0.810196 5.609268 5.449448
-0.809128 5.610306 5.440536
-0.799271 5.614700 5.440109
-0.803574 5.616470 5.441513
-0.785599 5.619827 5.443161
-0.791183 5.616226 5.449234
-0.811905 5.606094 5.461075
-0.798691 5.610550 5.463516
-0.784958 5.615097 5.466019
-0.776840 5.621078 5.463272
-0.775101 5.621780 5.449875
-0.784439 5.611374 5.489914
-0.811172 5.601028 5.483627
-0.793350 5.614487 5.477371
-0.797928 5.605118 5.485733
-0.807297 5.601212 5.487595
-0.797195 5.604263 5.497574
-0.794998 5.602798 5.495834
-0.770554 5.617569 5.494003
-0.771194 5.622238 5.470993
-0.753372 5.629166 5.499191
-0.758987 5.639877 5.431381
-0.786606 5.627029 5.395554
-0.783157 5.628220 5.385818
-0.779678 5.631943 5.391891
-0.773300 5.637680 5.376724
-0.775558 5.639877 5.389969
-0.756241 5.652115 5.386765
-0.759964 5.647202 5.383957
-0.772812 5.633987 5.400314
-0.760696 5.638626 5.433823
-0.769424 5.635544 5.411667
-0.777695 5.628494 5.411270
-0.759415 5.642990 5.407059
-0.768448 5.638931 5.427322
-0.772354 5.630692 5.424393
-0.764175 5.625412 5.479843
-0.751511 5.641891 5.455368
-0.771713 5.626114 5.447311
-0.758408 5.635513 5.454514
-0.761337 5.638016 5.464737
-0.757736 5.630447 5.477127
-0.729965 5.685654 5.371841
-0.743088 5.668442 5.362076
-0.736160 5.683487 5.306992
-0.736221 5.684128 5.280899
-0.742905 5.679947 5.253464
-0.736557 5.686600 5.256638
-0.748550 5.668655 5.268234
-0.742050 5.680649 5.286270
-0.748489 5.668259 5.294479
-0.713913 5.736740 5.299606
-0.724930 5.706528 5.273392
-0.737015 5.689407 5.255661
-0.723892 5.700974 5.264938
-0.725388 5.710129 5.250137
-0.726151 5.710251 5.252670
-0.732254 5.695694 5.266891
-0.719131 5.725052 5.271286
-0.725327 5.718765 5.253738
-0.719681 5.722641 5.250656
-0.714310 5.739883 5.275833
-0.713333 5.749283 5.251877
-0.714432 5.740891 5.250168
-0.716049 5.737839 5.261856
-0.724747 5.705185 5.298782
-0.735580 5.690445 5.295639
-0.723770 5.711441 5.283218
-0.731064 5.696548 5.299271
-0.722641 5.700272 5.305527
-0.722885 5.719437 5.293198
-0.717789 5.725906 5.303574
-0.715714 5.726639 5.289352
-0.713913 5.738937 5.292892
-0.747482 5.660660 5.367905
-0.733902 5.684006 5.342972
-0.748123 5.665512 5.318649
-0.738693 5.682114 5.315567
-0.748245 5.666428 5.335068
-0.749802 5.659805 5.336472
-0.747757 5.662796 5.342972
-0.735703 5.680099 5.330643
-0.744370 5.658920 5.373428
-0.735092 5.675339 5.353073
-0.705551 5.736588 5.365128
-0.729904 5.689957 5.333542
-0.727066 5.698196 5.327744
-0.724350 5.702072 5.322678
-0.721634 5.712509 5.314407
-0.717361 5.714249 5.342545
-0.719162 5.719650 5.332108
-0.714920 5.727219 5.333755
-0.713394 5.732468 5.322433
-0.711655 5.730637 5.328079
-0.711411 5.740128 5.323532
-0.712479 5.725174 5.342514
-0.723404 5.694595 5.369522
-0.723709 5.697006 5.344803
-0.720474 5.695175 5.344711
-0.723404 5.699753 5.356918
-0.726486 5.690323 5.372665
-0.714310 5.715591 5.372787
-0.711349 5.728714 5.363144
-0.707596 5.741714 5.352493
-0.712021 5.721420 5.365982
-0.716324 5.720200 5.371536
-0.712021 5.680069 5.491501
-0.716385 5.686295 5.423630
-0.734329 5.669449 5.401596
-0.748245 5.657822 5.376663
-0.749039 5.663559 5.380142
-0.738571 5.670273 5.390152
-0.734787 5.673050 5.377914
-0.747086 5.657730 5.392197
-0.748886 5.654800 5.410812
-0.746567 5.653763 5.415604
-0.745987 5.654495 5.416397
-0.733810 5.665298 5.424911
-0.742020 5.662674 5.417526
-0.734268 5.668625 5.407333
-0.722397 5.686569 5.416245
-0.732468 5.672562 5.416061
-0.742203 5.657272 5.435928
-0.718552 5.683609 5.436417
-0.699112 5.736710 5.433090
-0.722946 5.690872 5.393112
-0.719284 5.701401 5.385605
-0.719101 5.693802 5.385208
-0.725266 5.687515 5.399734
-0.710190 5.717300 5.401566
-0.711319 5.715683 5.387680
-0.700668 5.749557 5.390701
-0.704147 5.743179 5.382248
-0.707626 5.730301 5.392471
-0.699020 5.742905 5.401932
-0.719498 5.689713 5.426193
-0.722275 5.690384 5.411453
-0.709946 5.704758 5.431808
-0.714645 5.703293 5.413712
-0.710709 5.710770 5.410233
-0.706284 5.718918 5.430832
-0.709122 5.719162 5.408737
-0.703110 5.732071 5.420853
-0.699844 5.742691 5.411453
-0.699692 5.744949 5.410599
-0.707535 5.685379 5.495712
-0.743637 5.646652 5.454727
-0.745865 5.648422 5.437790
-0.745316 5.644180 5.461105
-0.720993 5.675644 5.460526
-0.733231 5.660965 5.448074
-0.721603 5.680466 5.437729
-0.726364 5.674881 5.442123
-0.736343 5.662216 5.455643
-0.733688 5.660294 5.458511
-0.719772 5.677322 5.467636
-0.713638 5.678787 5.462112
-0.712753 5.681686 5.449783
-0.731705 5.649063 5.491623
-0.744614 5.638840 5.483444
-0.740555 5.645676 5.474380
-0.732407 5.654648 5.469467
-0.726608 5.656052 5.481369
-0.740341 5.638687 5.492935
-0.732925 5.648453 5.498459
-0.726120 5.660141 5.491440
-0.720230 5.669540 5.482132
-0.726028 5.663071 5.482468
-0.692123 5.736191 5.475113
-0.703812 5.707413 5.468063
-0.715958 5.689713 5.449203
-0.713577 5.691940 5.452682
-0.709763 5.705185 5.441605
-0.709183 5.698532 5.453262
-0.705154 5.696396 5.467514
-0.690231 5.748428 5.467209
-0.705032 5.719254 5.447678
-0.698135 5.728683 5.452896
-0.698959 5.733749 5.449905
-0.696243 5.746414 5.440689
-0.691727 5.743698 5.439560
-0.692368 5.749344 5.438675
-0.693253 5.749771 5.445877
-0.700729 5.721024 5.457870
-0.698105 5.718307 5.485153
-0.708389 5.692245 5.474716
-0.707199 5.694290 5.478561
-0.708694 5.688644 5.486526
-0.695877 5.710190 5.490250
-0.697128 5.709854 5.493637
-0.692795 5.708206 5.499527
-0.687790 5.730484 5.476212
-0.697037 5.719681 5.471786
-0.693619 5.723557 5.482742
-0.684982 5.743973 5.493332
-0.686020 5.748703 5.483170
-0.756180 5.982132 5.367966
-0.759415 5.975052 5.367325
-0.778244 5.994675 5.301773
-0.753494 5.962326 5.259872
-0.769150 5.983627 5.273605
-0.760544 5.973221 5.265579
-0.777237 5.991623 5.264450
-0.753738 5.962814 5.294388
-0.760483 5.973770 5.299698
-0.756485 5.981339 5.284256
-0.777878 5.993759 5.281967
-0.768906 5.984238 5.307510
-0.778793 5.994644 5.352188
-0.751389 5.968460 5.338211
-0.750290 5.952377 5.328079
-0.753067 5.963455 5.327866
-0.779068 5.996140 5.340317
-0.756424 5.981644 5.326126
-0.778488 5.994156 5.317184
-0.760574 5.974258 5.334366
-0.767258 5.985123 5.339676
-0.754074 5.963760 5.364059
-0.773605 5.985886 5.489578
-0.779831 5.991898 5.422745
-0.753922 5.964371 5.398788
-0.760300 5.975388 5.403641
-0.750076 5.969498 5.378677
-0.779648 5.995834 5.380203
-0.768967 5.985275 5.376907
-0.779129 5.995102 5.387497
-0.752884 5.965134 5.432388
-0.783463 5.994675 5.428909
-0.769882 5.985611 5.413284
-0.757706 5.981003 5.411392
-0.751358 5.971512 5.420578
-0.756790 5.982376 5.495407
-0.750626 5.966202 5.464493
-0.782089 5.999313 5.457443
-0.784500 5.995010 5.465775
-0.780411 5.991470 5.462997
-0.760513 5.975906 5.439133
-0.755081 5.983627 5.451492
-0.770584 5.986008 5.449570
-0.750473 5.966751 5.499924
-0.760513 5.976425 5.474625
-0.750259 5.971634 5.479904
-0.734665 5.930496 5.366257
-0.693008 5.811203 5.365036
-0.704727 5.803787 5.288284
-0.708176 5.777939 5.269058
-0.713089 5.751083 5.252396
-0.705185 5.778854 5.262558
-0.710159 5.764725 5.277115
-0.706284 5.795639 5.271866
-0.708786 5.781723 5.253769
-0.707016 5.790390 5.262436
-0.707291 5.803970 5.252853
-0.706161 5.802933 5.256149
-0.702957 5.781174 5.302628
-0.711166 5.752090 5.283676
-0.711929 5.750320 5.291855
-0.702591 5.774063 5.285477
-0.706039 5.779007 5.300156
-0.706619 5.766220 5.306198
-0.704147 5.778122 5.309311
-0.704453 5.791580 5.292862
-0.705765 5.782150 5.292923
-0.705215 5.786942 5.290634
-0.709274 5.864212 5.305038
-0.707657 5.839340 5.278030
-0.706711 5.815048 5.252060
-0.707321 5.813980 5.257095
-0.704971 5.827957 5.278915
-0.714096 5.874527 5.273117
-0.709457 5.848099 5.262375
-0.708511 5.858841 5.272171
-0.708298 5.851425 5.274185
-0.710342 5.863419 5.272324
-0.702621 5.829086 5.309860
-0.703323 5.823105 5.284988
-0.704941 5.816025 5.283646
-0.704788 5.814590 5.296524
-0.704636 5.840652 5.307999
-0.705948 5.861435 5.311935
-0.707352 5.848831 5.302078
-0.706039 5.852493 5.305191
-0.695450 5.781448 5.369278
-0.703110 5.767685 5.335526
-0.708633 5.753311 5.314316
-0.700668 5.780960 5.326706
-0.699844 5.766434 5.323959
-0.703079 5.769394 5.328110
-0.708206 5.750534 5.330734
-0.704575 5.754929 5.342850
-0.700027 5.781601 5.330765
-0.700546 5.793137 5.321548
-0.700394 5.805466 5.316299
-0.694138 5.789627 5.337234
-0.699478 5.769180 5.364914
-0.702072 5.761002 5.347244
-0.697220 5.759140 5.362564
-0.703110 5.750229 5.369003
-0.701431 5.755783 5.369400
-0.701340 5.756332 5.372818
-0.697159 5.806870 5.346146
-0.697128 5.794571 5.351151
-0.698715 5.781998 5.358536
-0.704483 5.860184 5.359940
-0.701462 5.841965 5.332504
-0.702103 5.817276 5.313858
-0.699295 5.826523 5.323837
-0.697769 5.813553 5.333755
-0.697464 5.819016 5.341629
-0.701157 5.842056 5.337418
-0.698868 5.830582 5.338882
-0.707657 5.865128 5.337204
-0.704025 5.853531 5.336807
-0.703079 5.848801 5.340775
-0.695328 5.830460 5.362564
-0.693893 5.818863 5.345078
-0.694168 5.820389 5.371567
-0.694839 5.814011 5.373184
-0.698746 5.843185 5.368637
-0.696335 5.831741 5.369949
-0.705093 5.866318 5.368240
-0.704788 5.862747 5.353043
-0.701889 5.854599 5.368454
-0.741074 5.930679 5.358170
-0.733505 5.919998 5.299667
-0.719894 5.886246 5.272079
-0.720810 5.891037 5.264114
-0.721939 5.884933 5.279800
-0.740463 5.929214 5.254135
-0.736404 5.917831 5.252762
-0.732101 5.921005 5.256607
-0.732498 5.906601 5.251663
-0.720810 5.885757 5.312454
-0.727341 5.896286 5.282822
-0.718491 5.893387 5.304092
-0.716812 5.886612 5.311386
-0.712357 5.875473 5.304886
-0.740646 5.929703 5.288559
-0.736313 5.918411 5.286789
-0.732132 5.907181 5.285233
-0.736404 5.928085 5.285141
-0.749557 5.966171 5.296188
-0.749466 5.964615 5.255203
-0.748459 5.951736 5.256790
-0.744614 5.940323 5.255661
-0.743607 5.949753 5.256454
-0.749252 5.952103 5.292099
-0.744278 5.950027 5.295700
-0.745499 5.940598 5.291122
-0.741928 5.952438 5.289780
-0.731796 5.908310 5.353806
-0.726700 5.896957 5.316299
-0.710983 5.876358 5.337479
-0.733261 5.920456 5.341446
-0.737747 5.918533 5.323288
-0.730881 5.908005 5.317856
-0.740921 5.930161 5.323349
-0.737045 5.929855 5.326431
-0.725052 5.897903 5.348495
-0.719040 5.886703 5.344498
-0.709213 5.877304 5.369614
-0.714401 5.887253 5.351089
-0.718430 5.893723 5.346054
-0.737259 5.919205 5.357224
-0.748123 5.953415 5.359543
-0.742630 5.952072 5.332321
-0.745804 5.941086 5.326035
-0.745163 5.951797 5.334091
-0.746628 5.958328 5.369339
-0.743454 5.942154 5.357285
-0.740372 5.954361 5.372452
-0.677536 5.806046 5.492447
-0.690353 5.789047 5.426041
-0.696793 5.770432 5.395889
-0.698196 5.757736 5.403152
-0.694443 5.751419 5.401047
-0.693619 5.808273 5.375717
-0.690628 5.793106 5.376480
-0.693649 5.796005 5.380844
-0.694748 5.783585 5.387497
-0.692429 5.806503 5.387802
-0.692795 5.772049 5.425034
-0.698990 5.750290 5.407822
-0.694992 5.759109 5.433548
-0.691208 5.809464 5.407181
-0.693863 5.782425 5.409439
-0.692184 5.784805 5.418777
-0.690903 5.793137 5.419022
-0.691574 5.799362 5.408401
-0.691574 5.797104 5.412857
-0.701065 5.868362 5.432510
-0.693527 5.832993 5.400803
-0.692307 5.821396 5.403824
-0.693130 5.832748 5.402939
-0.701736 5.865799 5.392593
-0.699753 5.849106 5.380020
-0.706924 5.874069 5.390366
-0.699478 5.855728 5.399887
-0.696518 5.844284 5.400375
-0.703079 5.867325 5.400284
-0.691849 5.833939 5.433578
-0.690994 5.814133 5.412155
-0.689651 5.822647 5.435104
-0.699631 5.867996 5.433121
-0.696793 5.849564 5.419540
-0.697098 5.856888 5.431595
-0.693680 5.845535 5.431351
-0.689285 5.810501 5.439621
-0.689224 5.773544 5.455032
-0.689285 5.780075 5.444992
-0.689590 5.761093 5.460861
-0.687943 5.768784 5.461777
-0.688034 5.798538 5.442856
-0.688461 5.782028 5.447708
-0.688553 5.786331 5.448685
-0.682541 5.781387 5.485764
-0.682327 5.801346 5.454056
-0.684738 5.812210 5.468307
-0.684464 5.763046 5.488785
-0.685287 5.756210 5.475082
-0.686417 5.755997 5.477188
-0.683975 5.775467 5.482773
-0.684189 5.750687 5.493698
-0.684952 5.799911 5.473770
-0.684280 5.787979 5.477798
-0.696793 5.870529 5.497330
-0.688309 5.835403 5.463730
-0.687546 5.814438 5.451492
-0.689255 5.836563 5.441940
-0.697769 5.869705 5.463058
-0.692551 5.849533 5.458481
-0.691025 5.846756 5.462814
-0.694931 5.857925 5.463791
-0.692947 5.858963 5.496567
-0.695938 5.871658 5.472336
-0.688675 5.847885 5.495010
-0.689377 5.849930 5.498062
-0.685471 5.836655 5.495132
-0.686386 5.823990 5.465683
-0.682785 5.814224 5.490158
-0.686539 5.839310 5.482101
-0.683212 5.825363 5.496628
-0.680832 5.813766 5.498093
-0.729752 5.933273 5.487473
-0.738663 5.932297 5.424698
-0.723526 5.898788 5.381058
-0.711685 5.887772 5.390732
-0.716934 5.887741 5.376236
-0.715347 5.896805 5.385513
-0.706955 5.878403 5.401260
-0.731644 5.922195 5.382187
-0.735184 5.920212 5.389084
-0.729202 5.909470 5.384811
-0.738968 5.931686 5.390030
-0.722336 5.899612 5.414413
-0.714493 5.897842 5.427109
-0.715714 5.888565 5.409500
-0.708511 5.881210 5.425461
-0.705276 5.879318 5.434067
-0.709335 5.888443 5.430618
-0.734146 5.921036 5.422653
-0.729477 5.909927 5.420395
-0.732620 5.931229 5.406357
-0.728500 5.925308 5.421768
-0.747696 5.954422 5.429123
-0.748398 5.953720 5.394943
-0.743576 5.942673 5.392319
-0.743027 5.943314 5.426682
-0.747604 5.960953 5.407333
-0.740372 5.954605 5.414658
-0.733078 5.934708 5.487411
-0.721451 5.900345 5.448441
-0.712570 5.899857 5.467819
-0.713547 5.889633 5.441544
-0.710373 5.890610 5.459091
-0.731766 5.922104 5.454483
-0.727158 5.911026 5.452286
-0.732681 5.932846 5.447678
-0.735977 5.933456 5.456131
-0.727707 5.926254 5.463455
-0.719284 5.901413 5.480789
-0.711563 5.894821 5.496414
-0.707596 5.889328 5.470963
-0.706161 5.879654 5.470901
-0.711349 5.890732 5.473801
-0.730820 5.922867 5.488754
-0.725784 5.911880 5.485886
-0.743546 5.956467 5.493973
-0.739609 5.955612 5.456345
-0.749008 5.966782 5.443222
-0.739273 5.944717 5.456528
-0.746506 5.955246 5.462784
-0.747391 5.971542 5.459854
-0.737137 5.958054 5.496658
-0.738052 5.945541 5.490280
-0.763870 5.977921 5.624191
-0.750229 5.635635 5.500107
-0.877182 5.561874 5.622757
-0.996689 5.613602 5.550217
-0.974136 5.592453 5.530380
-0.968857 5.593643 5.500565
-0.952469 5.585587 5.517868
-0.958511 5.588791 5.508377
-0.938217 5.583633 5.513687
-0.967911 5.588181 5.522903
-0.994186 5.617569 5.511765
-0.985489 5.602890 5.512161
-0.996689 5.615891 5.512253
-0.963852 5.594681 5.510178
-0.983719 5.592697 5.557755
-0.966721 5.590134 5.548416
-0.967148 5.583786 5.546371
-0.949844 5.579880 5.536758
-0.937515 5.579330 5.537186
-0.951523 5.580154 5.540268
-0.982803 5.594925 5.556625
-0.984695 5.598251 5.535385
-0.993729 5.608231 5.550705
-0.887436 5.581161 5.560379
-0.911667 5.575089 5.531143
-0.931351 5.583359 5.512009
-0.923874 5.582993 5.510757
-0.909286 5.581894 5.507401
-0.908615 5.577744 5.531052
-0.889236 5.582809 5.518173
-0.895462 5.583267 5.506577
-0.880722 5.584457 5.505447
-0.894547 5.577469 5.528580
-0.879684 5.577835 5.526627
-0.898056 5.583237 5.524368
-0.909042 5.580399 5.561569
-0.922806 5.576584 5.532181
-0.934982 5.577255 5.549759
-0.879898 5.579239 5.555893
-0.894821 5.579239 5.558182
-0.891006 5.580460 5.557236
-0.998703 5.596420 5.620102
-0.982895 5.588058 5.581131
-0.968735 5.587265 5.587296
-0.966263 5.578751 5.569290
-0.951523 5.580185 5.568222
-0.937943 5.581985 5.567734
-0.948837 5.580215 5.577988
-0.999069 5.610031 5.588882
-0.992661 5.597610 5.582199
-0.990494 5.599228 5.588760
-0.982773 5.587326 5.608505
-0.948288 5.582565 5.620010
-0.967178 5.584061 5.602676
-0.952316 5.584793 5.600906
-0.938156 5.583176 5.596970
-0.937637 5.580124 5.622116
-0.999466 5.600845 5.596329
-0.877914 5.566574 5.599289
-0.932449 5.583450 5.591751
-0.911026 5.577011 5.572861
-0.923538 5.580917 5.564377
-0.908432 5.576553 5.585739
-0.923203 5.578964 5.590469
-0.879013 5.573563 5.578232
-0.894089 5.574692 5.581650
-0.907822 5.572922 5.610214
-0.922684 5.575790 5.615433
-0.909042 5.573227 5.612656
-0.894394 5.574966 5.595230
-0.893356 5.570084 5.605118
-0.794846 5.560532 5.596359
-0.822739 5.581955 5.550064
-0.851517 5.581345 5.525833
-0.866165 5.584427 5.503250
-0.852158 5.585556 5.502274
-0.873917 5.579971 5.528732
-0.865372 5.579361 5.525955
-0.849350 5.584732 5.524643
-0.823685 5.588394 5.528610
-0.837723 5.587509 5.502029
-0.823898 5.589798 5.502243
-0.839035 5.584915 5.526718
-0.837448 5.585617 5.527908
-0.823410 5.593033 5.530533
-0.850967 5.577744 5.550095
-0.865158 5.577957 5.552414
-0.855057 5.574722 5.561142
-0.858597 5.569687 5.559982
-0.836624 5.580032 5.550217
-0.830582 5.578842 5.554306
-0.762405 5.601364 5.560104
-0.809738 5.591080 5.529221
-0.804550 5.593735 5.525986
-0.796310 5.593796 5.530014
-0.810165 5.594101 5.504471
-0.797043 5.598831 5.507217
-0.783432 5.604263 5.510605
-0.781265 5.611862 5.512314
-0.756119 5.618454 5.520676
-0.777542 5.608627 5.505417
-0.769455 5.609543 5.513840
-0.769943 5.608353 5.527206
-0.762100 5.613846 5.517960
-0.795639 5.589066 5.553146
-0.803543 5.593063 5.533707
-0.801743 5.588242 5.547287
-0.808975 5.585770 5.551804
-0.803421 5.587692 5.561417
-0.781937 5.593521 5.555618
-0.782730 5.599258 5.533432
-0.778427 5.595932 5.548294
-0.768753 5.604507 5.536636
-0.766037 5.608505 5.545609
-0.754990 5.610123 5.540298
-0.752945 5.617142 5.539963
-0.768021 5.599258 5.559311
-0.825119 5.554977 5.594009
-0.849472 5.559860 5.588272
-0.862656 5.561813 5.592270
-0.819778 5.561813 5.585892
-0.833542 5.559555 5.585678
-0.847366 5.554062 5.610489
-0.862320 5.559586 5.618179
-0.822525 5.558334 5.601761
-0.830399 5.556778 5.598862
-0.832535 5.552933 5.607132
-0.813766 5.558975 5.604355
-0.818497 5.553238 5.605362
-0.804398 5.554276 5.604385
-0.859787 5.566574 5.598282
-0.847549 5.569016 5.580795
-0.872055 5.576645 5.568588
-0.864090 5.570969 5.573380
-0.849930 5.570908 5.571213
-0.848831 5.563705 5.592056
-0.821457 5.573227 5.569290
-0.835922 5.576248 5.564651
-0.835434 5.572281 5.570419
-0.814560 5.571213 5.572311
-0.868423 5.565659 5.605820
-0.750626 5.606003 5.614578
-0.785721 5.583145 5.593460
-0.807724 5.577164 5.571182
-0.794083 5.578079 5.577682
-0.811325 5.579056 5.568924
-0.800827 5.582138 5.562943
-0.794388 5.580154 5.572250
-0.805801 5.563980 5.586014
-0.797745 5.564102 5.589096
-0.792831 5.569382 5.589493
-0.767197 5.593216 5.581314
-0.781143 5.587784 5.577866
-0.778549 5.583450 5.590378
-0.751663 5.605179 5.579941
-0.766830 5.599319 5.565079
-0.754288 5.604935 5.563034
-0.757553 5.607132 5.582535
-0.758530 5.597641 5.581894
-0.753586 5.599747 5.585892
-0.792007 5.563492 5.611740
-0.785019 5.568588 5.606064
-0.765396 5.585526 5.617844
-0.779953 5.579269 5.597458
-0.766586 5.588577 5.604782
-0.763382 5.588791 5.602463
-0.763565 5.588577 5.603928
-0.752579 5.592148 5.606400
-0.779465 5.575912 5.622269
-0.758835 5.609177 5.624741
-0.877518 5.564102 5.739243
-0.877274 5.562424 5.680099
-0.876785 5.559494 5.648636
-0.902939 5.559219 5.641495
-0.891617 5.559189 5.650681
-0.892136 5.562454 5.682510
-0.998520 5.595505 5.675949
-0.982986 5.588516 5.637985
-0.951462 5.579727 5.652359
-0.968063 5.589706 5.628067
-0.966904 5.582474 5.629318
-0.951889 5.582230 5.626541
-0.966660 5.580948 5.656113
-0.998825 5.597244 5.649246
-0.988205 5.594284 5.628250
-0.983200 5.589737 5.667618
-0.986862 5.593338 5.669235
-0.969894 5.587296 5.667160
-0.950516 5.574142 5.675125
-0.946030 5.577744 5.659531
-0.938278 5.574234 5.668442
-0.965744 5.575668 5.679245
-0.956589 5.574875 5.676865
-0.941696 5.567917 5.681351
-0.906143 5.562637 5.656448
-0.936691 5.574539 5.644791
-0.921860 5.570786 5.638657
-0.906937 5.567429 5.632919
-0.935074 5.579422 5.630295
-0.905960 5.564682 5.650833
-0.899368 5.566299 5.632187
-0.892258 5.563278 5.626480
-0.906357 5.563889 5.686203
-0.936234 5.571671 5.670303
-0.918259 5.562881 5.663986
-0.921249 5.567093 5.663315
-0.901138 5.563980 5.671371
-0.942154 5.570694 5.739700
-0.983353 5.583298 5.706985
-0.998154 5.593399 5.702408
-0.982254 5.584396 5.690720
-0.973129 5.581924 5.705307
-0.981186 5.578323 5.713181
-0.939560 5.572800 5.707993
-0.950119 5.571793 5.701340
-0.942825 5.568741 5.697617
-0.965500 5.574295 5.706467
-0.953873 5.571060 5.705795
-0.940781 5.571121 5.710464
-0.981430 5.579666 5.743332
-0.971268 5.575058 5.726883
-0.996872 5.586136 5.723709
-0.982224 5.583267 5.748398
-0.972855 5.583664 5.746017
-0.940933 5.571213 5.747513
-0.965225 5.572678 5.733536
-0.949966 5.570938 5.729172
-0.892197 5.562759 5.740219
-0.920944 5.565292 5.718643
-0.935959 5.570053 5.697220
-0.921249 5.567001 5.691757
-0.906265 5.563339 5.714310
-0.877457 5.563553 5.709885
-0.904373 5.562607 5.691330
-0.901199 5.565018 5.711807
-0.892319 5.563522 5.712234
-0.921158 5.566513 5.748734
-0.935654 5.568222 5.724045
-0.925247 5.567429 5.744217
-0.906326 5.563736 5.743515
-0.903580 5.563980 5.733170
-0.766403 5.617020 5.736496
-0.862747 5.562424 5.677841
-0.866104 5.560287 5.645035
-0.847092 5.552383 5.637039
-0.862534 5.560959 5.647873
-0.822708 5.559128 5.642075
-0.832993 5.555801 5.638290
-0.819382 5.559189 5.639664
-0.829758 5.558609 5.640640
-0.805466 5.561569 5.639999
-0.821243 5.571732 5.680893
-0.861710 5.563950 5.637344
-0.848923 5.564346 5.677628
-0.861832 5.564957 5.677719
-0.834518 5.566147 5.677261
-0.835678 5.568161 5.657852
-0.831100 5.569443 5.685715
-0.753433 5.619034 5.686020
-0.792831 5.569290 5.645889
-0.795120 5.566422 5.639572
-0.785202 5.584579 5.634781
-0.753708 5.592178 5.625290
-0.774124 5.572525 5.625931
-0.766678 5.589401 5.633835
-0.764236 5.597366 5.646713
-0.754471 5.606277 5.648911
-0.801926 5.591995 5.685593
-0.807816 5.577835 5.684982
-0.797745 5.583054 5.686783
-0.781052 5.587265 5.662094
-0.755569 5.614426 5.685623
-0.765518 5.613144 5.670059
-0.768570 5.603134 5.676132
-0.822464 5.580093 5.746872
-0.847519 5.573868 5.706131
-0.866074 5.564896 5.687973
-0.863235 5.565445 5.709549
-0.849289 5.566818 5.708786
-0.822159 5.578110 5.716019
-0.814804 5.575699 5.687973
-0.835281 5.571182 5.711044
-0.849503 5.568192 5.738968
-0.861099 5.567490 5.718765
-0.864883 5.564560 5.729141
-0.863205 5.565231 5.738113
-0.848557 5.575851 5.748672
-0.835526 5.572769 5.741440
-0.830978 5.573685 5.728592
-0.770859 5.618454 5.749191
-0.795456 5.587875 5.693253
-0.789322 5.594589 5.710159
-0.782791 5.599747 5.703323
-0.772995 5.617386 5.715927
-0.765793 5.609299 5.692307
-0.769852 5.611191 5.712967
-0.796463 5.593674 5.727921
-0.808762 5.584305 5.720291
-0.812057 5.582230 5.730484
-0.798325 5.590469 5.730820
-0.783585 5.605362 5.737808
-0.808640 5.595932 5.731094
-0.756516 5.621414 5.721359
-0.760056 5.617538 5.733261
-0.698105 5.673935 5.620346
-0.733475 5.622269 5.610519
-0.742508 5.622971 5.551132
-0.749893 5.613205 5.547104
-0.742355 5.620865 5.559952
-0.728287 5.622665 5.605087
-0.733353 5.624130 5.582382
-0.734848 5.623764 5.569901
-0.746353 5.615005 5.564865
-0.741684 5.616684 5.572861
-0.740982 5.611404 5.595657
-0.704666 5.662338 5.612747
-0.693100 5.687454 5.551559
-0.725357 5.651230 5.522781
-0.744003 5.634201 5.506546
-0.731033 5.643997 5.514328
-0.735916 5.639175 5.515823
-0.743881 5.632553 5.520615
-0.743240 5.628555 5.528763
-0.719467 5.659378 5.529160
-0.719406 5.663132 5.503555
-0.700455 5.687271 5.523392
-0.710953 5.671341 5.500626
-0.717850 5.666031 5.505783
-0.710220 5.668777 5.530106
-0.718582 5.656601 5.524918
-0.704636 5.682785 5.516006
-0.706558 5.677383 5.515640
-0.723434 5.639755 5.561539
-0.742783 5.634628 5.537460
-0.737869 5.632401 5.531815
-0.730270 5.637985 5.536240
-0.733963 5.636063 5.541458
-0.729568 5.632523 5.558762
-0.717850 5.650772 5.547043
-0.715836 5.654587 5.544235
-0.692398 5.685959 5.560410
-0.705765 5.671158 5.537369
-0.707565 5.660690 5.538010
-0.698135 5.685196 5.542099
-0.703506 5.671280 5.555923
-0.705002 5.664871 5.559097
-0.694260 5.696854 5.532852
-0.692184 5.711777 5.521988
-0.700089 5.696854 5.503494
-0.695145 5.704117 5.512100
-0.694656 5.698929 5.531143
-0.690994 5.717300 5.522629
-0.689346 5.725296 5.512009
-0.670700 5.745468 5.548691
-0.677994 5.747330 5.520126
-0.684372 5.719589 5.513657
-0.686630 5.738235 5.502548
-0.684006 5.735794 5.513168
-0.680130 5.740616 5.528580
-0.681412 5.713974 5.547745
-0.682755 5.717850 5.533554
-0.683884 5.714676 5.545334
-0.685074 5.702255 5.552567
-0.679916 5.704056 5.549484
-0.681351 5.715408 5.558762
-0.671310 5.743637 5.551224
-0.682236 5.727829 5.537125
-0.682907 5.726517 5.532028
-0.674271 5.730637 5.561111
