2.640854 3.290176 5.465317
2.648392 3.282883 5.464096
2.632370 3.306381 5.465805
2.632980 3.297592 5.460953
2.679581 3.263016 5.478165
2.684341 3.259384 5.469925
2.674911 3.263779 5.495041
2.684494 3.259598 5.498764
2.665909 3.269333 5.493240
2.656387 3.275436 5.491562
2.661423 3.274429 5.484665
2.656784 3.279587 5.486435
2.643082 3.290695 5.472366
2.629532 3.309189 5.475418
2.636795 3.301254 5.473282
2.641068 3.290482 5.494308
2.648605 3.283127 5.492996
2.632614 3.306137 5.493942
2.635147 3.298386 5.496170
2.730026 3.251175 5.438065
2.689590 3.259842 5.448532
2.695023 3.256058 5.447037
2.702347 3.254837 5.440323
2.706894 3.252670 5.453476
2.745224 3.250473 5.454666
2.705887 3.251480 5.479843
2.691635 3.259781 5.478043
2.694046 3.254868 5.473404
2.703873 3.252914 5.473801
2.687576 3.259598 5.491318
2.730484 3.250229 5.478470
2.614914 3.378830 5.449295
2.617538 3.388260 5.390121
2.614853 3.375351 5.376358
2.621475 3.400864 5.377762
2.619370 3.393814 5.381607
2.617599 3.390823 5.382492
2.616165 3.375229 5.404953
2.615768 3.379898 5.395004
2.614273 3.377060 5.396652
2.613754 3.375992 5.402298
2.621506 3.401138 5.402786
2.622757 3.404587 5.397141
2.621750 3.403183 5.395767
2.617264 3.392105 5.406052
2.614761 3.378616 5.420883
2.614182 3.377670 5.421310
2.616867 3.389816 5.413284
2.621536 3.404037 5.420090
2.616928 3.393265 5.407425
2.613968 3.375992 5.427933
2.616959 3.392990 5.435135
2.621201 3.402145 5.426865
2.622726 3.404556 5.425003
2.617294 3.392258 5.431473
2.624985 3.413254 5.416061
2.623611 3.412033 5.414352
2.616745 3.390488 5.437912
2.613358 3.379593 5.444077
2.622635 3.404434 5.452927
2.621353 3.402267 5.452499
2.621567 3.404343 5.445389
2.614212 3.375992 5.453659
2.616898 3.390640 5.463577
2.617050 3.393143 5.455917
2.616104 3.392624 5.462326
2.614426 3.378189 5.476578
2.613785 3.377121 5.477829
2.613663 3.379471 5.470169
2.621628 3.403152 5.479111
2.621262 3.405350 5.469772
2.617325 3.393082 5.482010
2.621140 3.403030 5.477310
2.613754 3.379715 5.495865
2.621109 3.406082 5.494766
2.616806 3.391220 5.488724
2.617905 3.392563 5.491623
2.624405 3.411575 5.470596
2.621841 3.410995 5.496597
2.686630 3.476730 5.452805
2.631149 3.421707 5.384506
2.625381 3.412521 5.388077
2.626877 3.412064 5.388474
2.636093 3.431503 5.376053
2.631485 3.422562 5.378983
2.643784 3.436386 5.375229
2.625717 3.411484 5.393143
2.636276 3.431534 5.401535
2.634354 3.430984 5.396683
2.637405 3.432724 5.396103
2.631516 3.422897 5.404007
2.626053 3.413986 5.411087
2.636948 3.433914 5.419846
2.630966 3.422440 5.408920
2.626389 3.413803 5.437119
2.631149 3.422531 5.434525
2.631668 3.423050 5.429459
2.635849 3.432785 5.425308
2.635849 3.430893 5.425522
2.677505 3.469925 5.382919
2.655716 3.453018 5.388626
2.651321 3.451462 5.383835
2.642838 3.441330 5.389389
2.649338 3.447769 5.385971
2.655746 3.455276 5.381241
2.649429 3.445480 5.393509
2.642990 3.438156 5.397995
2.655624 3.455948 5.405807
2.662613 3.459946 5.384933
2.662735 3.462540 5.377182
2.669846 3.465988 5.382523
2.670639 3.467148 5.376938
2.662827 3.462753 5.402420
2.670670 3.467484 5.401932
2.685593 3.474503 5.382889
2.685898 3.476669 5.375748
2.677933 3.472366 5.375565
2.682022 3.474258 5.381210
2.686081 3.476761 5.401138
2.677872 3.472916 5.400223
2.649368 3.445999 5.418289
2.641983 3.440384 5.420212
2.650162 3.451004 5.410599
2.648911 3.448929 5.409744
2.643112 3.440994 5.415451
2.655746 3.453354 5.413712
2.649307 3.448929 5.435593
2.655563 3.456467 5.430679
2.670456 3.465408 5.409073
2.663376 3.459030 5.411972
2.670425 3.465805 5.434158
2.663040 3.462814 5.427994
2.670609 3.468063 5.426804
2.663132 3.459885 5.436447
2.679489 3.473648 5.406998
2.678177 3.469223 5.409653
2.685837 3.474503 5.408463
2.678513 3.473251 5.434097
2.678024 3.473068 5.425735
2.685287 3.478622 5.423965
2.678085 3.469772 5.434494
2.686203 3.474258 5.434616
2.745255 3.481125 5.389511
2.703171 3.481522 5.386276
2.694290 3.478500 5.383957
2.694504 3.480362 5.377121
2.713791 3.482681 5.387161
2.714432 3.482590 5.383987
2.702591 3.484665 5.377426
2.695663 3.478836 5.405075
2.703598 3.483414 5.404922
2.712784 3.482895 5.391068
2.746109 3.482529 5.383621
2.733902 3.482101 5.380753
2.735092 3.482925 5.375778
2.734024 3.482285 5.405991
2.722397 3.483994 5.396225
2.724564 3.482803 5.394241
2.735611 3.482498 5.402023
2.712662 3.483475 5.415756
2.694321 3.478928 5.408859
2.703140 3.481979 5.411179
2.714066 3.482864 5.412582
2.714706 3.482010 5.411209
2.695541 3.477188 5.437363
2.695572 3.479416 5.429855
2.703781 3.483566 5.430496
2.745346 3.481400 5.414688
2.722549 3.484207 5.421524
2.724564 3.483261 5.419174
2.746506 3.482315 5.409531
2.734421 3.482040 5.432114
2.735306 3.483444 5.426163
2.746536 3.482712 5.434677
2.625259 3.411972 5.443405
2.625595 3.412521 5.442947
2.634201 3.430405 5.452042
2.637039 3.434219 5.445236
2.636002 3.432877 5.451004
2.626358 3.414322 5.462204
2.625443 3.413254 5.467728
2.630936 3.423264 5.459274
2.631302 3.424149 5.453629
2.634781 3.430191 5.480423
2.630814 3.425461 5.477615
2.636002 3.433334 5.476334
2.637375 3.434036 5.471542
2.625778 3.413040 5.494217
2.626175 3.415054 5.487167
2.637741 3.433762 5.498093
2.630905 3.423782 5.484543
2.678360 3.472885 5.451920
2.643478 3.438126 5.449539
2.649277 3.446609 5.443161
2.643387 3.441147 5.441055
2.649307 3.450638 5.437729
2.655502 3.454208 5.438217
2.648880 3.450302 5.465256
2.643234 3.441635 5.466202
2.649429 3.448929 5.461472
2.655655 3.456772 5.456161
2.656448 3.452957 5.466080
2.663895 3.458939 5.463821
2.663773 3.461929 5.455307
2.670547 3.465988 5.459793
2.671127 3.467514 5.453537
2.679153 3.473068 5.462418
2.678726 3.469070 5.461594
2.686691 3.473831 5.461197
2.649796 3.446121 5.469955
2.643356 3.438522 5.474869
2.649216 3.450089 5.493484
2.649368 3.449417 5.486801
2.642197 3.441238 5.496811
2.643478 3.441666 5.492294
2.649979 3.446152 5.496017
2.663651 3.462570 5.480392
2.671524 3.467331 5.479904
2.656448 3.455826 5.483749
2.670914 3.465775 5.486282
2.663589 3.459854 5.488541
2.656479 3.453323 5.491684
2.678848 3.472549 5.478561
2.678818 3.472733 5.490158
2.678513 3.469803 5.486526
2.687027 3.473679 5.487564
2.745712 3.481186 5.440781
2.703964 3.480789 5.438705
2.712997 3.483292 5.441849
2.714493 3.482376 5.439041
2.716385 3.482132 5.437515
2.695786 3.477188 5.463303
2.695145 3.480515 5.454025
2.704422 3.480606 5.465103
2.704086 3.483475 5.456528
2.713547 3.482834 5.468613
2.717941 3.482224 5.464005
2.715225 3.481522 5.466415
2.722916 3.483994 5.447739
2.724594 3.483627 5.444412
2.746201 3.480789 5.467331
2.734634 3.482101 5.457932
2.736099 3.482529 5.453506
2.747299 3.481827 5.461960
2.704727 3.482803 5.483749
2.688309 3.474319 5.482742
2.695267 3.478500 5.487381
2.697281 3.477341 5.485184
2.713608 3.483139 5.494278
2.704208 3.481155 5.490280
2.714828 3.482895 5.490433
2.736740 3.481918 5.480515
2.723709 3.483047 5.475235
2.725204 3.482986 5.471420
2.725204 3.483444 5.496933
2.719650 3.482376 5.490463
2.746323 3.481033 5.493088
2.735092 3.481796 5.484543
2.747482 3.481949 5.487869
2.865555 3.359665 5.327774
2.861526 3.363022 5.331192
2.802383 3.261490 5.264236
2.775345 3.252579 5.260208
2.771805 3.250381 5.271194
2.768936 3.250778 5.267319
2.794998 3.258377 5.254288
2.802658 3.263565 5.280746
2.777878 3.255600 5.292160
2.760086 3.251022 5.300766
2.767288 3.253433 5.309036
2.774551 3.253494 5.307205
2.800919 3.265305 5.292526
2.802048 3.261917 5.304886
2.853897 3.310684 5.271591
2.821945 3.277420 5.267929
2.834915 3.289383 5.263474
2.829361 3.286057 5.267654
2.819260 3.275314 5.296829
2.829269 3.286118 5.308121
2.838760 3.296707 5.302017
2.848282 3.312454 5.297989
2.863724 3.365555 5.275650
2.862045 3.342667 5.255783
2.851425 3.314835 5.268814
2.860947 3.341385 5.283463
2.860489 3.340439 5.310776
2.867386 3.356583 5.285660
2.862808 3.364395 5.303238
2.800980 3.265366 5.319901
2.778214 3.255966 5.320023
2.760910 3.251999 5.329727
2.777084 3.255814 5.342880
2.805832 3.268234 5.317734
2.812149 3.270798 5.328934
2.780136 3.258224 5.351212
2.767776 3.252396 5.349075
2.751755 3.251083 5.372665
2.762039 3.253342 5.359451
2.801163 3.263290 5.346085
2.809402 3.274490 5.355789
2.803329 3.268112 5.351791
2.845535 3.310287 5.326981
2.843460 3.307236 5.342575
2.827316 3.289291 5.350204
2.842361 3.307907 5.356400
2.852493 3.313034 5.313217
2.858292 3.338608 5.339371
2.851364 3.314743 5.354660
2.857651 3.337570 5.367020
2.861130 3.362106 5.358597
2.865677 3.359329 5.368240
2.782364 3.473221 5.323013
2.852524 3.424698 5.266800
2.864914 3.388474 5.269119
2.858749 3.405960 5.268051
2.858719 3.405258 5.294998
2.863388 3.387009 5.297104
2.853012 3.424271 5.293350
2.794724 3.469254 5.261765
2.804764 3.465408 5.256546
2.809891 3.462387 5.254929
2.812363 3.460556 5.253891
2.810074 3.462418 5.279434
2.812119 3.461380 5.277237
2.767685 3.478165 5.258499
2.767807 3.479568 5.252335
2.756332 3.479446 5.274063
2.757034 3.480301 5.268875
2.768326 3.479080 5.277664
2.795731 3.469620 5.257339
2.781479 3.473862 5.272354
2.781815 3.475327 5.266251
2.781906 3.475235 5.266922
2.805923 3.465317 5.282669
2.806137 3.464737 5.309494
2.811386 3.460709 5.306839
2.768356 3.477463 5.284256
2.756516 3.481522 5.291763
2.750412 3.481277 5.309860
2.756149 3.480087 5.297867
2.768295 3.477982 5.308304
2.768753 3.478745 5.302963
2.781479 3.474258 5.296463
2.782944 3.473892 5.293137
2.794876 3.469406 5.286179
2.796036 3.469559 5.282089
2.784348 3.475784 5.292160
2.795334 3.469070 5.311508
2.796494 3.469223 5.307419
2.829514 3.448441 5.258774
2.833206 3.444473 5.260849
2.824631 3.452896 5.275284
2.840622 3.440231 5.269516
2.835495 3.441238 5.290390
2.840408 3.439468 5.296555
2.831284 3.446243 5.286789
2.824966 3.452377 5.301956
2.813950 3.458847 5.305893
2.852127 3.423141 5.320908
2.861526 3.385361 5.325363
2.857559 3.403946 5.322800
2.838211 3.437302 5.321152
2.861130 3.384445 5.352768
2.857010 3.402969 5.350266
2.839157 3.437424 5.351517
2.839767 3.435196 5.349350
2.851059 3.421860 5.348740
2.783127 3.474503 5.320023
2.805832 3.463913 5.336777
2.796310 3.467911 5.338333
2.797592 3.467880 5.334457
2.812485 3.459366 5.333817
2.756454 3.480026 5.322952
2.756638 3.481735 5.316360
2.757004 3.481583 5.341721
2.752090 3.481430 5.335861
2.768448 3.478104 5.333084
2.769272 3.478317 5.328629
2.783066 3.474075 5.317764
2.797897 3.467758 5.359756
2.796677 3.467667 5.363907
2.807236 3.463913 5.362900
2.768906 3.477737 5.358841
2.756729 3.479935 5.348129
2.769119 3.479019 5.352737
2.757065 3.479782 5.373672
2.752274 3.480820 5.362930
2.757858 3.480576 5.368546
2.782547 3.473312 5.347977
2.783066 3.473770 5.347153
2.784103 3.472794 5.344803
2.785141 3.474136 5.372940
2.782669 3.473526 5.372910
2.784286 3.472916 5.369888
2.839798 3.438431 5.323990
2.834152 3.441849 5.318192
2.823746 3.451065 5.329849
2.814346 3.458572 5.331192
2.835068 3.440720 5.344864
2.825546 3.451309 5.355698
2.815689 3.456833 5.358994
2.836716 3.438522 5.373428
2.812912 3.459091 5.359390
2.858353 3.358536 5.442490
2.800156 3.264877 5.387466
2.779129 3.256027 5.377365
2.761978 3.253281 5.387100
2.765976 3.255325 5.391190
2.781631 3.259964 5.381760
2.807205 3.272629 5.386887
2.811722 3.275833 5.391037
2.762680 3.254074 5.416336
2.754013 3.252182 5.407791
2.765549 3.255905 5.432205
2.782242 3.260483 5.414536
2.782272 3.260727 5.410843
2.809677 3.275497 5.419449
2.800552 3.264023 5.427750
2.827713 3.288467 5.390457
2.841751 3.306900 5.384109
2.814285 3.278061 5.426987
2.838577 3.304489 5.413712
2.826920 3.289688 5.431778
2.861191 3.361435 5.385757
2.847855 3.316605 5.382614
2.850754 3.315689 5.395798
2.854874 3.335403 5.396225
2.850967 3.320969 5.419876
2.850662 3.315689 5.436569
2.854080 3.334305 5.424149
2.859695 3.359970 5.414139
2.865158 3.360062 5.409409
2.784286 3.260696 5.449265
2.755600 3.250778 5.441513
2.762772 3.254196 5.444595
2.782578 3.261063 5.439438
2.782822 3.261368 5.468124
2.766891 3.253433 5.471786
2.757553 3.250473 5.476028
2.761978 3.253281 5.471298
2.762039 3.253342 5.499863
2.786179 3.260391 5.483841
2.798965 3.266556 5.469803
2.781998 3.260391 5.494888
2.835403 3.302109 5.443436
2.812515 3.278824 5.453018
2.817215 3.281662 5.463852
2.812851 3.279221 5.481918
2.826126 3.290909 5.473221
2.834671 3.301010 5.471542
2.861893 3.365646 5.453018
2.852188 3.332596 5.452988
2.850937 3.315048 5.477097
2.851456 3.331497 5.481064
2.856857 3.357071 5.471054
2.856979 3.356400 5.498581
2.862320 3.364731 5.493515
2.783890 3.472702 5.451004
2.850113 3.420670 5.376572
2.858932 3.382614 5.381485
2.855301 3.401413 5.378616
2.855148 3.400620 5.406021
2.840103 3.437210 5.378006
2.839706 3.436325 5.405533
2.851059 3.420486 5.403122
2.858841 3.381851 5.408829
2.858597 3.381027 5.436356
2.854294 3.399460 5.433945
2.841110 3.436325 5.431870
2.839035 3.435593 5.428787
2.851120 3.419815 5.430405
2.784012 3.472885 5.400986
2.797012 3.467514 5.389481
2.798477 3.467209 5.385910
2.807693 3.463455 5.389816
2.769577 3.477036 5.385330
2.755417 3.481705 5.388016
2.770157 3.477737 5.380051
2.757553 3.479385 5.399857
2.758011 3.480728 5.393723
2.769821 3.478714 5.404068
2.783188 3.473038 5.399094
2.783951 3.473923 5.393753
2.797958 3.466446 5.416641
2.807846 3.462814 5.417038
2.799118 3.466629 5.412338
2.798538 3.467941 5.435989
2.769791 3.477097 5.410751
2.756119 3.481339 5.414902
2.758499 3.480392 5.419876
2.757736 3.479477 5.425308
2.770126 3.476913 5.436722
2.770920 3.477310 5.431931
2.784561 3.473343 5.420242
2.785110 3.472733 5.427597
2.783096 3.473587 5.423813
2.825089 3.450363 5.383224
2.814377 3.457077 5.387772
2.817429 3.454483 5.387955
2.836868 3.438675 5.398514
2.838730 3.438126 5.420822
2.825119 3.449692 5.410446
2.815140 3.456253 5.414536
2.818314 3.453445 5.415024
2.825943 3.449417 5.437241
2.814102 3.458359 5.436935
2.848770 3.417923 5.459518
2.858841 3.380447 5.463669
2.854599 3.398941 5.461197
2.840744 3.435440 5.459579
2.856827 3.378708 5.492661
2.855270 3.398605 5.488235
2.839737 3.434250 5.487778
2.850693 3.418198 5.485641
2.785904 3.471573 5.448776
2.797623 3.467361 5.440933
2.807388 3.461929 5.444748
2.800308 3.465591 5.465561
2.758316 3.478897 5.452072
2.758682 3.480484 5.445511
2.755295 3.480270 5.442886
2.770706 3.476456 5.463333
2.771225 3.477219 5.457901
2.785355 3.472153 5.454880
2.798935 3.465652 5.469498
2.807632 3.461319 5.472061
2.799850 3.464615 5.497269
2.807877 3.460739 5.499466
2.801346 3.464279 5.493668
2.758835 3.478500 5.478683
2.756577 3.480209 5.469528
2.759354 3.479813 5.472580
2.759750 3.479538 5.499161
2.758133 3.480301 5.496048
2.770981 3.476151 5.489822
2.772141 3.476242 5.485519
2.786240 3.471909 5.481827
2.784683 3.471817 5.478378
2.786453 3.471115 5.475418
2.834061 3.443924 5.441452
2.817642 3.454941 5.438309
2.825851 3.448685 5.464767
2.820175 3.451309 5.469864
2.816788 3.454453 5.468887
2.820663 3.451004 5.496414
2.825485 3.447800 5.492538
2.817551 3.453415 5.496506
2.625534 3.355118 5.837784
2.743637 3.248581 5.565964
2.730118 3.248306 5.583298
2.744492 3.249588 5.510086
2.717026 3.249069 5.515274
2.731827 3.248245 5.507553
2.730362 3.248550 5.525925
2.717484 3.249588 5.544968
2.744186 3.249252 5.538223
2.733383 3.247849 5.542130
2.729935 3.248062 5.553879
2.716263 3.248154 5.571457
2.716904 3.248917 5.601944
2.744125 3.249161 5.596054
2.730362 3.249893 5.601395
2.730057 3.248215 5.612381
2.743484 3.248398 5.624039
2.737747 3.249222 5.613022
2.739456 3.247910 5.647385
2.731064 3.249405 5.643875
2.717697 3.249863 5.632950
2.741898 3.249741 5.683792
2.730942 3.249283 5.673264
2.626083 3.322739 5.575119
2.613571 3.358719 5.570724
2.612869 3.356705 5.512039
2.624496 3.320999 5.511948
2.615952 3.340530 5.512741
2.614639 3.334000 5.504135
2.623795 3.323044 5.516983
2.615250 3.343704 5.527756
2.618546 3.331528 5.517929
2.614059 3.338974 5.519028
2.617203 3.336075 5.517288
2.612747 3.357681 5.511368
2.613144 3.357742 5.500717
2.615768 3.344406 5.500198
2.613144 3.373795 5.514053
2.612015 3.363174 5.514725
2.612228 3.359909 5.523605
2.624161 3.322800 5.545395
2.624435 3.320938 5.540604
2.614517 3.338608 5.545944
2.615524 3.332809 5.532150
2.616562 3.340317 5.541336
2.615097 3.343521 5.556259
2.618332 3.332504 5.550095
2.619125 3.332260 5.547928
2.615036 3.334152 5.556564
2.613510 3.358658 5.541702
2.614334 3.356613 5.541306
2.615158 3.373764 5.543747
2.612381 3.362900 5.541458
2.612259 3.360214 5.549545
2.614059 3.356339 5.569321
2.624588 3.321121 5.569839
2.615097 3.337936 5.573471
2.617142 3.340103 5.570023
2.619522 3.332748 5.577744
2.613937 3.336594 5.579269
2.620071 3.331345 5.584457
2.615280 3.373489 5.572098
2.612839 3.362564 5.568558
2.615982 3.344681 5.587234
2.613388 3.358505 5.578751
2.619888 3.333237 5.607773
2.614944 3.338669 5.599014
2.619766 3.340103 5.600418
2.621475 3.328903 5.618088
2.613754 3.358322 5.605850
2.614090 3.356064 5.597672
2.615311 3.373215 5.600449
2.614365 3.359756 5.601547
2.612900 3.362869 5.594803
2.616531 3.345383 5.617661
2.612595 3.363815 5.620193
2.626328 3.322495 5.603683
2.643295 3.290451 5.500504
2.680954 3.260544 5.511398
2.687271 3.259048 5.502731
2.659622 3.273972 5.511337
2.675064 3.263962 5.524063
2.686996 3.258774 5.530685
2.684189 3.259232 5.526840
2.656693 3.275833 5.520920
2.665451 3.268784 5.520981
2.657974 3.276260 5.519241
2.630386 3.310257 5.505753
2.636856 3.301315 5.501877
2.644089 3.290268 5.529221
2.648544 3.283066 5.521530
2.641251 3.290695 5.523331
2.636795 3.301254 5.530502
2.630844 3.305679 5.520615
2.637131 3.298477 5.531082
2.682663 3.259445 5.545639
2.686478 3.261276 5.533218
2.661850 3.273941 5.541214
2.683853 3.258804 5.555038
2.674850 3.263718 5.552475
2.659927 3.276016 5.553970
2.665482 3.268814 5.549850
2.656418 3.275497 5.549179
2.630539 3.310471 5.534805
2.644791 3.290054 5.557938
2.648666 3.283218 5.550674
2.641861 3.291458 5.553482
2.636917 3.301407 5.559647
2.632828 3.305618 5.550339
2.730148 3.250595 5.519577
2.705673 3.252121 5.508072
2.694138 3.255020 5.502151
2.705917 3.251511 5.508469
2.693893 3.254684 5.530319
2.707596 3.251877 5.542801
2.705826 3.251419 5.537033
2.687515 3.258560 5.559341
2.693527 3.254257 5.558517
2.729660 3.251236 5.560959
2.647903 3.282272 5.578079
2.655624 3.274551 5.576584
2.660172 3.273514 5.568161
2.686356 3.258133 5.586807
2.674210 3.262955 5.580215
2.683670 3.258591 5.583725
2.684494 3.258713 5.580124
2.661819 3.275742 5.588821
2.665665 3.269028 5.579269
2.638535 3.295944 5.564499
2.630814 3.310776 5.564285
2.646286 3.289719 5.587387
2.642075 3.291702 5.582993
2.630966 3.310959 5.593704
2.632858 3.305344 5.578629
2.636856 3.301315 5.588608
2.661240 3.273331 5.597366
2.675674 3.264725 5.612534
2.686935 3.260605 5.616348
2.686905 3.260208 5.615036
2.684586 3.259689 5.614853
2.663925 3.276108 5.624130
2.666489 3.270035 5.610245
2.657516 3.276871 5.609756
2.639999 3.293625 5.598129
2.634171 3.305191 5.608017
2.646896 3.289505 5.616287
2.649307 3.284012 5.610306
2.642410 3.292160 5.612991
2.631241 3.311356 5.623672
2.637711 3.302414 5.619736
2.735947 3.250168 5.578506
2.709213 3.250290 5.576736
2.687881 3.258743 5.573044
2.705276 3.250748 5.564835
2.693466 3.254196 5.587448
2.705978 3.251572 5.595383
2.690292 3.258286 5.618332
2.694351 3.255264 5.618607
2.705704 3.251266 5.624130
2.711288 3.250595 5.612015
2.625320 3.322037 5.600571
2.624619 3.410538 5.583267
2.623581 3.410904 5.525986
2.613510 3.378067 5.502518
2.613358 3.376816 5.502792
2.616867 3.391525 5.514450
2.617233 3.393631 5.507309
2.621567 3.403061 5.507401
2.621048 3.403641 5.502518
2.614029 3.377548 5.529617
2.613480 3.380722 5.520584
2.621048 3.404068 5.528183
2.616562 3.392136 5.518631
2.621658 3.405533 5.521927
2.614334 3.378098 5.533524
2.616806 3.392044 5.540054
2.617294 3.393997 5.533157
2.621353 3.402786 5.535568
2.613968 3.377579 5.561508
2.613754 3.380630 5.547165
2.613998 3.378036 5.555313
2.617203 3.394577 5.558762
2.617142 3.391922 5.547195
2.621078 3.404434 5.554123
2.623978 3.410721 5.554489
2.621384 3.406448 5.546982
2.614151 3.380325 5.574234
2.622086 3.405624 5.574936
2.616165 3.391525 5.574692
2.617142 3.391861 5.566971
2.621170 3.402542 5.563980
2.615189 3.379196 5.593216
2.614700 3.377151 5.583420
2.621384 3.404282 5.581039
2.617477 3.394485 5.585617
2.614395 3.380325 5.601059
2.621994 3.403610 5.609055
2.617661 3.391251 5.594681
2.622238 3.405746 5.601547
2.621994 3.403610 5.594742
2.617294 3.391403 5.603897
2.614700 3.378555 5.621384
2.614914 3.377151 5.610245
2.617569 3.391922 5.620590
2.618210 3.393631 5.613876
2.622971 3.410019 5.610367
2.676041 3.471542 5.572678
2.626328 3.415268 5.513138
2.630569 3.424789 5.509201
2.633743 3.429794 5.507645
2.631485 3.424698 5.504990
2.636826 3.432266 5.504196
2.625351 3.414230 5.518661
2.636185 3.433792 5.528122
2.637802 3.434128 5.523880
2.626450 3.415207 5.539505
2.625839 3.413742 5.545853
2.630661 3.425034 5.535233
2.631912 3.424362 5.531906
2.634537 3.429611 5.536362
2.636642 3.433395 5.555344
2.637527 3.435043 5.548996
2.631546 3.428970 5.562271
2.631210 3.426071 5.555832
2.630722 3.425339 5.561325
2.678818 3.469681 5.513016
2.649796 3.449081 5.513626
2.643600 3.438980 5.526749
2.643509 3.442062 5.517990
2.648453 3.449692 5.520981
2.649673 3.447128 5.520859
2.671066 3.465958 5.512283
2.663651 3.460190 5.514297
2.663773 3.462845 5.506241
2.671127 3.468460 5.504379
2.656601 3.456009 5.509750
2.671371 3.468460 5.530807
2.656845 3.453140 5.518326
2.687393 3.473465 5.514267
2.678909 3.472855 5.504318
2.679153 3.472855 5.530746
2.680405 3.472672 5.519516
2.649948 3.449265 5.539841
2.643509 3.442459 5.543900
2.647537 3.449295 5.548477
2.643631 3.439316 5.552750
2.650223 3.446609 5.548203
2.671799 3.465073 5.540176
2.656967 3.453323 5.544540
2.656296 3.456924 5.534744
2.663681 3.463425 5.531784
2.664139 3.459763 5.541489
2.664078 3.463150 5.558823
2.656570 3.456924 5.561356
2.671860 3.468033 5.558151
2.678482 3.472153 5.546219
2.679031 3.469772 5.539383
2.687271 3.476883 5.531387
2.687393 3.473892 5.540085
2.679550 3.472641 5.557785
2.735184 3.482040 5.510422
2.705063 3.482651 5.510239
2.695633 3.478287 5.514023
2.687546 3.476059 5.506271
2.695999 3.479965 5.507278
2.704300 3.481461 5.516098
2.713699 3.483383 5.520248
2.715164 3.482529 5.517319
2.747971 3.481613 5.514694
2.723404 3.483932 5.500046
2.736618 3.482529 5.505844
2.724045 3.483322 5.527451
2.719894 3.481796 5.517990
2.725784 3.482864 5.524185
2.746964 3.480362 5.520523
2.705154 3.480637 5.544052
2.695816 3.478348 5.540390
2.697891 3.477188 5.538223
2.715591 3.482254 5.544235
2.705185 3.482895 5.536362
2.688919 3.474533 5.561844
2.714096 3.483109 5.547195
2.748367 3.481400 5.541489
2.720779 3.481522 5.545212
2.735519 3.481827 5.537125
2.737320 3.481827 5.533340
2.724167 3.483505 5.553696
2.726151 3.482712 5.550980
2.737411 3.482132 5.559494
2.747421 3.480057 5.547501
2.625687 3.414444 5.571396
2.626450 3.415909 5.565109
2.637436 3.435654 5.574783
2.627029 3.415054 5.593185
2.631180 3.424942 5.588730
2.631699 3.425674 5.583237
2.636703 3.433731 5.581619
2.633987 3.428970 5.592484
2.626175 3.413986 5.598984
2.636520 3.434494 5.607315
2.637741 3.435562 5.601791
2.627151 3.415298 5.619827
2.632278 3.428513 5.619644
2.630814 3.426010 5.613998
2.632004 3.425552 5.610336
2.678482 3.471115 5.563889
2.647293 3.448990 5.576553
2.650284 3.446854 5.574539
2.643600 3.442764 5.570053
2.650101 3.449478 5.566147
2.650436 3.449295 5.593338
2.643875 3.439468 5.579330
2.656998 3.453690 5.570633
2.671402 3.466202 5.565048
2.664230 3.460007 5.567795
2.671677 3.466110 5.592056
2.664352 3.463120 5.585739
2.657089 3.456436 5.589035
2.679062 3.470627 5.591568
2.671707 3.468765 5.583786
2.679581 3.472977 5.584030
2.647324 3.448715 5.604996
2.644302 3.438950 5.606979
2.643906 3.442642 5.597153
2.650345 3.447189 5.600906
2.650406 3.449814 5.619553
2.643784 3.443344 5.623123
2.656876 3.454330 5.596512
2.664230 3.460434 5.594009
2.656998 3.454483 5.623306
2.657303 3.456558 5.615891
2.664413 3.463486 5.612198
2.664780 3.459885 5.621933
2.672012 3.465988 5.619339
2.672012 3.468674 5.610947
2.675735 3.471237 5.600815
2.679245 3.470688 5.618515
2.679520 3.473587 5.610092
2.747269 3.480698 5.573105
2.714615 3.482681 5.574661
2.695938 3.478592 5.566727
2.687546 3.474075 5.566483
2.697647 3.478043 5.563553
2.716019 3.482010 5.571396
2.704758 3.481461 5.569321
2.705551 3.482681 5.563309
2.696152 3.478683 5.593460
2.687668 3.474289 5.593002
2.688919 3.474991 5.587936
2.698166 3.477585 5.591141
2.705460 3.483322 5.589188
2.736282 3.481033 5.565079
2.726212 3.483078 5.577164
2.724655 3.482773 5.570328
2.748672 3.481308 5.568344
2.724350 3.483627 5.580276
2.736038 3.481857 5.590530
2.737686 3.482101 5.586380
2.704971 3.481552 5.596085
2.714676 3.483017 5.601028
2.716415 3.481735 5.598709
2.696671 3.478226 5.621262
2.687759 3.477432 5.610977
2.698044 3.478256 5.617111
2.687607 3.474808 5.619186
2.705368 3.481277 5.623611
2.705643 3.483475 5.615982
2.716385 3.482254 5.624954
2.747696 3.480392 5.600479
2.726181 3.483505 5.603378
2.725449 3.482468 5.597733
2.748581 3.481918 5.594131
2.724014 3.484665 5.605515
2.728073 3.483047 5.623947
2.748795 3.481979 5.621109
2.735794 3.482681 5.616196
2.737778 3.482346 5.612900
2.615829 3.355759 5.691483
2.614548 3.357254 5.634476
2.620743 3.334305 5.638931
2.615891 3.337326 5.628006
2.618576 3.339706 5.627914
2.623032 3.327042 5.652237
2.616379 3.356033 5.627914
2.615219 3.372940 5.628830
2.614670 3.360153 5.631546
2.617050 3.346054 5.648209
2.613937 3.361832 5.650497
2.621750 3.335587 5.670731
2.616653 3.336380 5.656601
2.621445 3.339737 5.658798
2.619308 3.339249 5.685745
2.617935 3.334183 5.687302
2.615250 3.356430 5.663010
2.616959 3.355820 5.656937
2.616531 3.372818 5.658401
2.615555 3.361313 5.662979
2.618393 3.355698 5.686783
2.617722 3.346878 5.679276
2.616135 3.372482 5.686813
2.614456 3.361343 5.678543
2.615494 3.361221 5.692581
2.621231 3.334946 5.699417
2.622879 3.339340 5.717422
2.617294 3.336044 5.711899
2.620895 3.355728 5.717575
2.618423 3.347824 5.710709
2.617264 3.372330 5.716507
2.615616 3.359665 5.708755
2.623154 3.337387 5.733597
2.623550 3.339157 5.746902
2.618820 3.350693 5.727188
2.618729 3.365372 5.729568
2.617569 3.373978 5.724686
2.622482 3.355606 5.747787
2.620834 3.350906 5.746048
2.619064 3.353745 5.746017
2.618912 3.374344 5.747696
2.619888 3.372360 5.747543
2.626755 3.323868 5.692337
2.642197 3.294571 5.633865
2.665604 3.273483 5.629257
2.676193 3.265366 5.643051
2.685715 3.261093 5.646744
2.658279 3.277817 5.640854
2.667740 3.271561 5.642349
2.636368 3.305161 5.638260
2.647934 3.289352 5.645676
2.650101 3.284958 5.641403
2.642624 3.292404 5.642868
2.632126 3.312454 5.655106
2.638870 3.303879 5.651718
2.684036 3.264969 5.658829
2.658737 3.278397 5.671494
2.670609 3.273758 5.661789
2.665848 3.275864 5.659225
2.685593 3.260910 5.676102
2.666428 3.273026 5.687241
2.667953 3.271835 5.672440
2.676987 3.266342 5.674423
2.644058 3.293961 5.668747
2.635452 3.304794 5.666153
2.643875 3.293961 5.675217
2.651169 3.286301 5.673325
2.649490 3.289261 5.675583
2.639694 3.304886 5.683182
2.729691 3.250900 5.643143
2.706497 3.252213 5.655319
2.688675 3.259354 5.650772
2.694778 3.255783 5.648972
2.695450 3.258530 5.650955
2.713486 3.251297 5.647598
2.718002 3.250198 5.663101
2.695694 3.258255 5.679886
2.694901 3.255905 5.678909
2.690170 3.257278 5.684769
2.706955 3.252762 5.685989
2.715714 3.252213 5.683456
2.745377 3.250656 5.657394
2.729172 3.252396 5.685135
2.626389 3.322220 5.632187
2.625595 3.322403 5.630539
2.628494 3.322159 5.662460
2.626328 3.323349 5.661636
2.632950 3.313492 5.686569
2.650406 3.285385 5.701614
2.675644 3.264694 5.701401
2.684555 3.263931 5.699722
2.683701 3.258621 5.701981
2.658188 3.277695 5.700150
2.667587 3.274673 5.693802
2.667007 3.270676 5.700302
2.668259 3.272934 5.717545
2.635544 3.304520 5.694962
2.643784 3.293869 5.704941
2.649582 3.288956 5.704422
2.645737 3.292587 5.703262
2.640579 3.306015 5.715012
2.669571 3.274460 5.729111
2.686264 3.261734 5.737534
2.660507 3.280563 5.735214
2.669144 3.273300 5.734970
2.672134 3.273056 5.749619
2.677628 3.267136 5.735764
2.680374 3.270889 5.744858
2.639816 3.304703 5.727219
2.647781 3.292709 5.738815
2.652145 3.287521 5.735367
2.652420 3.288986 5.735580
2.645218 3.295639 5.738083
2.641861 3.307602 5.747940
2.745621 3.250931 5.687607
2.718277 3.250565 5.693466
2.693741 3.257797 5.707199
2.693985 3.254807 5.706863
2.707687 3.253647 5.717514
2.717514 3.251175 5.718185
2.745621 3.250961 5.717545
2.732742 3.251419 5.706863
2.692215 3.257431 5.720230
2.698349 3.257980 5.739792
2.695786 3.257004 5.740829
2.708542 3.254684 5.749466
2.744766 3.253098 5.721329
2.719864 3.252426 5.726761
2.728378 3.253647 5.727249
2.733231 3.251999 5.737930
2.746140 3.251572 5.748703
2.627090 3.321732 5.690048
2.625351 3.328262 5.688339
2.633560 3.314255 5.717850
2.627884 3.325302 5.724747
2.627151 3.327408 5.723282
2.629959 3.321793 5.721176
2.616226 3.376022 5.693741
2.624130 3.409866 5.639786
2.614548 3.378250 5.635513
2.615036 3.379593 5.629196
2.621872 3.404282 5.635056
2.617813 3.391159 5.632797
2.622665 3.404495 5.625381
2.618118 3.394272 5.639999
2.615158 3.379807 5.656082
2.615707 3.379868 5.653000
2.622574 3.406113 5.655319
2.617630 3.392197 5.647263
2.621994 3.406693 5.627090
2.615067 3.377701 5.663651
2.619095 3.392960 5.669418
2.617874 3.390884 5.661423
2.622330 3.403854 5.662979
2.616013 3.378708 5.685165
2.617355 3.381973 5.686172
2.623550 3.404739 5.684921
2.618454 3.391159 5.676285
2.624527 3.409653 5.668747
2.622757 3.403519 5.691055
2.618759 3.393997 5.695206
2.620377 3.390915 5.692154
2.616745 3.377853 5.714157
2.619370 3.389938 5.705826
2.623886 3.404648 5.712723
2.619980 3.390579 5.720657
2.620377 3.385880 5.722580
2.620255 3.391708 5.726639
2.623489 3.402603 5.720169
2.620590 3.388107 5.736557
2.680130 3.470505 5.701187
2.626358 3.414108 5.625778
2.637100 3.433884 5.635452
2.631943 3.426102 5.636612
2.638077 3.435379 5.629166
2.626053 3.415054 5.651505
2.627518 3.415268 5.647141
2.638168 3.435715 5.655930
2.631302 3.425552 5.641861
2.633011 3.428299 5.648788
2.625198 3.407791 5.660294
2.632034 3.424728 5.670639
2.636887 3.434647 5.661484
2.632370 3.425735 5.664505
2.626389 3.414871 5.679184
2.627945 3.414749 5.675278
2.639023 3.434647 5.685165
2.633743 3.428116 5.677994
2.672104 3.468948 5.637680
2.646927 3.448380 5.633224
2.644333 3.439346 5.633469
2.650803 3.446854 5.628586
2.650894 3.447067 5.655502
2.650620 3.449875 5.646683
2.644211 3.442978 5.650925
2.664963 3.462967 5.640213
2.657578 3.453995 5.651443
2.657578 3.456497 5.643204
2.664688 3.460495 5.648178
2.672195 3.466110 5.646378
2.680038 3.473099 5.638016
2.674667 3.470810 5.628525
2.673294 3.470322 5.656113
2.679276 3.471054 5.645157
2.648514 3.448318 5.663071
2.644577 3.439346 5.660812
2.651688 3.446152 5.684525
2.644455 3.443069 5.678299
2.651016 3.449692 5.674484
2.672562 3.468582 5.665665
2.671677 3.467422 5.671707
2.657578 3.456924 5.669907
2.664841 3.463638 5.666489
2.657883 3.453842 5.679123
2.665329 3.459824 5.676773
2.679886 3.473801 5.664291
2.673386 3.470078 5.684921
2.679642 3.470871 5.672928
2.737534 3.483261 5.638596
2.714340 3.483994 5.626511
2.696182 3.479446 5.646530
2.687912 3.474747 5.646591
2.689560 3.474777 5.642532
2.697983 3.478745 5.643539
2.704849 3.482590 5.648697
2.705765 3.483688 5.642868
2.714645 3.483902 5.653946
2.715988 3.483383 5.650406
2.747543 3.481033 5.626480
2.726120 3.484116 5.629532
2.724350 3.484512 5.632889
2.730820 3.483688 5.650101
2.747482 3.481644 5.652725
2.736069 3.482681 5.643448
2.748489 3.482986 5.646652
2.725967 3.484818 5.655655
2.705917 3.483871 5.669968
2.697861 3.479446 5.669785
2.689224 3.475845 5.668228
2.696762 3.478928 5.674820
2.687607 3.475632 5.672531
2.705154 3.482559 5.676224
2.716263 3.483353 5.677933
2.714432 3.484695 5.680130
2.735703 3.483719 5.669083
2.723740 3.485977 5.657883
2.736801 3.484879 5.663223
2.733261 3.484207 5.676529
2.747208 3.482498 5.678818
2.748520 3.483383 5.673447
2.724258 3.485489 5.686142
2.726395 3.484543 5.683578
2.626083 3.409561 5.698715
2.627670 3.410995 5.695267
2.631882 3.425400 5.697098
2.632950 3.425247 5.692856
2.637619 3.433823 5.690414
2.627548 3.413254 5.709457
2.628616 3.414017 5.704117
2.638016 3.433517 5.718613
2.634811 3.427994 5.707626
2.639236 3.434708 5.712814
2.625504 3.402176 5.744583
2.631088 3.415421 5.732498
2.629013 3.413712 5.732407
2.625778 3.409256 5.727310
2.633255 3.423355 5.728226
2.633224 3.425125 5.720779
2.628250 3.412399 5.738693
2.638565 3.432968 5.747482
2.634598 3.427658 5.736374
2.640060 3.433701 5.742355
2.672287 3.469528 5.691727
2.651230 3.449692 5.702103
2.648300 3.448013 5.691666
2.644638 3.439651 5.687851
2.652054 3.445938 5.712540
2.644791 3.442886 5.706253
2.645615 3.438339 5.717728
2.672989 3.465652 5.702286
2.657913 3.456802 5.697739
2.665146 3.463547 5.694260
2.658005 3.454086 5.706436
2.665359 3.460190 5.703781
2.679520 3.474899 5.690079
2.675095 3.470016 5.715103
2.652359 3.448227 5.732376
2.649979 3.447922 5.721848
2.645615 3.438797 5.744919
2.645889 3.441360 5.736618
2.652359 3.445847 5.740646
2.672806 3.466354 5.728928
2.658646 3.455978 5.726944
2.665756 3.462967 5.723068
2.665726 3.459976 5.732040
2.673233 3.468399 5.721420
2.658463 3.453751 5.734818
2.673477 3.468460 5.749344
2.679886 3.471298 5.727707
2.680435 3.473801 5.719711
2.673904 3.469589 5.743118
2.680405 3.474319 5.746811
2.735825 3.483963 5.696304
2.706070 3.484085 5.697250
2.696976 3.478989 5.702408
2.688004 3.475388 5.700546
2.689835 3.475204 5.696915
2.698196 3.479385 5.697556
2.705185 3.482925 5.703262
2.716263 3.483810 5.704819
2.714310 3.485336 5.706802
2.736374 3.485031 5.702560
2.747910 3.484818 5.698624
2.737259 3.484573 5.691299
2.746964 3.483383 5.705002
2.723953 3.486435 5.712296
2.726181 3.485397 5.709915
2.737259 3.485001 5.718369
2.705643 3.482559 5.731766
2.698929 3.478592 5.726700
2.689987 3.475449 5.724319
2.688553 3.474960 5.729202
2.696487 3.480240 5.728165
2.714249 3.485886 5.733719
2.705765 3.485062 5.723404
2.716080 3.484543 5.731400
2.737930 3.485092 5.729813
2.746445 3.484634 5.730698
2.735367 3.485153 5.722061
2.747299 3.486252 5.724014
2.723679 3.487381 5.738663
2.726028 3.486069 5.736679
2.735428 3.485519 5.749435
2.736465 3.486801 5.743271
2.862167 3.364639 5.575668
2.855576 3.353592 5.582901
2.799484 3.265518 5.510178
2.765518 3.255661 5.513809
2.759842 3.251694 5.511520
2.761917 3.253189 5.528214
2.812180 3.278458 5.509048
2.788712 3.262466 5.519943
2.781509 3.259811 5.522476
2.761612 3.250778 5.545853
2.760391 3.251419 5.554001
2.780167 3.258286 5.548569
2.766647 3.253525 5.553726
2.800186 3.264145 5.550461
2.790390 3.261063 5.554001
2.809219 3.274979 5.560532
2.824844 3.292923 5.515152
2.820267 3.285843 5.501205
2.831772 3.298752 5.501297
2.831711 3.298019 5.529099
2.814316 3.280899 5.541794
2.822891 3.288132 5.537552
2.825516 3.291611 5.555496
2.830185 3.296524 5.558090
2.857376 3.355942 5.525955
2.849777 3.329910 5.509933
2.849350 3.317673 5.519333
2.849625 3.329117 5.537796
2.850693 3.315140 5.559097
2.861679 3.365707 5.535049
2.857407 3.355240 5.553696
2.792679 3.262161 5.589737
2.779312 3.257248 5.575729
2.759445 3.250290 5.581070
2.763840 3.251755 5.581436
2.808914 3.274612 5.588852
2.798599 3.266708 5.592850
2.778915 3.256790 5.604050
2.766006 3.254440 5.595291
2.760849 3.251968 5.613083
2.766556 3.254440 5.618210
2.825668 3.291153 5.574448
2.828293 3.294785 5.587418
2.825455 3.291550 5.596573
2.827072 3.293411 5.616379
2.828812 3.295547 5.612320
2.850174 3.328720 5.565231
2.850266 3.328049 5.593094
2.847397 3.320724 5.603043
2.849350 3.326859 5.621780
2.856430 3.353317 5.610214
2.861191 3.366196 5.617691
2.790512 3.471237 5.589737
2.850113 3.417191 5.513687
2.858292 3.378799 5.519211
2.855362 3.397934 5.515762
2.838913 3.433121 5.516006
2.844101 3.428665 5.517288
2.855148 3.397079 5.543655
2.858047 3.377945 5.547134
2.841599 3.433792 5.541733
2.840256 3.435287 5.533096
2.840164 3.435806 5.558701
2.850998 3.416946 5.540726
2.786728 3.471451 5.509109
2.800491 3.463974 5.524460
2.808945 3.460587 5.526382
2.801498 3.464493 5.519577
2.772659 3.475784 5.512466
2.758621 3.479233 5.503677
2.760300 3.479111 5.526169
2.759140 3.480057 5.523056
2.771378 3.476120 5.516220
2.785568 3.470840 5.506119
2.786942 3.470718 5.502182
2.787521 3.470261 5.529251
2.801682 3.464615 5.545792
2.799881 3.465408 5.548660
2.810165 3.460495 5.553238
2.772171 3.475021 5.544327
2.759720 3.477829 5.532333
2.772903 3.475784 5.538864
2.760208 3.477493 5.559494
2.760788 3.478745 5.553329
2.758224 3.478897 5.551498
2.787857 3.471329 5.535965
2.785538 3.471298 5.531723
2.785294 3.472092 5.556961
2.787155 3.471268 5.554153
2.790237 3.471817 5.562057
2.827896 3.448318 5.518448
2.816147 3.456100 5.518387
2.818741 3.454483 5.517075
2.827682 3.447525 5.546310
2.817123 3.455154 5.546371
2.819809 3.453232 5.545425
2.851974 3.416733 5.567795
2.856491 3.376419 5.576096
2.855606 3.396622 5.571121
2.841232 3.432907 5.569809
2.858505 3.376785 5.602524
2.855240 3.395767 5.599289
2.841324 3.432236 5.597641
2.842148 3.431961 5.624985
2.849472 3.414749 5.597519
2.851791 3.415237 5.623795
2.785019 3.472977 5.582199
2.799820 3.465897 5.574478
2.801346 3.465652 5.570724
2.812454 3.460953 5.579422
2.772598 3.476730 5.563950
2.771652 3.476334 5.568832
2.760391 3.477615 5.586014
2.760941 3.478958 5.579666
2.758316 3.478226 5.579330
2.773056 3.476425 5.591202
2.786423 3.472855 5.578293
2.800674 3.464951 5.602737
2.812027 3.460037 5.607651
2.802200 3.464645 5.599075
2.801559 3.466141 5.623672
2.772324 3.475601 5.596848
2.761063 3.479172 5.606247
2.761368 3.479080 5.605057
2.760330 3.478134 5.612106
2.772110 3.476364 5.622543
2.773575 3.476028 5.618851
2.787491 3.471634 5.607101
2.790482 3.470505 5.617752
2.785477 3.472672 5.609604
2.828140 3.447037 5.573776
2.821030 3.451645 5.574509
2.817581 3.454575 5.573746
2.822067 3.450424 5.603195
2.828079 3.446304 5.601730
2.818008 3.454575 5.600571
2.817184 3.456100 5.624954
2.858414 3.352188 5.693192
2.799606 3.264786 5.633011
2.780685 3.258865 5.636917
2.767624 3.251511 5.634933
2.761124 3.252274 5.643021
2.768661 3.254837 5.653702
2.795212 3.264267 5.626175
2.812393 3.278702 5.654343
2.764816 3.256180 5.678665
2.761948 3.253220 5.674271
2.781540 3.259872 5.668167
2.797897 3.266708 5.662979
2.799118 3.265488 5.674606
2.826218 3.290054 5.636978
2.814743 3.281418 5.629654
2.824265 3.291183 5.646622
2.831375 3.297623 5.648911
2.826248 3.289841 5.678146
2.823227 3.289932 5.675644
2.834061 3.300064 5.685837
2.858475 3.353683 5.636765
2.849442 3.326187 5.649826
2.850723 3.314743 5.641220
2.849106 3.317398 5.683884
2.850052 3.325790 5.677597
2.857956 3.352707 5.665298
2.862747 3.363297 5.657516
2.783371 3.262009 5.701614
2.770645 3.254654 5.688919
2.762100 3.253403 5.704330
2.801407 3.272629 5.702103
2.797409 3.268265 5.717422
2.772995 3.255936 5.725143
2.764206 3.257004 5.720444
2.763748 3.255356 5.737747
2.782730 3.261276 5.730209
2.802994 3.270798 5.736465
2.815781 3.282639 5.690720
2.823441 3.289322 5.703842
2.821915 3.287796 5.733475
2.825577 3.290787 5.720016
2.817459 3.284592 5.723892
2.837265 3.304733 5.724319
2.815079 3.281845 5.749069
2.863083 3.362473 5.698532
2.849289 3.324661 5.706497
2.849380 3.316757 5.724960
2.848801 3.323654 5.735275
2.858627 3.351608 5.721390
2.859543 3.351364 5.749130
2.867020 3.355423 5.736343
2.797470 3.471848 5.700424
2.852402 3.414841 5.651382
2.859604 3.376633 5.629715
2.856674 3.395767 5.626205
2.857864 3.395706 5.653366
2.843704 3.432022 5.651932
2.860977 3.376633 5.656784
2.860886 3.375870 5.685074
2.858566 3.395340 5.681015
2.842087 3.434464 5.668289
2.843399 3.431168 5.680283
2.853317 3.414597 5.678848
2.785721 3.472641 5.636703
2.799332 3.467453 5.625626
2.801041 3.467422 5.648666
2.760361 3.478287 5.638870
2.760880 3.479935 5.632095
2.763046 3.479202 5.631912
2.772018 3.477005 5.648758
2.772964 3.477463 5.643661
2.787003 3.472794 5.632278
2.793259 3.471207 5.643814
2.798782 3.468826 5.650589
2.772171 3.479202 5.668106
2.759537 3.480240 5.663040
2.760422 3.481125 5.657425
2.764633 3.479263 5.658890
2.759995 3.482315 5.682938
2.770187 3.481369 5.683060
2.771439 3.478317 5.673904
2.795853 3.471786 5.670029
2.784958 3.474380 5.661148
2.786514 3.474106 5.657333
2.784256 3.475906 5.685989
2.785751 3.475784 5.681992
2.797867 3.470749 5.674789
2.799881 3.469742 5.672165
2.829758 3.446457 5.628494
2.814438 3.460556 5.633896
2.820572 3.453262 5.625565
2.830612 3.446152 5.655930
2.816544 3.457535 5.649734
2.819962 3.454697 5.650345
2.816513 3.460922 5.660477
2.832870 3.446579 5.682449
2.815384 3.459824 5.673233
2.818954 3.456802 5.674179
2.854477 3.414474 5.706223
2.861435 3.375443 5.712936
2.859573 3.395157 5.708511
2.841873 3.435226 5.694351
2.845230 3.431412 5.707169
2.862534 3.375290 5.740463
2.860886 3.395096 5.735886
2.841354 3.436478 5.719833
2.856216 3.414658 5.733231
2.846329 3.431229 5.734695
2.799515 3.470779 5.697952
2.770645 3.480057 5.698532
2.758774 3.481735 5.687973
2.771530 3.480728 5.693161
2.758713 3.482285 5.714737
2.759445 3.483627 5.708389
2.771835 3.481461 5.710129
2.797836 3.472122 5.696793
2.783737 3.477158 5.711563
2.785416 3.476730 5.708023
2.769943 3.481674 5.723618
2.771072 3.481735 5.719101
2.758957 3.484848 5.734177
2.758163 3.483627 5.740402
2.770889 3.482651 5.745499
2.774094 3.481857 5.736801
2.797012 3.473007 5.726242
2.784927 3.478012 5.733688
2.800064 3.472488 5.723465
2.798996 3.471848 5.723770
2.783096 3.478683 5.736801
2.798325 3.473587 5.748825
2.814560 3.461624 5.697739
2.817703 3.459274 5.697556
2.816788 3.460312 5.688461
2.834244 3.446609 5.709671
2.818253 3.460342 5.715652
2.813492 3.463730 5.721878
2.817276 3.460403 5.723343
2.835739 3.446640 5.736893
2.839218 3.440323 5.741165
2.813278 3.464523 5.748398
2.819565 3.460281 5.743027
2.816605 3.461899 5.748611
2.729385 3.247452 5.945755
2.741684 3.246292 5.955612
2.731339 3.249771 5.887192
2.743515 3.248459 5.896713
2.717453 3.249557 5.937271
2.730331 3.248550 5.916306
2.728928 3.247726 5.930679
2.730759 3.248672 5.933060
2.742661 3.247482 5.926224
2.730972 3.247696 5.966812
2.716354 3.248276 5.966568
2.715836 3.247665 5.997299
2.740158 3.244492 5.984055
2.728256 3.246109 5.974991
2.730576 3.248825 5.975143
2.757675 3.248215 5.940506
2.768631 3.249252 5.966385
2.754227 3.249954 5.898117
2.756119 3.249161 5.933670
2.757401 3.246078 5.967850
2.755783 3.245987 5.968063
2.770309 3.246750 5.982071
2.753677 3.243515 5.995285
2.635239 3.321518 5.812637
2.623428 3.346603 5.813828
2.622421 3.344437 5.765060
2.619888 3.366867 5.762283
2.618942 3.371902 5.755936
2.624100 3.355545 5.778152
2.621323 3.349991 5.780106
2.622604 3.353165 5.780228
2.620163 3.372482 5.778732
2.621231 3.372238 5.777664
2.624741 3.340591 5.799423
2.621384 3.368790 5.795944
2.620682 3.369186 5.788467
2.622787 3.353378 5.811172
2.624649 3.355301 5.807755
2.621109 3.371170 5.809128
2.622025 3.372055 5.807480
2.621841 3.367508 5.819565
2.623520 3.346848 5.841843
2.624252 3.372025 5.838608
2.623093 3.370987 5.830368
2.621994 3.370010 5.839493
2.623947 3.354874 5.844467
2.622604 3.366501 5.849686
2.624222 3.366440 5.874130
2.624283 3.372513 5.863876
2.636978 3.318558 5.816422
2.642014 3.304672 5.757950
2.672012 3.276199 5.765762
2.660782 3.280899 5.766068
2.669846 3.274185 5.766769
2.677963 3.267532 5.766769
2.650284 3.294693 5.775650
2.655991 3.289078 5.767502
2.653214 3.288834 5.767990
2.643021 3.309067 5.780807
2.646896 3.297745 5.772079
2.678055 3.274643 5.788498
2.675858 3.273178 5.781693
2.670212 3.274612 5.798050
2.673752 3.275101 5.800735
2.679001 3.268814 5.799515
2.643570 3.304550 5.788315
2.651718 3.292068 5.809738
2.654007 3.289841 5.800247
2.643173 3.309250 5.811722
2.647446 3.298416 5.803757
2.656448 3.288864 5.797012
2.662277 3.282761 5.799850
2.746536 3.251938 5.756119
2.694687 3.259171 5.756851
2.697372 3.258896 5.774490
2.687546 3.263290 5.770554
2.706528 3.258499 5.775436
2.708878 3.255051 5.780502
2.720016 3.252640 5.757278
2.720047 3.253281 5.755020
2.728195 3.253769 5.768814
2.732620 3.251266 5.766861
2.746506 3.251999 5.779739
2.697037 3.260483 5.793320
2.697769 3.259201 5.805710
2.687851 3.263657 5.801773
2.706223 3.258194 5.804398
2.748795 3.252823 5.792343
2.722275 3.254166 5.791214
2.720901 3.253708 5.789627
2.731796 3.250290 5.795578
2.727341 3.255051 5.811111
2.745438 3.250717 5.808029
2.629959 3.327957 5.759537
2.635147 3.322067 5.754288
2.634689 3.315689 5.750443
2.629532 3.328873 5.759811
2.625168 3.339066 5.777237
2.625290 3.340134 5.768570
2.631149 3.327255 5.794449
2.635757 3.321854 5.783890
2.636581 3.318069 5.784927
2.630417 3.328506 5.790909
2.629105 3.339188 5.809616
2.625778 3.340744 5.800125
2.657730 3.288712 5.827347
2.678757 3.273178 5.813248
2.670731 3.275253 5.829880
2.676346 3.272659 5.840683
2.675369 3.273331 5.835373
2.678726 3.268448 5.829605
2.678513 3.273697 5.829727
2.644485 3.304367 5.818314
2.654312 3.290207 5.831650
2.643021 3.309067 5.842178
2.647232 3.298141 5.834061
2.661942 3.282333 5.829819
2.675003 3.279495 5.874710
2.671280 3.275925 5.862045
2.677628 3.274124 5.871780
2.679489 3.269394 5.862198
2.675644 3.272293 5.869553
2.653732 3.292007 5.845505
2.647385 3.304398 5.849991
2.655167 3.291275 5.864487
2.648087 3.299210 5.866898
2.659317 3.288589 5.858047
2.661942 3.282333 5.860764
2.724045 3.253067 5.826248
2.709915 3.256332 5.813339
2.698532 3.258286 5.827652
2.688095 3.263962 5.833023
2.697372 3.258713 5.835587
2.709030 3.255264 5.842178
2.704636 3.257767 5.832443
2.732437 3.251053 5.827560
2.719742 3.252304 5.817703
2.745987 3.251389 5.839951
2.709396 3.255692 5.873978
2.688461 3.264420 5.864792
2.697525 3.258896 5.866898
2.700516 3.257980 5.863327
2.709152 3.257950 5.865585
2.732620 3.251297 5.858871
2.728165 3.253464 5.851974
2.719437 3.251938 5.847855
2.725693 3.251358 5.861008
2.745621 3.250931 5.870041
2.630692 3.328873 5.822159
2.636887 3.321426 5.843338
2.632736 3.325333 5.829056
2.629562 3.338974 5.839279
2.626236 3.341324 5.831802
2.626205 3.338333 5.831375
2.637192 3.318832 5.847702
2.631332 3.329666 5.854416
2.638138 3.321274 5.873795
2.635117 3.326889 5.865952
2.631638 3.338943 5.870407
2.627792 3.343307 5.866165
2.626511 3.338272 5.860062
2.627335 3.355057 5.868698
2.625595 3.371658 5.869095
2.623367 3.384384 5.827255
2.621780 3.387711 5.755783
2.620804 3.390396 5.750259
2.624680 3.400925 5.750809
2.621048 3.390762 5.756119
2.623154 3.390396 5.781235
2.621292 3.387253 5.765915
2.622238 3.385971 5.796219
2.624008 3.390579 5.790970
2.622330 3.388901 5.787338
2.624161 3.390244 5.811234
2.622787 3.388535 5.816299
2.624374 3.386093 5.848892
2.624863 3.382095 5.859695
2.680832 3.471024 5.812912
2.629868 3.412643 5.762161
2.625504 3.399612 5.781021
2.625656 3.402328 5.772446
2.627029 3.409134 5.757309
2.633469 3.423447 5.756088
2.634537 3.423264 5.751846
2.633316 3.418320 5.767502
2.628769 3.411942 5.767502
2.639603 3.431595 5.777908
2.636642 3.427628 5.767044
2.640579 3.433243 5.771255
2.635147 3.422623 5.781052
2.626480 3.398544 5.811203
2.626602 3.401108 5.802719
2.632889 3.417770 5.796860
2.630783 3.411484 5.792282
2.627579 3.408890 5.786850
2.634750 3.421585 5.787369
2.629745 3.410629 5.797928
2.640121 3.431107 5.807053
2.638626 3.427597 5.797806
2.635361 3.422745 5.809219
2.647354 3.436569 5.805069
2.641403 3.432236 5.801193
2.680252 3.471115 5.756027
2.652359 3.448654 5.759720
2.645554 3.442490 5.762863
2.649643 3.447617 5.750565
2.649826 3.447342 5.779770
2.645645 3.439194 5.772385
2.652451 3.446121 5.768265
2.659225 3.452835 5.764389
2.666214 3.459579 5.760727
2.658798 3.456131 5.754715
2.665909 3.463150 5.750748
2.673019 3.466415 5.756851
2.666031 3.463425 5.778549
2.673447 3.468948 5.776749
2.680588 3.474411 5.774826
2.672531 3.469101 5.771133
2.646683 3.440933 5.793716
2.652573 3.448776 5.787796
2.652542 3.447372 5.811203
2.653366 3.444992 5.798477
2.673172 3.466629 5.784744
2.659073 3.453506 5.791550
2.659256 3.455795 5.783524
2.666245 3.459946 5.788437
2.666428 3.463242 5.807266
2.674301 3.467911 5.806839
2.680161 3.471695 5.783279
2.681412 3.473526 5.804794
2.673172 3.468887 5.800827
2.741470 3.486130 5.755722
2.705734 3.482895 5.759293
2.697067 3.479721 5.757065
2.688492 3.475449 5.756393
2.690018 3.475845 5.751663
2.698410 3.479874 5.752548
2.707260 3.483017 5.754990
2.714218 3.486374 5.761002
2.715805 3.485489 5.757950
