2.051010 7.710861 12.366409
2.074234 7.736801 12.364822
2.065628 7.690353 12.324966
2.106155 7.747940 12.334824
2.071335 7.723343 12.353134
2.090286 7.715561 12.486221
2.039413 7.677078 12.421249
2.017593 7.675064 12.395859
2.051376 7.658371 12.397964
2.023300 7.653275 12.426041
2.012802 7.656418 12.428604
2.039993 7.681686 12.414810
2.039841 7.690903 12.428299
2.026901 7.693558 12.380692
2.057510 7.699570 12.422379
2.054245 7.712631 12.409592
2.076065 7.734268 12.428177
2.067764 7.710068 12.400101
2.076828 7.693832 12.376266
2.068497 7.734299 12.391220
2.114487 7.749863 12.388870
2.067795 7.696915 12.412186
2.095261 7.701126 12.420761
2.081985 7.724533 12.419266
2.036667 7.673904 12.488998
2.015213 7.666031 12.449997
2.037003 7.670425 12.465439
2.013718 7.654587 12.493301
2.008926 7.651016 12.469345
2.059464 7.679092 12.487717
2.043564 7.672775 12.482101
2.061417 7.695419 12.483536
2.067459 7.696030 12.478287
2.062851 7.691788 12.439224
2.096176 7.737228 12.452316
2.000992 7.889328 12.475174
2.086105 7.857071 12.374680
2.083755 7.803665 12.310226
2.080948 7.759140 12.274734
2.073959 7.777390 12.258286
2.070908 7.784378 12.263382
2.112747 7.793839 12.253128
2.081100 7.759567 12.309555
2.056290 7.856216 12.286972
2.057816 7.838577 12.304367
2.057816 7.861618 12.290909
2.055862 7.870224 12.291611
2.102188 7.826645 12.311172
2.082199 7.833450 12.271927
2.081619 7.827835 12.250229
2.070724 7.849167 12.268143
2.085678 7.861801 12.251389
2.089188 7.824844 12.304794
2.076309 7.820114 12.281540
2.117233 7.791214 12.372543
2.075211 7.779922 12.323380
2.078842 7.772476 12.317612
2.077133 7.781876 12.317429
2.102188 7.788071 12.333786
2.113693 7.791855 12.313919
2.082718 7.756424 12.372940
2.086258 7.765610 12.374191
2.099319 7.810287 12.363510
2.054489 7.863205 12.347610
2.033127 7.874741 12.329758
2.053177 7.868179 12.330032
2.060562 7.835312 12.366379
2.105331 7.825821 12.370102
2.082260 7.814346 12.339706
2.077103 7.828171 12.326492
2.078964 7.838394 12.323959
2.085098 7.859055 12.313675
2.086685 7.821609 12.374039
2.073807 7.836411 12.374649
2.127365 7.754776 12.374863
2.125778 7.801712 12.315781
2.029587 7.887100 12.361496
2.033157 7.889481 12.299393
2.036667 7.880630 12.263443
2.059464 7.887527 12.263290
2.032242 7.895432 12.262527
2.012619 7.886887 12.311356
2.012863 7.900436 12.295486
2.011795 7.897934 12.285660
2.008041 7.890244 12.354752
2.031235 7.892227 12.329147
2.058121 7.884354 12.326340
2.109482 7.822952 12.490799
2.118301 7.789291 12.433762
2.080093 7.775040 12.383011
2.084518 7.811447 12.402451
2.089432 7.762039 12.435989
2.051376 7.873215 12.393448
2.029587 7.870377 12.394608
2.049820 7.873337 12.382370
2.087387 7.855209 12.435684
2.070267 7.842789 12.399918
2.075668 7.842422 12.377609
2.070450 7.841110 12.427811
2.074295 7.823532 12.415726
2.108719 7.825058 12.429062
2.096085 7.818558 12.411728
2.121994 7.788712 12.492691
2.084000 7.770859 12.443985
2.120560 7.750565 12.445297
2.086685 7.808609 12.465561
2.093857 7.783401 12.447403
2.087723 7.750137 12.498550
2.090286 7.772629 12.497055
2.095627 7.756119 12.494492
2.106644 7.752274 12.483017
2.116592 7.766098 12.483749
2.090439 7.794205 12.499130
2.090866 7.805374 12.478012
2.047501 7.857101 12.474380
2.005264 7.870377 12.451736
2.046188 7.869064 12.447556
2.068863 7.843399 12.495316
2.092819 7.824173 12.463791
2.066910 7.840805 12.487961
2.051102 7.875717 12.457504
2.025925 7.880844 12.429306
2.051163 7.878250 12.395096
2.306015 7.746140 12.970871
2.103348 7.737564 12.746841
2.087112 7.722336 12.613235
2.042770 7.668167 12.547867
2.000748 7.659164 12.506699
2.013016 7.657669 12.505692
2.034683 7.661697 12.520554
2.017868 7.650314 12.554550
2.047501 7.668686 12.543503
2.057724 7.672653 12.546677
2.053604 7.685013 12.541916
2.083664 7.726151 12.551010
2.069382 7.706772 12.520981
2.117508 7.707901 12.524338
2.079880 7.728287 12.507767
2.066635 7.690323 12.543442
2.069534 7.693314 12.541885
2.086685 7.702194 12.533859
2.083237 7.721268 12.549606
2.093094 7.747086 12.557816
2.045761 7.664719 12.610641
2.011581 7.652267 12.566605
2.032700 7.654312 12.578354
2.027206 7.662155 12.578140
2.009323 7.643661 12.622726
2.013626 7.647232 12.624100
2.025497 7.643478 12.611893
2.036270 7.629715 12.613724
2.008438 7.660294 12.597000
2.052933 7.663437 12.603378
2.055008 7.662552 12.600113
2.060226 7.682022 12.599594
2.069382 7.687057 12.606491
2.070419 7.691513 12.607193
2.084396 7.693832 12.589951
2.070969 7.703598 12.585892
2.115829 7.704453 12.588974
2.084488 7.725204 12.568253
2.089615 7.715195 12.608353
2.132065 7.749069 12.622604
2.004257 7.624619 12.698380
2.096634 7.712723 12.735367
2.048996 7.656570 12.681900
2.019485 7.626999 12.655075
2.030502 7.646072 12.635086
2.035538 7.659256 12.633652
2.007095 7.635239 12.679550
2.030319 7.638687 12.672806
2.019974 7.641251 12.683243
2.052689 7.653885 12.656296
2.053421 7.657791 12.668167
2.057755 7.658646 12.664261
2.076187 7.663498 12.680862
2.080338 7.678848 12.635574
2.074173 7.682266 12.667374
2.076492 7.685715 12.666519
2.065781 7.678970 12.659286
2.058426 7.742599 12.676010
2.089920 7.719040 12.676559
2.078812 7.700638 12.642166
2.091873 7.712326 12.672256
2.055222 7.653580 12.741135
2.028000 7.636673 12.690323
2.049637 7.642563 12.708420
2.004898 7.626816 12.736771
2.008133 7.632401 12.739792
2.025772 7.628250 12.747635
2.028336 7.633835 12.740219
2.039047 7.630966 12.729263
2.057846 7.653275 12.729752
2.079819 7.676804 12.727463
2.088669 7.648239 12.692947
2.073410 7.676010 12.716324
2.072983 7.651749 12.732437
2.063614 7.653030 12.724106
2.106979 7.655472 12.738541
2.082718 7.679825 12.725937
2.037552 7.720108 12.704422
2.103439 7.688461 12.730789
2.084274 7.697556 12.702255
2.108780 7.707932 12.692001
2.091171 7.718887 12.694107
2.096878 7.740677 12.687881
2.097214 7.707047 12.732712
2.133194 7.744553 12.748581
2.135086 7.748093 12.682999
2.127548 7.708176 12.640640
2.126999 7.748154 12.691360
2.132278 7.708115 12.699448
2.067764 7.826431 12.739975
2.106827 7.816483 12.619278
2.124069 7.787277 12.553452
2.113663 7.790543 12.511215
2.094803 7.755569 12.561569
2.093887 7.769516 12.558914
2.110550 7.808395 12.547470
2.053024 7.857315 12.560379
2.043869 7.851578 12.541763
2.036240 7.865555 12.534592
2.110031 7.820724 12.553055
2.087479 7.812790 12.528091
2.087753 7.815170 12.505234
2.089371 7.823959 12.523911
2.079727 7.848740 12.505661
2.065353 7.841690 12.557693
2.063309 7.839157 12.550339
2.057083 7.811081 12.617020
2.106827 7.795609 12.624893
2.090622 7.763474 12.568161
2.091049 7.802902 12.592575
2.098618 7.751450 12.623398
2.068558 7.790298 12.598038
2.123764 7.784592 12.616776
2.040237 7.845993 12.609726
2.018417 7.868454 12.566147
2.038559 7.850540 12.592819
2.059647 7.836685 12.614243
2.018509 7.846420 12.606552
2.029007 7.859268 12.604630
2.077682 7.845139 12.570511
2.084061 7.818588 12.580704
2.085922 7.824478 12.583420
2.130692 7.750900 12.560837
2.127426 7.751694 12.501236
2.001999 7.875504 12.504715
2.022934 7.876663 12.505600
2.078690 7.815964 12.716629
2.103317 7.795944 12.685318
2.076309 7.765671 12.652176
2.091507 7.761612 12.633530
2.092575 7.787796 12.630692
2.091843 7.808792 12.634018
2.098953 7.763107 12.687057
2.122269 7.781235 12.681625
2.104050 7.812485 12.685410
2.036423 7.835068 12.685440
2.061630 7.832474 12.630661
2.014542 7.859329 12.639206
2.035049 7.853622 12.649551
2.014908 7.843338 12.671555
2.055862 7.829178 12.685410
2.071915 7.829849 12.665604
2.082291 7.819107 12.651291
2.075302 7.841385 12.636002
2.080429 7.817276 12.643204
2.119980 7.777481 12.747574
2.091446 7.760513 12.700333
2.100510 7.772995 12.705734
2.098923 7.750046 12.689713
2.076706 7.811905 12.711594
2.086594 7.805344 12.709793
2.095779 7.784561 12.693985
2.123734 7.762222 12.733597
2.031296 7.848770 12.717422
2.057999 7.828079 12.697556
2.010605 7.849289 12.714096
2.041336 7.850510 12.712784
2.070816 7.836502 12.703873
2.123886 7.724869 12.994888
2.042892 7.620560 12.857437
2.038437 7.605667 12.792831
2.006668 7.609818 12.808914
2.002823 7.619003 12.795456
2.023026 7.617905 12.802078
2.051834 7.619003 12.848526
2.023788 7.603439 12.837387
2.044266 7.622604 12.818344
2.014450 7.602859 12.867111
2.000931 7.611771 12.855545
2.021011 7.610306 12.861588
2.110489 7.731125 12.874619
2.036423 7.626541 12.797684
2.002243 7.633255 12.766037
2.046860 7.632217 12.762589
2.021317 7.629684 12.789078
2.043564 7.626389 12.791000
2.116592 7.658035 12.792892
2.079300 7.672958 12.776352
2.069626 7.639328 12.783249
2.066177 7.650711 12.793839
2.065720 7.646164 12.787460
2.069077 7.647781 12.784714
2.085892 7.671036 12.787338
2.086929 7.675461 12.788010
2.100082 7.676254 12.781845
2.098709 7.710007 12.800125
2.086838 7.694351 12.767136
2.096481 7.715775 12.754807
2.103622 7.745224 12.751053
2.100601 7.703262 12.795822
2.091110 7.665878 12.848465
2.066757 7.628708 12.837418
2.086136 7.669907 12.835342
2.094650 7.656418 12.820511
2.090775 7.642227 12.868851
2.073288 7.647690 12.852524
2.071213 7.640793 12.848221
2.074783 7.642319 12.845261
2.092331 7.670181 12.848892
2.100571 7.707413 12.865372
2.095230 7.691330 12.823746
2.100784 7.712570 12.817490
2.103745 7.734238 12.815201
2.103806 7.743912 12.818130
2.104599 7.699051 12.858475
2.141190 7.743637 12.868729
2.136673 7.743790 12.809036
2.137253 7.708176 12.758255
2.126907 7.660995 12.846756
2.140427 7.707291 12.819107
2.105728 7.622543 12.990250
2.039474 7.604752 12.933456
2.010910 7.601578 12.884109
2.041885 7.613663 12.875656
2.049820 7.624374 12.885513
2.021500 7.596420 12.926437
2.018997 7.602829 12.921738
2.049576 7.614334 12.917099
2.057632 7.613480 12.909256
2.064285 7.619675 12.894699
2.036789 7.594681 12.989700
2.014481 7.610367 12.959335
2.005569 7.601242 12.939743
2.007889 7.601883 12.941299
2.061203 7.608261 12.948318
2.061172 7.621536 12.938461
2.031418 7.587784 12.982437
2.048752 7.582962 12.984329
2.020065 7.596939 12.998032
2.017197 7.595016 12.981918
2.017197 7.593765 12.998184
2.057693 7.595383 12.999802
2.057785 7.606979 12.975143
2.121567 7.613693 12.995773
2.079758 7.588394 12.957932
2.065720 7.606247 12.967453
2.076096 7.618881 12.986374
2.083420 7.615402 12.969223
2.123184 7.703323 12.993759
2.118484 7.668655 12.922165
2.091629 7.666763 12.896744
2.078018 7.634476 12.907700
2.087418 7.629929 12.920792
2.078629 7.638199 12.908279
2.081619 7.644699 12.909805
2.095474 7.661362 12.910843
2.095078 7.666916 12.913345
2.106522 7.701645 12.925949
2.097214 7.688065 12.890305
2.104477 7.709366 12.881454
2.113174 7.728226 12.892990
2.108841 7.738846 12.879593
2.108994 7.694504 12.920883
2.119766 7.682205 12.996964
2.086655 7.626785 12.965164
2.090988 7.627701 12.961258
2.090744 7.641739 12.966263
2.105789 7.652328 12.966263
2.111526 7.643478 12.952530
2.101608 7.663834 12.951828
2.109055 7.685165 12.942612
2.095047 7.625809 12.990067
2.104782 7.658371 12.969528
2.118362 7.686111 12.977432
2.117966 7.691727 12.979965
2.111435 7.706253 12.940994
2.115005 7.727921 12.937790
2.111435 7.735672 12.944321
2.220139 7.722855 12.988937
2.134323 7.662399 12.903671
2.125687 7.729446 12.928513
2.127243 7.700363 12.902908
2.139908 7.695419 12.888504
2.143387 7.706314 12.880417
2.137039 7.735062 12.896896
2.142746 7.741867 12.931656
2.156631 7.665573 12.994522
2.147903 7.667038 12.954666
2.137772 7.662460 12.993881
2.221939 7.665604 12.994797
2.199966 7.666092 12.990677
2.146500 7.741226 12.992691
2.149246 7.706802 12.939041
2.133682 7.748947 12.940414
2.130630 7.709000 12.985031
2.150681 7.708725 12.998886
2.153763 7.711716 12.994308
2.158676 7.709244 12.994339
2.174759 7.703232 12.999527
2.220505 7.735092 12.997696
2.296707 7.705765 12.986801
2.472641 7.615433 12.874924
2.488358 7.606430 12.974564
2.451248 7.612411 12.925919
2.461594 7.548904 12.958633
2.426498 7.602158 12.998184
2.428757 7.573410 12.965622
2.405838 7.590317 12.977371
2.381943 7.599319 12.985245
2.473557 7.563278 12.996109
2.458450 7.569382 12.965103
2.373672 7.685135 12.994034
2.308670 7.686661 12.980423
2.334549 7.642807 12.981247
2.405106 7.627060 12.958389
2.019363 7.820175 12.943466
2.057205 7.824265 12.845261
2.075027 7.810226 12.785995
2.089096 7.761185 12.770309
2.092636 7.781174 12.767166
2.100510 7.759842 12.753281
2.097000 7.779068 12.758957
2.073013 7.810410 12.775253
2.099747 7.792709 12.750931
2.099258 7.807449 12.753830
2.119949 7.774857 12.811600
2.120255 7.763565 12.793259
2.082962 7.801895 12.783798
2.027054 7.829514 12.805527
2.010941 7.829544 12.751633
2.054276 7.820755 12.768967
2.032669 7.827438 12.757156
2.052170 7.826736 12.750229
2.006760 7.842697 12.784836
2.067368 7.832138 12.771072
2.071274 7.803635 12.856979
2.090958 7.758560 12.835403
2.093369 7.780228 12.819229
2.101883 7.756546 12.820267
2.098251 7.777969 12.827957
2.069290 7.807846 12.840775
2.096115 7.790634 12.815445
2.094925 7.802597 12.822098
2.123306 7.774033 12.872482
2.116806 7.770706 12.845413
2.082077 7.798538 12.854294
2.002853 7.835403 12.857132
2.028854 7.818832 12.830734
2.007095 7.820938 12.825211
2.050522 7.814285 12.839676
2.048264 7.818863 12.822861
2.062119 7.822952 12.817062
2.106430 7.761642 12.972672
2.046677 7.805099 12.914688
2.024948 7.809280 12.906235
2.002670 7.795547 12.922440
2.086105 7.786331 12.935745
2.096542 7.753067 12.896317
2.104874 7.753281 12.885330
2.094162 7.774490 12.903580
2.065567 7.806900 12.904587
2.092484 7.787674 12.881638
2.089798 7.784286 12.875931
2.092178 7.798569 12.889206
2.123215 7.771408 12.937088
2.110001 7.754105 12.920181
2.113235 7.771683 12.906387
2.079575 7.795090 12.927689
2.067520 7.798294 12.926773
2.045151 7.815414 12.921799
2.023117 7.821457 12.878891
2.044388 7.812729 12.893692
2.055283 7.819412 12.896561
2.042740 7.794937 12.991623
2.040451 7.804031 12.968552
2.020920 7.796738 12.986404
2.061661 7.800797 12.975906
2.109634 7.771194 12.969742
2.108994 7.750046 12.949081
2.087723 7.793625 12.958328
2.088821 7.784561 12.948471
2.082077 7.770676 12.991837
2.236435 7.758469 12.996841
2.369095 7.960281 12.994736
2.451462 7.863449 12.865829
2.456650 7.866226 12.855515
2.448563 7.907394 12.873611
2.484177 7.896652 12.859329
2.492325 7.905350 12.849350
2.367081 7.815506 12.949478
2.369034 7.781967 12.924057
2.359421 7.846786 12.932724
2.322617 7.814957 12.933640
2.343887 7.824814 12.923782
2.302322 7.792465 12.969955
2.301041 7.789993 12.964279
2.270584 7.762192 12.989243
2.344833 7.792587 12.977066
2.327194 7.752640 12.965530
2.348526 7.806931 12.948227
2.323441 7.790390 12.976395
2.297256 7.841049 12.956589
2.388046 7.823898 12.941696
2.480545 7.765640 12.912766
2.467728 7.800613 12.901260
2.451859 7.779434 12.923660
2.407669 7.822769 12.926254
2.424515 7.841995 12.892593
2.378372 7.835617 12.933365
2.474594 7.823288 12.887680
2.454117 7.820541 12.895523
2.389755 7.774033 12.938797
2.345718 7.950943 12.968094
2.360764 7.881180 12.912369
2.352615 7.970566 12.913193
2.347000 7.888382 12.957352
2.395157 7.961899 12.987137
2.376541 7.923325 12.930374
2.390182 7.906479 12.910812
2.394058 7.887283 12.946579
2.396225 7.957535 12.947983
2.504349 7.592361 12.894669
2.621292 7.970871 12.730087
2.732803 7.955521 12.721970
2.749710 7.997849 12.661423
2.729568 7.932205 12.732468
2.664230 7.982132 12.731674
2.640976 7.986008 12.713791
2.660812 7.980209 12.712753
2.661697 7.991989 12.710342
2.661758 7.963028 12.743790
2.748795 7.948990 12.714279
2.731949 7.959793 12.709030
2.752731 7.982559 12.689865
2.645340 7.736832 12.804123
2.502853 7.763626 12.919907
2.519089 7.857040 12.858353
2.614731 7.788589 12.776291
2.525436 7.766159 12.850204
2.682999 7.760849 12.842758
2.662247 7.789322 12.806900
2.637009 7.768326 12.808578
2.660599 7.780502 12.811111
2.671982 7.756943 12.788132
2.682938 7.801712 12.794876
2.679642 7.800766 12.781784
2.659225 7.769058 12.820023
2.640213 7.772476 12.817337
2.563492 7.939194 12.817734
2.556656 7.907455 12.789230
2.557541 7.896713 12.811874
2.600815 7.909164 12.804062
2.582779 7.878036 12.772598
2.579483 7.904892 12.805344
2.535385 7.883530 12.817551
2.537369 7.887802 12.819870
2.523605 7.994919 12.857620
2.641006 7.948593 12.758865
2.646286 7.892502 12.767044
2.548386 7.755173 12.877731
2.638412 7.672531 13.405563
2.090591 7.486862 13.457047
2.466446 7.388748 13.249313
2.345932 7.457352 13.062424
2.059372 7.481735 13.484695
2.039627 7.487076 13.475327
2.026230 7.498184 13.421707
2.011246 7.499496 13.496994
2.022690 7.494888 13.495041
2.764053 7.231369 13.389420
2.584396 7.441757 13.223953
2.519669 7.488907 13.096909
2.506119 7.469315 13.023819
2.520370 7.495529 13.096146
2.605972 7.427902 13.228165
2.541428 7.472183 13.153122
2.541214 7.483109 13.142563
2.546280 7.473801 13.135300
2.541977 7.483261 13.130417
2.573349 7.456894 13.180710
2.563797 7.479538 13.126358
2.568466 7.455368 13.175522
2.532211 7.418411 13.378159
2.535660 7.343735 13.340286
2.675949 7.363693 13.363602
2.664841 7.358047 13.302505
2.604965 7.408676 13.307968
2.734390 7.481094 13.369766
2.645370 7.461716 13.289322
2.647659 7.491074 13.264084
2.666794 7.489792 13.256058
2.628006 7.392014 13.373459
2.668045 7.425156 13.334854
2.692307 7.431229 13.348221
2.687424 7.492447 13.336594
2.669083 7.445114 13.324234
2.733017 7.493149 13.346390
2.689560 7.487411 13.350754
2.712387 7.487259 13.356216
2.743362 7.355423 13.462784
2.732132 7.313400 13.424637
2.725327 7.350754 13.403152
2.726334 7.296768 13.479965
2.673569 7.366348 13.455826
2.696121 7.383286 13.421646
2.753647 7.316269 13.442276
2.082169 7.691818 13.458237
2.118454 7.719101 13.236313
2.099869 7.601334 13.101883
2.044113 7.594742 13.032547
2.001144 7.608444 13.006058
2.022598 7.588547 13.060043
2.015427 7.588455 13.044540
2.034897 7.587692 13.051682
2.036819 7.582626 13.044266
2.036850 7.581345 13.032883
2.055679 7.587906 13.061020
2.122910 7.609299 13.050552
2.076797 7.596756 13.022171
2.079910 7.602585 13.020950
2.095505 7.616440 13.027908
2.103653 7.616928 13.013901
2.098892 7.616318 13.018448
2.067734 7.598312 13.031296
2.101212 7.606125 13.035934
2.033066 7.579544 13.115952
2.022659 7.579269 13.078934
2.059433 7.592148 13.080460
2.008072 7.577103 13.124832
2.013565 7.581375 13.106796
2.032913 7.580246 13.113327
2.048843 7.572433 13.098160
2.054062 7.581100 13.123886
2.049667 7.592300 13.120041
2.118210 7.592422 13.095779
2.073624 7.592667 13.092667
2.084915 7.589401 13.080673
2.077621 7.594223 13.080704
2.110184 7.606583 13.073013
2.201675 7.597488 13.067398
2.161758 7.600632 13.054153
2.180954 7.607742 13.011734
2.126022 7.598801 13.054794
2.143753 7.606400 13.055222
2.129501 7.614731 13.047440
2.147446 7.618240 13.051498
2.147842 7.623184 13.053055
2.207687 7.547195 13.064346
2.098831 7.744858 13.123001
2.115402 7.661057 13.001633
2.119858 7.645737 13.019241
2.108688 7.639206 13.009811
2.122391 7.638504 13.014084
2.118851 7.728714 13.003372
2.112717 7.746750 13.014023
2.123093 7.685410 13.110703
2.123611 7.734268 13.076950
2.121964 7.743637 13.070999
2.189713 7.720566 13.092911
2.179794 7.677933 13.047806
2.150986 7.631943 13.025070
2.128433 7.628983 13.010391
2.133286 7.649368 13.003525
2.156143 7.636063 13.025040
2.160019 7.631790 13.021652
2.179062 7.641098 13.031143
2.132339 7.674210 13.028519
2.162033 7.672012 13.005203
2.139023 7.637222 13.034836
2.170944 7.633804 13.036972
2.138901 7.658676 13.036880
2.135910 7.679459 13.043411
2.125565 7.684677 13.038925
2.187515 7.683060 13.044235
2.239151 7.654709 13.027206
2.248947 7.635757 13.011063
2.244949 7.661301 13.013565
2.204636 7.653275 13.041153
2.240067 7.653427 13.031418
2.149002 7.739944 13.055222
2.153397 7.699509 13.001419
2.176163 7.695938 13.019211
2.173264 7.710983 13.012314
2.156662 7.703232 13.026718
2.148575 7.722366 13.028275
2.130081 7.749557 13.002396
2.171555 7.742142 13.009171
2.150162 7.715897 13.051743
2.142471 7.700668 13.035416
2.147995 7.705124 13.035721
2.171585 7.713486 13.046219
2.127121 7.720657 13.032181
2.216507 7.722336 13.052811
2.209335 7.696213 13.005264
2.191177 7.705002 13.010910
2.197586 7.703781 13.011673
2.203629 7.748764 13.011490
2.136124 7.655106 13.112473
2.139725 7.667404 13.087997
2.144913 7.634048 13.097122
2.210770 7.655106 13.069839
2.126236 7.739365 13.079910
2.100876 7.606308 13.234665
2.046677 7.556137 13.164444
2.078781 7.561722 13.138809
2.041977 7.571671 13.173965
2.019821 7.587143 13.148148
2.003769 7.563644 13.127670
2.010544 7.570023 13.162125
2.029861 7.568893 13.168655
2.050705 7.568680 13.177444
2.049667 7.570663 13.166153
2.101700 7.609848 13.161179
2.083725 7.589157 13.151108
2.074387 7.582382 13.134872
2.069107 7.589188 13.137253
2.096085 7.587692 13.153061
2.110397 7.609482 13.143021
2.115250 7.601578 13.135574
2.092728 7.586990 13.173050
2.076706 7.589188 13.157791
2.047379 7.556412 13.231613
2.028946 7.553421 13.206955
2.010727 7.557266 13.188217
2.026962 7.543991 13.237473
2.007706 7.559341 13.219040
2.026627 7.556900 13.223251
2.010971 7.550644 13.249344
2.054581 7.561081 13.227615
2.068619 7.561295 13.248978
2.071823 7.552872 13.207840
2.049606 7.565842 13.241135
2.029770 7.565628 13.195267
2.118637 7.593979 13.248672
2.093704 7.579025 13.213272
2.072128 7.574142 13.195724
2.088516 7.584366 13.214401
2.105972 7.607407 13.216324
2.122787 7.608841 13.199051
2.081375 7.584488 13.221237
2.104202 7.612991 13.219955
2.070114 7.748734 13.243576
2.110184 7.650711 13.168808
2.116501 7.640640 13.158890
2.105453 7.739548 13.167648
2.122574 7.740128 13.142654
2.108871 7.717331 13.160141
2.104355 7.672318 13.246811
2.104843 7.653580 13.244858
2.112289 7.642624 13.233414
2.123245 7.643265 13.241837
2.114517 7.671555 13.219467
2.105209 7.692184 13.235733
2.099014 7.702652 13.209854
2.110153 7.688797 13.193832
2.121201 7.719894 13.215103
2.098007 7.744125 13.198349
2.094925 7.741318 13.192276
2.116318 7.714157 13.220840
2.142593 7.703049 13.197220
2.168411 7.670151 13.129318
2.180771 7.637741 13.131088
2.144516 7.734909 13.125259
2.146133 7.693649 13.146103
2.125229 7.696487 13.133011
2.297897 7.629715 13.081436
2.356888 7.610245 13.038162
2.305588 7.609879 13.032852
2.290176 7.612442 13.014847
2.335037 7.611923 13.032059
2.360550 7.573471 13.016373
2.312546 7.614120 13.016342
2.313889 7.622360 13.011429
2.324142 7.589188 13.037949
2.488724 7.513504 13.075455
2.437241 7.523727 13.043320
2.399399 7.559250 13.027786
2.435532 7.541977 13.029831
2.441208 7.560532 13.050766
2.466873 7.525620 13.020828
2.421646 7.563339 13.045303
2.405441 7.580551 13.023483
2.403214 7.585800 13.007401
2.448318 7.574081 13.040085
2.496445 7.508743 13.065598
2.496933 7.514481 13.066147
2.470169 7.519150 13.074692
2.331161 7.668686 13.017654
2.286667 7.634781 13.016830
2.277481 7.641281 13.023880
2.298050 7.639206 13.030289
2.418350 7.660507 13.044388
2.379562 7.638840 13.003311
2.110672 7.754288 13.211227
2.097305 7.785324 13.113083
2.057724 7.792313 13.051132
2.013596 7.796371 13.018448
2.036728 7.804550 13.031235
2.014999 7.800766 13.033676
2.121078 7.797928 13.052261
2.085007 7.777359 13.021469
2.082199 7.778488 13.009659
2.124680 7.769577 13.000443
2.086441 7.790329 13.024582
2.072708 7.791458 13.008255
2.063705 7.790695 13.000229
2.091812 7.767563 13.047928
2.102768 7.751389 13.050125
2.105759 7.760361 13.047897
2.010818 7.787521 13.116043
2.059769 7.779861 13.078690
2.016953 7.786118 13.064499
2.038773 7.784103 13.070053
2.101974 7.755020 13.118973
2.078232 7.769180 13.086197
2.123825 7.766525 13.066452
2.064316 7.787735 13.091751
2.087418 7.788254 13.088821
2.081131 7.768723 13.097061
2.094131 7.764206 13.115555
2.227859 7.841476 13.081284
2.198807 7.801651 13.018326
2.184952 7.869125 13.035873
2.165176 7.822586 13.024460
2.171463 7.860367 13.024307
2.162338 7.873489 13.024704
2.213425 7.853439 13.031662
2.135239 7.762131 13.124557
2.119644 7.939774 13.027115
2.051712 7.754745 13.242325
2.006882 7.783127 13.186569
2.012772 7.770279 13.150497
2.034836 7.774704 13.147079
2.032272 7.782578 13.125809
2.053635 7.781326 13.130386
2.055801 7.768997 13.157822
2.077194 7.758591 13.175247
2.114517 7.758957 13.141464
2.090347 7.787155 13.151382
2.117172 7.790268 13.126816
2.074142 7.757675 13.166397
2.008591 7.755966 13.235092
2.028091 7.769638 13.208389
2.049484 7.769241 13.211746
2.030624 7.758072 13.234909
2.085800 7.702682 13.452621
2.104172 7.610611 13.359512
2.047165 7.537888 13.311996
2.003738 7.544479 13.268997
2.014877 7.559830 13.263901
2.011551 7.550217 13.254593
2.022934 7.543137 13.275192
2.045181 7.530472 13.284592
2.029037 7.535995 13.302536
2.039139 7.533768 13.291946
2.043594 7.542465 13.283218
2.105728 7.552628 13.290512
2.068924 7.553879 13.281021
2.071762 7.534866 13.252151
2.070480 7.560928 13.277786
2.064682 7.546951 13.300034
2.064163 7.552719 13.285263
2.085312 7.548721 13.312180
2.106155 7.610306 13.287064
2.090897 7.576096 13.278885
2.089554 7.564102 13.262955
2.086960 7.583176 13.254135
2.095627 7.577866 13.275040
2.110580 7.602707 13.280075
2.124771 7.604813 13.254990
2.101181 7.580429 13.305069
2.113235 7.574631 13.290817
2.036057 7.537521 13.347855
2.019424 7.530014 13.328629
2.025101 7.527328 13.324844
2.039871 7.528732 13.335617
2.001205 7.534988 13.328781
2.008713 7.512344 13.373367
2.009262 7.525040 13.370255
2.060410 7.506577 13.361496
2.041306 7.525681 13.357101
2.051895 7.523087 13.345871
2.059860 7.529373 13.345627
2.081253 7.534012 13.362991
2.099380 7.513290 13.343369
2.074326 7.543900 13.342361
2.091385 7.558578 13.318619
2.082169 7.542801 13.334244
2.107681 7.554703 13.332169
2.069778 7.535690 13.350266
2.112839 7.599808 13.347092
2.102463 7.566238 13.334152
2.103653 7.570602 13.334732
2.106949 7.577194 13.369461
2.160629 7.618851 13.350510
2.157150 7.619675 13.287582
2.133408 7.569748 13.368607
2.140121 7.593491 13.333755
2.136917 7.566910 13.324539
2.100418 7.743546 13.354538
2.109482 7.667831 13.299820
2.115067 7.639297 13.299545
2.116623 7.647171 13.286911
2.001907 7.749374 13.299118
2.023605 7.748459 13.303268
2.093979 7.730515 13.282150
2.103378 7.692764 13.271774
2.090927 7.733566 13.267868
2.073105 7.743576 13.260910
2.114700 7.717636 13.303238
2.107498 7.709946 13.295517
2.110703 7.663193 13.369949
2.100357 7.655838 13.320236
2.114273 7.638687 13.370529
2.049973 7.719559 13.340408
2.004074 7.732895 13.332687
2.026199 7.735458 13.331833
2.047348 7.733505 13.337387
2.067093 7.731125 13.371780
2.088333 7.687943 13.334488
2.087540 7.709488 13.337906
2.065933 7.735886 13.326859
2.086441 7.707352 13.370224
2.086746 7.704269 13.362595
2.089981 7.720047 13.362228
2.068985 7.729904 13.345322
2.126633 7.717422 13.342087
2.150711 7.655350 13.279587
2.143112 7.690353 13.272842
2.165604 7.660690 13.330460
2.141739 7.686966 13.340714
2.122055 7.615219 13.497696
2.058640 7.515396 13.434067
2.016464 7.519028 13.386185
2.042862 7.504013 13.405075
2.040298 7.512772 13.394272
2.056076 7.515518 13.398209
2.036545 7.516525 13.391037
2.006027 7.532455 13.376450
2.055069 7.514236 13.409988
2.075241 7.532455 13.415390
2.063431 7.513290 13.401505
2.084702 7.534897 13.399399
2.090225 7.535568 13.394180
2.108810 7.560226 13.396225
2.103378 7.539291 13.381790
2.096481 7.555313 13.383987
2.076614 7.517288 13.410507
2.114609 7.513596 13.429428
2.098282 7.521133 13.426834
2.116226 7.600296 13.414444
2.122696 7.591141 13.404800
2.103439 7.621475 13.378555
2.087387 7.581711 13.425552
2.080399 7.598129 13.412460
2.041733 7.509293 13.465836
2.029526 7.510635 13.464127
2.004684 7.509415 13.447128
2.013992 7.509811 13.447433
2.023636 7.501083 13.446793
2.052994 7.504257 13.455826
2.033127 7.503830 13.446060
2.116806 7.510910 13.496414
2.066208 7.504745 13.466354
2.072861 7.503647 13.463913
2.076370 7.502457 13.455551
2.094711 7.526230 13.457169
2.121384 7.527115 13.447464
2.098099 7.530258 13.453812
2.089615 7.534836 13.465439
2.097702 7.551804 13.456039
2.117172 7.552750 13.456070
2.117081 7.558090 13.458267
2.085190 7.508408 13.472488
2.093979 7.505630 13.476974
2.120346 7.595993 13.479752
2.122269 7.593185 13.495468
2.159195 7.612686 13.486008
2.126419 7.544968 13.401810
2.146713 7.608658 13.432022
2.147903 7.570206 13.379745
2.160355 7.574265 13.433609
2.159714 7.584824 13.430496
2.143936 7.538101 13.476212
2.146347 7.528244 13.463181
2.129044 7.620346 13.499802
2.127853 7.586044 13.468735
2.152054 7.566666 13.449387
2.155960 7.588638 13.491013
2.161453 7.572189 13.499710
2.036575 7.724472 13.472092
2.110123 7.679520 13.422440
2.104111 7.643051 13.379440
2.094894 7.658768 13.397202
2.103561 7.664017 13.382248
2.086777 7.684311 13.410324
2.107010 7.673325 13.421463
2.043167 7.720169 13.421951
2.019394 7.737289 13.384689
2.040970 7.740891 13.382523
2.021896 7.717941 13.422318
2.061417 7.711746 13.426865
2.101334 7.701309 13.435410
2.077225 7.705490 13.427322
2.064896 7.717209 13.429092
2.101395 7.652603 13.459366
2.115311 7.636703 13.439529
2.048325 7.732437 13.481613
2.014786 7.715225 13.482346
2.130722 7.675644 13.486282
2.132278 7.679214 13.417465
2.147232 7.648117 13.416550
2.152969 7.639389 13.485550
2.148941 7.646317 13.481888
2.045181 7.753250 13.299393
2.507706 7.723801 13.297623
2.507462 7.505386 13.109695
2.605301 7.848831 13.144180
2.730484 7.502701 13.318466
2.708542 7.507553 13.306656
2.707901 7.524368 13.297745
2.472977 7.417526 13.995529
2.093430 7.442673 13.723099
2.108109 7.480057 13.598251
2.058273 7.489670 13.558792
2.010818 7.498032 13.504562
2.030167 7.492935 13.504745
2.052444 7.476395 13.529861
2.049484 7.491501 13.511154
2.056046 7.485428 13.516556
2.001663 7.498459 13.550797
2.041489 7.479752 13.542068
2.044083 7.479630 13.531509
2.112473 7.495468 13.547104
2.069565 7.491806 13.520950
2.077042 7.495499 13.523392
2.090195 7.492081 13.530991
2.123123 7.466080 13.555923
2.047806 7.473862 13.605179
2.062393 7.467850 13.588303
2.005203 7.471359 13.564774
2.027206 7.482040 13.563889
2.008286 7.488632 13.566391
2.031601 7.478043 13.581985
2.046036 7.478928 13.567276
2.031296 7.485367 13.591812
2.018082 7.460648 13.619644
2.042526 7.466141 13.623398
2.024246 7.471115 13.623398
2.101089 7.459854 13.594498
2.088272 7.460373 13.579575
2.086014 7.477158 13.582901
2.065262 7.476181 13.571518
2.083572 7.489395 13.586105
2.104660 7.481400 13.590225
2.096542 7.485031 13.571609
2.068405 7.457474 13.621323
2.127945 7.481888 13.610764
2.209244 7.343033 13.641769
2.117538 7.445389 13.703751
2.099777 7.435043 13.654007
2.003464 7.474319 13.679733
2.061905 7.464127 13.629044
2.014511 7.483017 13.637344
2.005447 7.478073 13.626602
2.018143 7.476303 13.631485
2.030869 7.444717 13.672714
2.001541 7.463455 13.679886
2.020035 7.455673 13.675095
2.038651 7.451981 13.677444
2.044907 7.439651 13.656845
2.042770 7.461533 13.666733
2.048569 7.454544 13.663284
2.057358 7.447647 13.678848
2.117996 7.466690 13.686966
2.072647 7.454239 13.644791
2.082626 7.451645 13.633774
2.071182 7.466019 13.635117
2.081345 7.460373 13.631821
2.103073 7.462112 13.645096
2.122604 7.463150 13.656174
2.115799 7.457199 13.646805
2.101639 7.474747 13.634293
2.107101 7.475998 13.629379
2.077194 7.445602 13.684769
2.033035 7.431412 13.720108
2.052750 7.427383 13.716354
2.002792 7.387344 13.745834
2.007278 7.408615 13.749710
2.015610 7.410141 13.726730
2.025070 7.410110 13.726883
2.014786 7.436234 13.719833
2.015915 7.412033 13.736801
2.005142 7.428085 13.748245
2.039322 7.433517 13.723526
2.049667 7.427383 13.725632
2.051437 7.426193 13.719833
2.106369 7.431656 13.746628
2.064163 7.424301 13.703842
2.074326 7.431137 13.689255
2.065170 7.403763 13.739639
2.092300 7.423996 13.735611
2.070847 7.422836 13.723312
2.103043 7.409836 13.719315
2.004501 7.475327 13.747543
2.029282 7.451736 13.706039
2.016434 7.457413 13.700851
2.097885 7.443832 13.691635
2.085770 7.443344 13.699570
2.095413 7.440964 13.688889
2.114273 7.464157 13.689651
2.126114 7.454086 13.746140
2.144608 7.470901 13.680008
2.135239 7.440750 13.630875
2.150436 7.491196 13.637253
2.127975 7.458054 13.745926
2.134140 7.476028 13.695023
2.132065 7.498215 13.695755
2.133347 7.491928 13.691940
2.137650 7.497208 13.690781
2.169479 7.486618 13.718674
2.138474 7.449570 13.721085
2.420029 7.452744 13.727737
2.486130 7.367416 13.732956
2.023392 7.481339 13.973282
2.036148 7.454636 13.848312
2.045395 7.400986 13.782181
2.025497 7.403854 13.750076
2.046829 7.388168 13.769028
2.045029 7.403000 13.757858
2.043716 7.395218 13.774857
2.033829 7.425278 13.772903
2.109207 7.416092 13.811478
2.066788 7.408279 13.777390
2.080551 7.410995 13.754593
2.066360 7.416122 13.770828
2.099289 7.432114 13.754013
2.113052 7.429672 13.755417
2.089981 7.415756 13.801468
2.112930 7.420822 13.808548
2.117599 7.422134 13.804245
2.022873 7.451370 13.764847
2.055832 7.430130 13.867203
2.006516 7.429153 13.816940
2.046005 7.392410 13.844345
2.030380 7.421768 13.865067
2.012955 7.429550 13.870316
2.047775 7.413010 13.858170
2.066910 7.408707 13.859909
2.079544 7.405228 13.826065
2.090530 7.402451 13.813889
2.062607 7.411789 13.813919
2.115341 7.387131 13.863266
2.113693 7.384171 13.856247
2.105728 7.403885 13.870499
2.087570 7.407242 13.867386
2.008347 7.476822 13.819260
2.163223 7.471237 13.871841
2.133957 7.433823 13.772751
2.147598 7.436234 13.763626
2.161697 7.470444 13.804337
2.162094 7.461136 13.752335
2.143600 7.483047 13.750565
2.142746 7.489029 13.753891
2.135574 7.445877 13.806107
2.156021 7.440140 13.794479
2.138016 7.449356 13.805069
2.155563 7.472855 13.807175
2.166061 7.491623 13.798630
2.188278 7.481064 13.799179
2.170395 7.419937 13.848465
2.137100 7.390182 13.822708
2.150192 7.420090 13.838608
2.129440 7.418167 13.824997
2.127640 7.408707 13.861862
2.134659 7.408310 13.854507
2.148300 7.435165 13.861923
2.178787 7.488693 13.855576
2.179916 7.452469 13.827438
2.152603 7.480423 13.813248
2.151291 7.438248 13.860153
2.168015 7.445999 13.870285
2.160049 7.468277 13.873825
2.167252 7.467087 13.872849
2.117447 7.373642 13.995163
2.073502 7.371048 13.881210
2.115158 7.368454 13.978867
2.074295 7.369247 13.953171
2.125076 7.373367 13.987289
2.149490 7.366379 13.967880
2.037857 7.456253 13.985825
2.046677 7.409103 13.933212
2.020554 7.432541 13.901810
2.062057 7.412521 13.880630
2.041275 7.409592 13.922470
2.054733 7.430771 13.933456
2.121445 7.390335 13.937241
2.097549 7.390762 13.875198
2.074417 7.407059 13.885117
2.064987 7.401901 13.929520
2.084641 7.396896 13.930374
2.114426 7.382431 13.928146
2.103745 7.385849 13.916428
2.102646 7.393082 13.932602
2.035538 7.455002 13.914963
2.005966 7.457932 13.889084
2.015121 7.478958 13.895096
2.052261 7.431137 13.998459
2.013626 7.432053 13.957535
2.029892 7.419968 13.944138
2.016281 7.432602 13.964401
2.061722 7.390213 13.990524
2.057388 7.376846 13.973526
2.033859 7.409073 13.981247
2.098373 7.378067 13.987289
2.102890 7.385605 13.941116
2.112106 7.395035 13.937576
2.071976 7.407455 13.949875
2.081802 7.386765 13.994370
2.082809 7.390610 13.969193
2.091568 7.384476 13.969223
2.003067 7.458206 13.953293
2.192215 7.423569 13.947952
2.167679 7.410690 13.913223
2.125626 7.404861 13.882004
2.144760 7.401352 13.885513
2.172836 7.420975 13.904556
2.138077 7.399765 13.920944
2.143387 7.400650 13.915817
2.161636 7.423996 13.917160
2.168808 7.465805 13.937393
2.176041 7.499832 13.881302
2.171951 7.458115 13.930954
2.198135 7.443588 13.903122
2.162949 7.421799 13.988602
2.140701 7.387344 13.941696
2.161606 7.389938 13.956772
2.139786 7.397293 13.991898
2.147629 7.396255 13.983353
2.186172 7.403091 13.992203
2.164810 7.425735 13.988358
2.291824 7.447311 13.824326
2.294601 7.359726 13.809555
2.496628 7.318710 13.871078
2.478531 7.359543 13.829086
2.484238 7.341415 13.813217
2.460587 7.367447 13.832321
2.314102 7.485123 13.789169
2.298813 7.435654 13.778519
2.351761 7.427444 13.802658
2.312119 7.480362 13.787796
2.254990 7.496445 13.764175
2.275070 7.447037 13.804947
2.301315 7.487473 13.793228
2.348343 7.441879 13.790054
2.327591 7.465561 13.763321
2.348221 7.464737 13.772812
2.367844 7.460007 13.775253
2.326370 7.442856 13.784561
2.339859 7.454849 13.789688
2.372787 7.451218 13.789230
2.486435 7.392166 13.832169
2.413651 7.410049 13.796860
2.429489 7.395554 13.781174
2.396317 7.397141 13.793930
2.418320 7.402847 13.790176
2.447128 7.412369 13.790268
2.441238 7.375320 13.798721
2.457565 7.393509 13.808243
2.391434 7.458939 13.800552
2.382950 7.437637 13.795944
2.442642 7.394699 13.813950
2.543015 7.248642 13.924484
2.863297 7.211014 13.717117
2.807785 7.236496 13.503067
2.841629 7.236618 13.656052
2.841660 7.249680 13.644333
2.810532 7.252487 13.650345
2.860153 7.268814 13.602524
2.751328 7.270828 13.513107
2.795303 7.265396 13.611710
2.680405 7.229721 13.976761
2.637985 7.225174 13.942429
2.569412 7.273849 13.986008
2.503311 7.325699 13.860001
2.500015 7.359818 13.841843
2.606247 7.264694 13.955276
2.556198 7.286148 13.913803
2.535904 7.300522 13.889542
2.596298 7.283096 13.932693
2.579025 7.291794 13.937057
2.549210 7.325119 13.893539
2.559830 7.313461 13.883469
2.523758 7.292618 13.984024
2.607651 7.279709 13.941116
2.632797 7.258682 13.984909
2.858322 7.493912 13.922867
2.758072 7.496140 13.814529
2.878250 7.494095 13.912888
2.303085 7.727310 13.785324
2.002762 7.724319 13.749008
2.122940 7.591568 13.618515
2.010422 7.507767 13.506241
2.065842 7.509171 13.539810
2.104507 7.517685 13.515396
2.112289 7.516647 13.507248
2.124710 7.545822 13.517136
2.120529 7.554337 13.524673
2.111099 7.601761 13.562485
2.116745 7.593246 13.553787
2.116745 7.506790 13.570450
2.116989 7.511917 13.572281
2.117081 7.524185 13.573441
2.118393 7.567032 13.574631
2.170029 7.598801 13.612991
2.163620 7.537155 13.562241
2.139359 7.522018 13.525558
2.162735 7.534500 13.513199
2.133652 7.546707 13.548904
2.162033 7.611496 13.550522
2.156113 7.510941 13.593765
2.133835 7.502640 13.569260
2.126358 7.543381 13.586075
2.129166 7.546585 13.584641
2.135239 7.577988 13.601181
2.164261 7.570969 13.564316
2.173630 7.582932 13.568680
2.074295 7.691086 13.592819
2.004807 7.662674 13.522751
2.102524 7.681992 13.551590
2.113113 7.636276 13.513596
2.119308 7.632401 13.505051
2.109970 7.657120 13.520523
2.102829 7.660049 13.506516
2.106094 7.669632 13.502579
2.083542 7.664963 13.552963
2.081497 7.684036 13.545639
2.093185 7.677353 13.548874
2.099319 7.679733 13.545181
2.032181 7.709122 13.560837
2.017349 7.695175 13.521011
2.038773 7.699905 13.517136
2.057144 7.700027 13.509964
2.060562 7.698257 13.522385
2.078354 7.695450 13.519577
2.093552 7.694443 13.510880
2.034470 7.683914 13.606918
2.012802 7.674088 13.618179
2.056412 7.686935 13.605545
2.077621 7.683182 13.613907
2.112930 7.636063 13.584244
2.122818 7.656540 13.590958
2.121658 7.647873 13.594131
2.053207 7.700058 13.576859
2.010269 7.697922 13.573990
2.068375 7.697922 13.590073
2.091019 7.690384 13.581192
2.149338 7.641098 13.616745
2.133804 7.674576 13.550491
2.126755 7.661728 13.516861
2.151108 7.644791 13.547043
2.125443 7.637772 13.541641
2.149338 7.650589 13.536087
2.145432 7.647659 13.607040
2.122421 7.590775 13.690811
2.124588 7.505020 13.633774
2.123947 7.500168 13.632492
2.247452 7.611160 13.735733
2.136246 7.540054 13.646927
2.145615 7.561478 13.653427
2.139511 7.532272 13.640518
2.166367 7.613724 13.658859
2.134750 7.586594 13.625992
2.166580 7.569504 13.629715
2.127274 7.608200 13.639755
2.135208 7.576797 13.672745
2.137070 7.538223 13.717575
2.142654 7.528671 13.708145
2.140274 7.518295 13.688065
2.178879 7.519028 13.697830
2.139816 7.539749 13.690353
2.137802 7.560806 13.695236
2.188248 7.554214 13.747482
2.191666 7.514084 13.736984
2.162399 7.611008 13.730331
2.132156 7.582748 13.706039
2.141891 7.576981 13.698837
2.164352 7.565536 13.700302
2.129929 7.604660 13.711533
2.138992 7.572128 13.739273
2.138229 7.596725 13.738419
2.076767 7.669327 13.725845
2.052292 7.678299 13.685440
2.008499 7.636703 13.652725
2.005783 7.681808 13.664658
2.048843 7.686447 13.663895
2.069962 7.679398 13.677139
2.124619 7.629562 13.645889
2.123428 7.626816 13.642105
2.094925 7.660507 13.639877
2.122665 7.665878 13.630173
2.098465 7.673691 13.630539
2.118729 7.644730 13.675156
2.117538 7.641129 13.671188
2.070877 7.676895 13.670609
2.027786 7.695267 13.648178
2.044510 7.675522 13.747787
2.007858 7.637375 13.718307
2.008530 7.661728 13.703537
2.030136 7.668808 13.696182
2.023270 7.680038 13.738205
2.115982 7.646408 13.737656
2.109024 7.655838 13.712997
2.090927 7.661301 13.706467
2.073380 7.668839 13.702103
2.094315 7.661789 13.715317
2.114914 7.650101 13.735184
2.121628 7.625717 13.726730
2.144485 7.635727 13.690079
2.141403 7.640396 13.684830
2.351700 7.689194 13.710892
2.291916 7.618149 13.733597
2.269821 7.614975 13.734177
2.382156 7.586197 13.728012
2.462112 7.558853 13.749344
2.330887 7.690475 13.705063
2.370712 7.668167 13.722122
2.418411 7.687820 13.699387
2.415817 7.728867 13.666245
2.462112 7.728195 13.683975
2.444809 7.743240 13.676376
2.377731 7.703323 13.704880
2.076767 7.815536 13.706284
2.083389 7.751053 13.608231
2.134567 7.755234 13.570541
2.006485 7.835892 13.703171
2.044113 7.863052 13.679123
2.039658 7.780014 13.720901
2.279892 7.776871 13.707260
2.481552 7.750534 13.675735
2.102615 7.632401 13.967422
2.115921 7.621719 13.812546
2.202469 7.571579 13.862503
2.167648 7.533981 13.799149
2.151749 7.520615 13.768295
2.150223 7.527084 13.772476
2.163345 7.528610 13.771530
2.186935 7.556229 13.769730
2.185776 7.540329 13.758408
2.162888 7.512283 13.805252
2.159744 7.557907 13.797714
2.158890 7.555862 13.785416
2.231125 7.534256 13.783005
2.207382 7.530533 13.776016
2.210007 7.537857 13.774429
2.209488 7.553574 13.770859
2.228073 7.544876 13.765366
2.203629 7.520798 13.799057
2.237869 7.508530 13.789627
2.158493 7.611954 13.797043
2.127121 7.585983 13.756607
2.144424 7.579727 13.762955
2.184586 7.578568 13.780533
2.163467 7.604019 13.753433
2.182022 7.565811 13.789932
2.134354 7.606674 13.792221
2.134048 7.601151 13.781479
2.227493 7.573654 13.794601
2.203781 7.577377 13.776932
2.225449 7.583847 13.771194
2.249680 7.576187 13.794662
2.180618 7.531021 13.855637
2.162369 7.516739 13.828934
2.168411 7.506851 13.818802
2.247116 7.531326 13.825272
2.201462 7.510971 13.820236
2.206192 7.547409 13.828873
2.177109 7.611832 13.869400
2.156021 7.581863 13.831589
2.138870 7.575851 13.813492
2.130508 7.619553 13.842178
2.180893 7.596298 13.823227
2.151749 7.564865 13.869186
2.154648 7.619644 13.854446
2.182602 7.596237 13.857803
2.189896 7.574783 13.844070
2.243301 7.595749 13.836838
2.082565 7.650955 13.858505
2.047745 7.656143 13.785629
2.001236 7.666672 13.754623
2.057053 7.666824 13.753799
2.004288 7.652664 13.784836
2.025742 7.653122 13.787003
2.069138 7.656326 13.788315
2.113327 7.630997 13.753708
2.065689 7.668900 13.760483
2.090103 7.649796 13.800858
2.086716 7.654373 13.784744
2.095352 7.645767 13.796371
2.061325 7.657547 13.845688
2.018509 7.656326 13.841354
2.039993 7.658737 13.840897
2.109299 7.633530 13.818466
2.110794 7.642014 13.815201
2.133377 7.631271 13.834244
2.135086 7.627884 13.768753
2.137344 7.631943 13.764877
2.081497 7.624039 13.976639
2.020676 7.617325 13.907913
2.016739 7.506149 13.970200
2.009811 7.532272 13.967148
2.060043 7.614059 13.988235
2.194626 7.584518 13.981918
2.177597 7.536026 13.901505
2.161667 7.516006 13.902512
2.164810 7.551163 13.882919
2.199448 7.549423 13.904587
2.193863 7.526932 13.884445
2.199509 7.527451 13.878830
2.141708 7.615494 13.926071
2.152176 7.595993 13.879929
2.150711 7.623184 13.918350
2.187668 7.608810 13.934372
2.198593 7.581589 13.916855
2.169571 7.544022 13.989639
2.170120 7.503067 13.962143
2.174362 7.505478 13.942245
2.168076 7.509964 13.967087
2.173569 7.542160 13.961807
2.219193 7.530228 13.995041
2.222977 7.504227 13.963425
2.169235 7.619766 13.996414
2.148148 7.599503 13.944077
2.153763 7.568954 13.980911
2.146683 7.621567 13.990189
2.122208 7.635452 13.959671
2.057022 7.649887 13.926163
2.043228 7.636551 13.882889
2.123123 7.661972 13.918472
2.064743 7.640762 13.879745
2.085953 7.641800 13.881271
2.106705 7.635818 13.893051
2.105301 7.638016 13.880936
2.078354 7.647049 13.933548
2.035110 7.631668 13.949753
2.101212 7.637711 13.950790
2.125381 7.629776 13.974808
2.173416 7.633499 13.906784
2.129440 7.631424 13.902939
2.126724 7.635391 13.888138
2.160355 7.633163 13.948746
2.329422 7.673691 13.789871
2.313095 7.619858 13.772659
2.253403 7.531357 13.790939
2.251205 7.543991 13.764145
2.250290 7.550186 13.785355
2.264297 7.597183 13.790665
2.293442 7.608871 13.755234
2.271866 7.586441 13.783676
2.338150 7.612839 13.757614
2.427109 7.580551 13.766434
2.449173 7.553024 13.751816
2.343369 7.652054 13.761246
2.285599 7.672592 13.799362
2.293381 7.660599 13.761063
2.346756 7.924911 13.778702
2.359146 7.849960 13.760635
2.342667 7.802170 13.758652
2.314102 7.837204 13.763351
2.375748 7.793961 13.782578
2.330215 7.889023 13.759171
2.849655 7.513992 13.898911
2.503586 7.741043 13.674149
2.505936 7.574081 13.713181
2.520157 7.547928 13.749680
2.500107 7.557053 13.732498
2.524185 7.746567 13.670609
2.505600 7.694046 13.667191
2.608505 7.930557 13.689987
2.616318 7.869003 13.728500
2.512558 7.781601 13.663132
2.517197 7.799088 13.654617
2.538712 7.806198 13.649155
2.605026 7.807358 13.669205
2.562851 7.805740 13.661819
2.583817 7.810532 13.659653
2.559494 7.825424 13.625961
2.621231 7.847702 13.682907
2.575974 7.851303 13.660690
2.578995 7.858658 13.665604
2.597427 7.854080 13.661728
2.626022 7.873489 13.709061
2.626877 7.802933 13.680801
2.619247 7.883408 13.713943
2.544022 7.935257 13.667435
2.552200 7.894730 13.666550
2.597244 7.911942 13.666672
2.589798 7.879532 13.686569
2.593796 7.904739 13.670395
2.613846 7.897476 13.670944
2.517319 7.992630 13.645279
2.669266 7.965195 13.738541
2.652023 7.913589 13.725967
2.638138 7.885056 13.701096
2.660873 7.881088 13.712509
2.671432 7.929276 13.707718
2.681992 7.877945 13.722397
2.655807 7.928268 13.725937
2.673050 7.954269 13.714890
2.652817 7.940323 13.701706
2.685410 7.661331 13.771408
2.578873 7.598007 13.752945
2.538498 7.537552 13.755905
2.541397 7.545670 13.757401
2.608719 7.544022 13.774673
2.564774 7.538193 13.773209
2.575851 7.546463 13.762924
2.586929 7.543900 13.769974
2.609695 7.557327 13.764450
2.536514 7.580154 13.775742
2.716263 7.567184 13.835922
2.675125 7.548691 13.792374
2.676682 7.529343 13.811386
2.653549 7.543961 13.793869
2.631302 7.547592 13.783432
2.718307 7.533493 13.809677
2.664993 7.543533 13.836258
2.626572 7.547379 13.821365
2.743637 7.516953 13.854691
2.743607 7.515030 13.836624
2.722580 7.527573 13.834274
2.700943 7.533798 13.825882
2.699112 7.538040 13.813461
2.723740 7.531601 13.834549
2.681229 7.580673 13.826675
2.854080 7.515060 13.876572
2.825668 7.567154 13.873947
2.846054 7.562119 13.871536
2.967209 7.500015 13.939865
2.884750 7.547165 13.893448
2.672470 7.950180 13.767166
2.697433 7.894608 13.771133
1.837662 7.999344 15.476669
1.996780 6.880722 14.911972
1.998398 6.299973 14.851974
1.991959 6.301132 14.845993
1.970383 6.264389 14.857162
1.909134 6.261917 14.867935
1.927872 6.270065 14.832321
1.896011 6.268661 14.863541
1.985275 6.255447 14.848007
1.940567 6.263290 14.836136
1.956833 6.273514 14.840530
1.953201 6.265427 14.847824
1.490402 6.685196 14.884964
1.980667 6.906143 14.894272
1.864853 6.960709 14.737717
1.793472 6.985916 14.731705
1.654129 6.841080 14.892410
1.581131 6.771774 14.817154
1.606888 6.804825 14.801437
1.654922 6.852127 14.825912
1.691391 6.786148 14.848984
1.723099 6.908493 14.783157
1.679276 6.877029 14.792892
1.690445 6.895889 14.800949
1.959763 6.823380 14.949570
1.815018 6.975632 14.774979
1.771255 6.949783 14.795547
1.780869 6.958603 14.784225
1.969193 6.956039 14.812546
1.950424 6.999466 14.783127
1.994675 6.768478 14.956741
1.958389 7.545273 14.209183
1.994705 7.408463 14.489639
1.997971 7.432602 14.216904
1.997757 7.485611 14.088852
1.996780 7.445816 14.057083
1.984421 7.471909 14.013565
1.989120 7.483139 14.009354
1.997452 7.458878 14.083176
1.999191 7.460007 14.154495
1.999283 7.431992 14.149063
1.993942 7.412766 14.484451
1.998367 7.407730 14.352432
1.998245 7.406876 14.281937
1.962112 7.418106 14.253891
1.999466 7.356430 14.485550
1.993973 7.382401 14.483658
1.997543 7.408463 14.422165
1.998611 7.424393 14.394485
1.998978 7.378159 14.451553
1.982712 7.562790 14.017838
1.977493 7.534988 14.005692
1.981491 7.508713 14.005234
1.977982 7.230637 14.982193
1.982468 7.383011 14.684799
1.986374 7.355911 14.612167
1.990616 7.355759 14.545609
1.994156 7.360397 14.504776
1.992142 7.329697 14.614456
