-1.98950005 3.39660001 6.30130005 255 255 255 785.000000
-1.98759997 3.40829992 6.29449987 255 255 255 993.000000
-1.98570001 3.41989994 6.28789997 255 255 255 1137.000000
-1.98650002 3.43050003 6.28509998 255 255 255 1345.000000
-1.98899996 3.44140005 6.28469992 255 255 255 1329.000000
-1.99380004 3.45070004 6.28789997 255 255 255 1457.000000
-2.00020003 3.45950007 6.29360008 255 255 255 1281.000000
-2.00760007 3.46880007 6.30039978 255 255 255 1233.000000
-2.01780009 3.47700000 6.31160021 255 255 255 1265.000000
-2.02900004 3.48449993 6.32420015 255 255 255 993.000000
-2.04570007 3.49149990 6.34469986 255 255 255 1009.000000
-2.06620002 3.49640012 6.37099981 255 255 255 801.000000
-2.71860003 2.76580000 7.47039986 255 255 255 865.000000
-2.70560002 2.77839994 7.47580004 255 255 255 1281.000000
-2.04509997 3.20889997 6.41629982 255 255 255 801.000000
-2.04169989 3.22219992 6.40619993 255 255 255 1201.000000
-2.04110003 3.23359990 6.40089989 255 255 255 881.000000
-2.04410005 3.24399996 6.40059996 255 255 255 337.000000
-2.00279999 3.32610011 6.31339979 255 255 255 129.000000
-2.06089997 3.34159994 6.38539982 255 255 255 1105.000000
-2.00489998 3.37050009 6.29960012 255 255 255 1057.000000
-1.99300003 3.38520002 6.27810001 255 255 255 1025.000000
-1.99000001 3.39700007 6.26989985 255 255 255 1057.000000
-1.98670006 3.40910006 6.26100016 255 255 255 1329.000000
-1.98549998 3.42050004 6.25530005 255 255 255 1361.000000
-1.98640001 3.43099999 6.25290012 255 255 255 1281.000000
-1.98940003 3.44180012 6.25309992 255 255 255 1233.000000
-1.99450004 3.45110011 6.25680017 255 255 255 1473.000000
-2.00130010 3.45970011 6.26300001 255 255 255 1297.000000
-2.01130009 3.46830010 6.27349997 255 255 255 1313.000000
-2.01990008 3.47690010 6.28219986 255 255 255 1281.000000
-2.03139997 3.48440003 6.29540014 255 255 255 977.000000
-2.05080009 3.49060011 6.31949997 255 255 255 817.000000
-2.06850004 3.49640012 6.34159994 255 255 255 1009.000000
-2.74000001 2.74449992 7.47009993 255 255 255 1409.000000
-2.72280002 2.75889993 7.46910000 255 255 255 449.000000
-2.04670000 3.25580001 6.36689997 255 255 255 1041.000000
-2.04419994 3.26769996 6.35890007 255 255 255 881.000000
-2.02320004 3.33159995 6.30639982 255 255 255 -2047.000000
-2.03620005 3.34980011 6.31689978 255 255 255 529.000000
-2.00230002 3.37190008 6.26359987 255 255 255 897.000000
-1.99380004 3.38549995 6.24730015 255 255 255 1057.000000
-1.98979998 3.39759994 6.23759985 255 255 255 1009.000000
-1.98699999 3.40949988 6.22949982 255 255 255 945.000000
-1.98720002 3.42050004 6.22590017 255 255 255 1265.000000
-1.98810005 3.43109989 6.22340012 255 255 255 1377.000000
-1.99090004 3.44190001 6.22329998 255 255 255 1585.000000
-1.99539995 3.45140004 6.22620010 255 255 255 1329.000000
-2.00270009 3.45989990 6.23299980 255 255 255 1297.000000
-2.01230001 3.46860003 6.24300003 255 255 255 1153.000000
-2.02220011 3.47679996 6.25349998 255 255 255 1329.000000
-2.03620005 3.48359990 6.27019978 255 255 255 1041.000000
-2.05360007 3.49040008 6.29139996 255 255 255 1169.000000
-2.07559991 3.49499989 6.31949997 255 255 255 881.000000
-1.69640005 1.68420005 6.84390020 255 255 255 1153.000000
-2.75810003 2.72390008 7.46500015 255 255 255 1185.000000
-2.73810005 2.72569990 7.46619987 255 255 255 -1903.000000
-2.74140000 2.73869991 7.46449995 255 255 255 -463.000000
-2.05500007 3.26469994 6.34219980 255 255 255 593.000000
-2.04929996 3.27800012 6.32950020 255 255 255 1025.000000
-2.04629993 3.29089999 6.32040024 255 255 255 897.000000
-2.04600000 3.30209994 6.31580019 255 255 255 673.000000
-2.04520011 3.31360006 6.31040001 255 255 255 561.000000
-2.04259992 3.32599998 6.30229998 255 255 255 1233.000000
-2.03539991 3.33940005 6.28779984 255 255 255 465.000000
-2.02060008 3.35520005 6.26230001 255 255 255 785.000000
-2.00119996 3.37269998 6.23019981 255 255 255 1153.000000
-1.99170005 3.38669991 6.21239996 255 255 255 1137.000000
-1.98679996 3.39910007 6.20139980 255 255 255 1313.000000
-1.98609996 3.41030002 6.19649982 255 255 255 1297.000000
-1.98699999 3.42109990 6.19390011 255 255 255 1553.000000
-1.98780000 3.43169999 6.19119978 255 255 255 1265.000000
-1.99059999 3.44250011 6.19129992 255 255 255 1345.000000
-1.99600005 3.45169997 6.19530010 255 255 255 1265.000000
-2.00259995 3.46050000 6.20109987 255 255 255 1313.000000
-2.01309991 3.46889997 6.21220016 255 255 255 1265.000000
-2.02480006 3.47670007 6.22539997 255 255 255 881.000000
-2.03789997 3.48359990 6.24069977 255 255 255 785.000000
-2.05719995 3.48990011 6.26450014 255 255 255 929.000000
-2.08080006 3.49410009 6.29470015 255 255 255 977.000000
-1.70990002 1.67429996 6.83209991 255 255 255 -879.000000
-3.13529992 1.54079998 8.55990028 255 255 255 177.000000
-2.77679992 2.70339990 7.46080017 255 255 255 1057.000000
-2.76149988 2.71709991 7.46250010 255 255 255 353.000000
-2.05419993 3.29999995 6.29549980 255 255 255 769.000000
-2.04809999 3.31320000 6.28249979 255 255 255 849.000000
-2.04450011 3.32599998 6.27290010 255 255 255 625.000000
-2.03270006 3.34080005 6.25190020 255 255 255 785.000000
-2.01650000 3.35710001 6.22459984 255 255 255 1041.000000
-2.00079989 3.37339997 6.19780016 255 255 255 1233.000000
-1.99389994 3.38649988 6.18389988 255 255 255 1217.000000
-1.99129999 3.39820004 6.17630005 255 255 255 1217.000000
-1.98829997 3.41020012 6.16809988 255 255 255 1409.000000
-1.98730004 3.42160010 6.16279984 255 255 255 1377.000000
-1.98930001 3.43179989 6.16179991 255 255 255 1425.000000
-1.99249995 3.44250011 6.16249990 255 255 255 1249.000000
-1.99549997 3.45239997 6.16300011 255 255 255 1185.000000
-2.00309992 3.46090007 6.17030001 255 255 255 1297.000000
-2.01360011 3.46930003 6.18139982 255 255 255 1153.000000
-2.02480006 3.47720003 6.19379997 255 255 255 1105.000000
-2.03909993 3.48390007 6.21059990 255 255 255 993.000000
-2.05940008 3.48990011 6.23559999 255 255 255 865.000000
-2.08279991 3.49410009 6.26550007 255 255 255 721.000000
-3.14459991 1.53590000 8.53090000 255 255 255 321.000000
-2.78789997 2.67129993 7.45219994 255 255 255 -1503.000000
-2.79979992 2.68079996 7.46290016 255 255 255 481.000000
-2.05579996 3.32290006 6.25729990 255 255 255 209.000000
-2.04590011 3.33719993 6.23899984 255 255 255 721.000000
-2.01970005 3.35660005 6.19750023 255 255 255 897.000000
-2.00399995 3.37299991 6.17089987 255 255 255 881.000000
-1.99650002 3.38630009 6.15630007 255 255 255 1185.000000
-1.99160004 3.39870000 6.14540005 255 255 255 1185.000000
-1.98819995 3.41079998 6.13660002 255 255 255 1249.000000
-1.98829997 3.42179990 6.13299990 255 255 255 1425.000000
-1.98969996 3.43219995 6.13110018 255 255 255 1361.000000
-1.99070001 3.44359994 6.12860012 255 255 255 1233.000000
-1.99549997 3.45300007 6.13170004 255 255 255 1281.000000
-2.00279999 3.46149993 6.13850021 255 255 255 1329.000000
-2.01239991 3.47020006 6.14830017 255 255 255 1297.000000
-2.02679992 3.47720003 6.16499996 255 255 255 1121.000000
-2.04159999 3.48370004 6.18249989 255 255 255 993.000000
-2.05830002 3.49070001 6.20240021 255 255 255 961.000000
-2.07820010 3.49589992 6.22720003 255 255 255 961.000000
-1.72350001 1.64919996 6.79820013 255 255 255 1105.000000
-3.15499997 1.53040004 8.50380039 255 255 255 -1135.000000
-2.84319997 2.64969993 7.49469995 255 255 255 -2047.000000
-2.86929989 2.66790009 7.51929998 255 255 255 -319.000000
-2.87689996 2.68770003 7.54759979 255 255 255 177.000000
-2.88940001 2.71070004 7.55329990 255 255 255 753.000000
-2.11599994 3.31570005 6.30690002 255 255 255 -2047.000000
-2.02430010 3.35570002 6.17250013 255 255 255 897.000000
-2.00480008 3.37319994 6.14080000 255 255 255 1153.000000
-1.99670005 3.38669991 6.12529993 255 255 255 1137.000000
-1.99349999 3.39870000 6.11689997 255 255 255 1201.000000
-1.98920000 3.41100001 6.10699987 255 255 255 1473.000000
-1.98839998 3.42230010 6.10190010 255 255 255 1201.000000
-1.98940003 3.43289995 6.09959984 255 255 255 1249.000000
-1.99220002 3.44370008 6.09969997 255 255 255 1393.000000
-1.99660003 3.45320010 6.10220003 255 255 255 1457.000000
-2.00390005 3.46169996 6.10890007 255 255 255 1169.000000
-2.01300001 3.47059989 6.11800003 255 255 255 1073.000000
-2.02460003 3.47830009 6.13079977 255 255 255 1217.000000
-2.03979993 3.48469996 6.14870024 255 255 255 961.000000
-2.05819988 3.49130011 6.17089987 255 255 255 1105.000000
-2.07879996 3.49629998 6.19640017 255 255 255 945.000000
-3.16429996 1.52550006 8.47509956 255 255 255 -335.000000
-2.84419990 2.43339992 7.56309986 255 255 255 785.000000
-2.84389997 2.62199998 7.47079992 255 255 255 241.000000
-2.87689996 2.62269998 7.51200008 255 255 255 -1759.000000
-2.02819991 3.35500002 6.14690018 255 255 255 785.000000
-2.00760007 3.37290001 6.11359978 255 255 255 1009.000000
-1.99759996 3.38700008 6.09549999 255 255 255 1137.000000
-1.99129999 3.39989996 6.08279991 255 255 255 1041.000000
-1.98899996 3.41160011 6.07569981 255 255 255 1009.000000
-1.99109995 3.42199993 6.07480001 255 255 255 1201.000000
-1.98989999 3.43319988 6.06949997 255 255 255 1313.000000
-1.99240005 3.44420004 6.06899977 255 255 255 1345.000000
-1.99679995 3.45370007 6.07159996 255 255 255 1041.000000
-2.00279999 3.46259999 6.07649994 255 255 255 993.000000
-2.01279998 3.47119999 6.08680010 255 255 255 1297.000000
-2.02589989 3.47849989 6.10150003 255 255 255 1041.000000
-2.03889990 3.48550010 6.11630011 255 255 255 1089.000000
-2.05690002 3.49219990 6.13780022 255 255 255 1025.000000
-2.08019996 3.49650002 6.16709995 255 255 255 833.000000
-2.56699991 3.72830009 6.75120020 255 255 255 257.000000
-3.17440009 1.52010000 8.44769955 255 255 255 513.000000
-2.85270000 2.57559991 7.46610022 255 255 255 689.000000
-2.86039996 2.58680010 7.47030020 255 255 255 417.000000
-2.03060007 3.35479999 6.11910009 255 255 255 961.000000
-2.01160002 3.37220001 6.08820009 255 255 255 1201.000000
-1.99969995 3.38689995 6.06769991 255 255 255 1137.000000
-1.99530005 3.39919996 6.05770016 255 255 255 977.000000
-1.99189997 3.41129994 6.04909992 255 255 255 1393.000000
-1.99259996 3.42210007 6.04619980 255 255 255 993.000000
-1.99230003 3.43309999 6.04209995 255 255 255 1473.000000
-1.99370003 3.44429994 6.04020023 255 255 255 1473.000000
-1.99740005 3.45400000 6.04180002 255 255 255 1329.000000
-2.00279999 3.46309996 6.04580021 255 255 255 1297.000000
-2.01130009 3.47210002 6.05389977 255 255 255 833.000000
-2.02419996 3.47950006 6.06829977 255 255 255 1169.000000
-2.03819990 3.48629999 6.08440018 255 255 255 1057.000000
-2.05730009 3.49259996 6.10729980 255 255 255 977.000000
-2.07909989 3.49729991 6.13439989 255 255 255 865.000000
-2.56839991 3.72869992 6.71899986 255 255 255 1425.000000
-1.75199997 1.61360002 6.75489998 255 255 255 801.000000
-2.96980000 1.24100006 8.35980034 255 255 255 289.000000
-3.18729997 1.51310003 8.42469978 255 255 255 657.000000
-2.89590001 2.44169998 7.54689980 255 255 255 897.000000
-2.86739993 2.55500007 7.45660019 255 255 255 1233.000000
-2.04089999 3.35209990 6.10260010 255 255 255 945.000000
-2.01659989 3.37120008 6.06459999 255 255 255 1089.000000
-2.00410008 3.38610005 6.04320002 255 255 255 993.000000
-1.99849999 3.39870000 6.03160000 255 255 255 1297.000000
-1.99559999 3.41070008 6.02370024 255 255 255 1473.000000
-1.99419999 3.42219996 6.01800013 255 255 255 1441.000000
-1.99500000 3.43280005 6.01539993 255 255 255 1297.000000
-1.99570000 3.44420004 6.01249981 255 255 255 1441.000000
-1.99960005 3.45390010 6.01429987 255 255 255 1185.000000
-2.00530005 3.46289992 6.01870012 255 255 255 1105.000000
-2.01209998 3.47239995 6.02440023 255 255 255 1233.000000
-2.02340007 3.48029995 6.03660011 255 255 255 1121.000000
-2.03550005 3.48760009 6.04990005 255 255 255 1025.000000
-2.05550003 3.49370003 6.07390022 255 255 255 1057.000000
-2.07789993 3.49819994 6.10169983 255 255 255 993.000000
-2.57760000 3.72740006 6.69770002 255 255 255 -47.000000
-1.76250005 1.60590005 6.73829985 255 255 255 1153.000000
-3.23830009 0.98799998 8.79399967 255 255 255 -287.000000
-3.19819999 1.50720000 8.39879990 255 255 255 -319.000000
-2.91389990 2.43440008 7.53459978 255 255 255 417.000000
-2.06159997 3.34619999 6.10059977 255 255 255 17.000000
-2.02200007 3.36999989 6.04150009 255 255 255 817.000000
-2.00889993 3.38509989 6.01940012 255 255 255 945.000000
-2.00060010 3.39860010 6.00419998 255 255 255 1329.000000
-1.99689996 3.41079998 5.99510002 255 255 255 1345.000000
-1.99600005 3.42219996 5.99009991 255 255 255 1217.000000
-1.99660003 3.43280005 5.98740005 255 255 255 1153.000000
-1.99580002 3.44470000 5.98239994 255 255 255 1505.000000
-1.99930000 3.45449996 5.98360014 255 255 255 1297.000000
-2.00469995 3.46359992 5.98759985 255 255 255 1361.000000
-2.01079988 3.47329998 5.99230003 255 255 255 1281.000000
-2.02160001 3.48130012 6.00369978 255 255 255 1105.000000
-2.03349996 3.48860002 6.01679993 255 255 255 1121.000000
-2.05100012 3.49539995 6.03719997 255 255 255 913.000000
-2.07340002 3.49990010 6.06479979 255 255 255 737.000000
-2.20059991 3.51060009 6.22620010 255 255 255 545.000000
-2.57960010 3.72770000 6.66650009 255 255 255 -2047.000000
-1.77380002 1.59749997 6.72310019 255 255 255 1313.000000
-3.26580000 0.97009999 8.79279995 255 255 255 433.000000
-3.20959997 1.50109994 8.37380028 255 255 255 -1039.000000
-2.91599989 2.43400002 7.49980021 255 255 255 801.000000
-2.02769995 3.36879992 6.01900005 255 255 255 1201.000000
-2.01300001 3.38439989 5.99480009 255 255 255 1105.000000
-2.00570011 3.39759994 5.98089981 255 255 255 1249.000000
-2.00020003 3.41030002 5.96960020 255 255 255 1249.000000
-1.99790001 3.42210007 5.96260023 255 255 255 1313.000000
-1.99769998 3.43300009 5.95870018 255 255 255 1313.000000
-1.99820006 3.44449997 5.95559978 255 255 255 1345.000000
-2.00040007 3.45469999 5.95499992 255 255 255 1409.000000
-2.00510001 3.46399999 5.95800018 255 255 255 1345.000000
-2.01149988 3.47359991 5.96309996 255 255 255 1329.000000
-2.02090001 3.48200011 5.97249985 255 255 255 1153.000000
-2.03200006 3.48959994 5.98439980 255 255 255 1025.000000
-2.04719996 3.49699998 6.00159979 255 255 255 961.000000
-2.06809998 3.50189996 6.02699995 255 255 255 961.000000
-2.28679991 3.60439992 6.28049994 255 255 255 -959.000000
-2.31609988 3.60859990 6.31750011 255 255 255 113.000000
-2.32369995 3.61800003 6.32490015 255 255 255 1057.000000
-2.37100005 3.66520000 6.37470007 255 255 255 1505.000000
-2.59109998 3.73769999 6.64610004 255 255 255 913.000000
-1.74670005 1.12230003 7.04729986 255 255 255 145.000000
-1.78639996 1.58819997 6.71000004 255 255 255 929.000000
-3.29010010 0.95420003 8.78670025 255 255 255 593.000000
-3.22239995 1.49419999 8.35099983 255 255 255 -175.000000
-2.90440011 2.43959999 7.44560003 255 255 255 849.000000
-2.90849996 2.45190001 7.44449997 255 255 255 -927.000000
-2.03959990 3.36560011 6.00509977 255 255 255 913.000000
-2.01819992 3.38330007 5.97179985 255 255 255 1185.000000
-2.00939989 3.39700007 5.95599985 255 255 255 1073.000000
-2.00329995 3.40989995 5.94390011 255 255 255 1265.000000
-1.99940002 3.42210007 5.93480015 255 255 255 1265.000000
-1.99790001 3.43350005 5.92910004 255 255 255 1409.000000
-1.99720001 3.44540000 5.92420006 255 255 255 1313.000000
-1.99950004 3.45549989 5.92379999 255 255 255 1313.000000
-2.00390005 3.46490002 5.92649984 255 255 255 1393.000000
-2.01049995 3.47440004 5.93179989 255 255 255 1137.000000
-2.02049994 3.48270011 5.94189978 255 255 255 1313.000000
-2.03119993 3.49029994 5.95319986 255 255 255 1153.000000
-2.04500008 3.49819994 5.96840000 255 255 255 977.000000
-2.06240010 3.50399995 5.98890018 255 255 255 881.000000
-2.39459991 3.67179990 6.37190008 255 255 255 1537.000000
-2.44740009 3.69600010 6.43480015 255 255 255 1345.000000
-2.60560012 3.74810004 6.62949991 255 255 255 1073.000000
-1.79849994 1.57930005 6.69610023 255 255 255 -63.000000
-3.23510003 1.48730004 8.32800007 255 255 255 113.000000
-2.91450000 2.40540004 7.43739986 255 255 255 -2047.000000
-2.91950011 2.41849995 7.43690014 255 255 255 881.000000
-2.05329990 3.36190009 5.99370003 255 255 255 689.000000
-2.02279997 3.38240004 5.94820023 255 255 255 1057.000000
-2.01309991 3.39630008 5.93109989 255 255 255 1105.000000
-2.00419998 3.41009998 5.91520023 255 255 255 1393.000000
-1.99940002 3.42269993 5.90500021 255 255 255 1265.000000
-1.99740005 3.43409991 5.89860010 255 255 255 1425.000000
-1.99779999 3.44569993 5.89529991 255 255 255 1297.000000
-1.99880004 3.45619988 5.89319992 255 255 255 1105.000000
-2.00250006 3.46580005 5.89480019 255 255 255 1425.000000
-2.00970006 3.47519994 5.90100002 255 255 255 1233.000000
-2.01799989 3.48390007 5.90869999 255 255 255 1201.000000
-2.02940011 3.49130011 5.92089987 255 255 255 1089.000000
-2.04220009 3.49950004 5.93459988 255 255 255 929.000000
-2.05539989 3.50650001 5.94929981 255 255 255 865.000000
-2.08759999 3.50880003 5.98969984 255 255 255 -1295.000000
-2.53160000 3.72720003 6.50470018 255 255 255 1217.000000
-2.54660010 3.73600006 6.52239990 255 255 255 1377.000000
-2.56019998 3.74489999 6.53819990 255 255 255 1329.000000
-2.57579994 3.75449991 6.55639982 255 255 255 -735.000000
-2.61949992 3.75810003 6.61240005 255 255 255 673.000000
-1.75979996 1.12779999 6.98570013 255 255 255 -1455.000000
-1.80970001 1.57099998 6.68069983 255 255 255 369.000000
-3.24930000 1.47950006 8.30739975 255 255 255 977.000000
-2.92980003 2.38490009 7.42869997 255 255 255 -2047.000000
-2.93289995 2.39779997 7.42609978 255 255 255 1217.000000
-2.05809999 3.36100006 5.97020006 255 255 255 673.000000
-2.02719998 3.38159990 5.92430019 255 255 255 1249.000000
-2.01460004 3.39639997 5.90350008 255 255 255 1169.000000
-2.00460005 3.41050005 5.88619995 255 255 255 1281.000000
-1.99979997 3.42309999 5.87589979 255 255 255 1393.000000
-1.99890006 3.43420005 5.87120008 255 255 255 1121.000000
-1.99590003 3.44670010 5.86329985 255 255 255 1361.000000
-1.99670005 3.45729995 5.86089993 255 255 255 1313.000000
-2.00070000 3.46679997 5.86289978 255 255 255 1217.000000
-2.00589991 3.47679996 5.86619997 255 255 255 1201.000000
-2.01510000 3.48519993 5.87519979 255 255 255 1153.000000
-2.02259994 3.49379992 5.88210011 255 255 255 945.000000
-2.03570008 3.50180006 5.89620018 255 255 255 817.000000
-2.04979992 3.50850010 5.91200018 255 255 255 913.000000
-2.07229996 3.51349998 5.93909979 255 255 255 641.000000
-2.62879992 3.76869988 6.58930016 255 255 255 1185.000000
-2.64240003 3.77880001 6.60489988 255 255 255 1281.000000
-1.77170002 1.13479996 6.95669985 255 255 255 545.000000
-1.82299995 1.56110001 6.66890001 255 255 255 465.000000
-3.26370001 1.47160006 8.28709984 255 255 255 705.000000
-2.94370008 2.37919998 7.41109991 255 255 255 1201.000000
-2.05800009 3.36150002 5.94019985 255 255 255 881.000000
-2.03419995 3.37989998 5.90420008 255 255 255 1089.000000
-2.01719999 3.39610004 5.87750006 255 255 255 1153.000000
-2.00740004 3.41020012 5.86049986 255 255 255 1265.000000
-2.00029993 3.42339993 5.84730005 255 255 255 1345.000000
-1.99769998 3.43510008 5.84009981 255 255 255 1345.000000
-1.99549997 3.44740009 5.83330011 255 255 255 1265.000000
-1.99870002 3.45720005 5.83419991 255 255 255 1569.000000
-2.00060010 3.46729994 5.83339977 255 255 255 1617.000000
-2.00469995 3.47760010 5.83529997 255 255 255 1185.000000
-2.01110005 3.48690009 5.84040022 255 255 255 1249.000000
-2.01950002 3.49510002 5.84849977 255 255 255 1297.000000
-2.03209996 3.50329995 5.86180019 255 255 255 1057.000000
-2.04419994 3.51060009 5.87500000 255 255 255 881.000000
-2.06040001 3.51719999 5.89340019 255 255 255 977.000000
-1.77629995 1.13110006 6.92980003 255 255 255 705.000000
-1.58819997 1.54929996 6.40759993 255 255 255 769.000000
-1.83120000 1.55519998 6.64879990 255 255 255 -2047.000000
-3.33859992 1.05799997 8.59469986 255 255 255 417.000000
-3.28430009 1.46010005 8.27610016 255 255 255 -2047.000000
-2.06830001 2.46560001 6.30670023 255 255 255 225.000000
-2.94810009 2.36290002 7.38749981 255 255 255 801.000000
-2.96659994 2.36949992 7.40600014 255 255 255 -1295.000000
-2.06529999 3.35969996 5.92040014 255 255 255 785.000000
-2.04310012 3.37770009 5.88670015 255 255 255 1105.000000
-2.02099991 3.39549994 5.85319996 255 255 255 1249.000000
-2.00909996 3.41020012 5.83349991 255 255 255 1361.000000
-2.00169992 3.42350006 5.81990004 255 255 255 1409.000000
-1.99969995 3.43499994 5.81370020 255 255 255 1521.000000
-1.99899995 3.44679999 5.80900002 255 255 255 1553.000000
-1.99989998 3.45740008 5.80679989 255 255 255 1489.000000
-2.00239992 3.46729994 5.80670023 255 255 255 1313.000000
-2.00620008 3.47770000 5.80810022 255 255 255 1217.000000
-2.01149988 3.48720002 5.81190014 255 255 255 1425.000000
-2.02040005 3.49539995 5.82049990 255 255 255 1153.000000
-2.03290009 3.50359988 5.83370018 255 255 255 1217.000000
-2.04360008 3.51130009 5.84480000 255 255 255 1009.000000
-2.05929995 3.51810002 5.86240005 255 255 255 1137.000000
-1.76940000 1.12030005 6.89779997 255 255 255 209.000000
-1.58870006 1.51849997 6.40070009 255 255 255 -1007.000000
-1.83860004 1.53480005 6.63880014 255 255 255 737.000000
-3.00500011 0.73180002 8.43070030 255 255 255 -2047.000000
-3.36269999 1.06169999 8.57559967 255 255 255 497.000000
-2.10770011 2.52379990 6.28919983 255 255 255 1425.000000
-2.13339996 2.58859992 6.28480005 255 255 255 -335.000000
-2.13820004 2.59859991 6.28509998 255 255 255 -1807.000000
-3.52460003 2.35150003 8.03989983 255 255 255 -1615.000000
-2.05310011 3.37520003 5.87080002 255 255 255 1057.000000
-2.02329993 3.39529991 5.82719994 255 255 255 1313.000000
-2.01200008 3.40980005 5.80819988 255 255 255 1201.000000
-2.00480008 3.42309999 5.79500008 255 255 255 1569.000000
-2.00219989 3.43470001 5.78800011 255 255 255 1633.000000
-2.00060010 3.44689989 5.78219986 255 255 255 1505.000000
-2.00090003 3.45760012 5.77909994 255 255 255 1249.000000
-2.00340009 3.46749997 5.77909994 255 255 255 1233.000000
-2.00740004 3.47790003 5.78090000 255 255 255 1457.000000
-2.01309991 3.48729992 5.78499985 255 255 255 1137.000000
-2.02119994 3.49569988 5.79250002 255 255 255 1217.000000
-2.03379989 3.50379992 5.80569983 255 255 255 1009.000000
-2.04649997 3.51099992 5.81949997 255 255 255 1137.000000
-2.05839992 3.51880002 5.83199978 255 255 255 1089.000000
-2.07780004 3.52530003 5.85430002 255 255 255 577.000000
-2.85549998 3.85579991 6.76499987 255 255 255 1265.000000
-1.74919999 1.13859999 6.82959986 255 255 255 -703.000000
-1.60800004 1.50300002 6.40030003 255 255 255 -111.000000
-1.94589996 2.13330007 6.30429983 255 255 255 1265.000000
-1.96340001 2.16380000 6.30439997 255 255 255 1041.000000
-3.53699994 2.34710002 8.01659966 255 255 255 225.000000
-2.06150007 3.37310004 5.85270023 255 255 255 689.000000
-2.02740002 3.39450002 5.80359983 255 255 255 1057.000000
-2.01510000 3.40939999 5.78350019 255 255 255 1105.000000
-2.00640011 3.42309999 5.76830006 255 255 255 1441.000000
-2.00279999 3.43499994 5.76000023 255 255 255 1585.000000
-2.00099993 3.44720006 5.75390005 255 255 255 1425.000000
-2.00099993 3.45810008 5.75040007 255 255 255 1457.000000
-2.00250006 3.46830010 5.74910021 255 255 255 1345.000000
-2.00720000 3.47839999 5.75180006 255 255 255 1025.000000
-2.01220012 3.48799992 5.75500011 255 255 255 1345.000000
-2.02060008 3.49640012 5.76280022 255 255 255 1249.000000
-2.03220010 3.50480008 5.77479982 255 255 255 1057.000000
-2.04290009 3.51250005 5.78569984 255 255 255 1169.000000
-2.05929995 3.51909995 5.80420017 255 255 255 897.000000
-2.08369994 3.52419996 5.83309984 255 255 255 945.000000
-1.75109994 1.13720000 6.79879999 255 255 255 673.000000
-1.73169994 1.49559999 6.49639988 255 255 255 721.000000
-1.73740005 1.50610006 6.49399996 255 255 255 1185.000000
-1.74370003 1.51719999 6.49170017 255 255 255 1009.000000
-1.75039995 1.52709997 6.49100018 255 255 255 705.000000
-1.77479994 1.59959996 6.46089983 255 255 255 545.000000
-1.77839994 1.61179996 6.45539999 255 255 255 721.000000
-1.78219998 1.62469995 6.44980001 255 255 255 737.000000
-1.86249995 1.92019999 6.32320023 255 255 255 1057.000000
-1.92250001 2.05110002 6.30039978 255 255 255 1073.000000
-3.00099993 2.31049991 7.36530018 255 255 255 1105.000000
-2.09470010 3.36350012 5.86759996 255 255 255 1105.000000
-2.03250003 3.39350009 5.78140020 255 255 255 1121.000000
-2.01839995 3.40890002 5.75909996 255 255 255 993.000000
-2.00710011 3.42339993 5.74060011 255 255 255 1329.000000
-2.00180006 3.43580008 5.73010015 255 255 255 1425.000000
-2.00040007 3.44790006 5.72440004 255 255 255 1473.000000
-2.00130010 3.45849991 5.72219992 255 255 255 1361.000000
-2.00300002 3.46860003 5.72109985 255 255 255 1489.000000
-2.00550008 3.47939992 5.72090006 255 255 255 1217.000000
-2.01139998 3.48880005 5.72529984 255 255 255 1409.000000
-2.01749992 3.49769998 5.73010015 255 255 255 1217.000000
-2.03200006 3.50530005 5.74580002 255 255 255 1121.000000
-2.04349995 3.51279998 5.75780010 255 255 255 1201.000000
-2.05660009 3.52029991 5.77169991 255 255 255 1217.000000
-2.08430004 3.52460003 5.80480003 255 255 255 913.000000
-1.73319995 1.44749999 6.50269985 255 255 255 913.000000
-1.86590004 1.49839997 6.59549999 255 255 255 -895.000000
-1.92750001 2.00620008 6.30389977 255 255 255 673.000000
-3.31100011 1.41040003 8.17269993 255 255 255 81.000000
-2.25580001 2.81520009 6.22529984 255 255 255 801.000000
-2.06329989 3.37350011 5.79699993 255 255 255 -2047.000000
-2.03760004 3.39240003 5.75939989 255 255 255 1025.000000
-2.01679993 3.40980005 5.72840023 255 255 255 977.000000
-2.00710011 3.42389989 5.71199989 255 255 255 1393.000000
-2.00359988 3.43580008 5.70389986 255 255 255 1505.000000
-2.00029993 3.44840002 5.69589996 255 255 255 1489.000000
-2.00149989 3.45889997 5.69409990 255 255 255 1457.000000
-2.00219989 3.46939993 5.69169998 255 255 255 1441.000000
-2.00600004 3.47979999 5.69309998 255 255 255 1105.000000
-2.01049995 3.48950005 5.69570017 255 255 255 1249.000000
-2.01670003 3.49839997 5.70060015 255 255 255 1169.000000
-2.02819991 3.50690007 5.71220016 255 255 255 1153.000000
-2.03979993 3.51430011 5.72440004 255 255 255 1057.000000
-2.05399990 3.52150011 5.73969984 255 255 255 1169.000000
-2.07809997 3.52679992 5.76779985 255 255 255 1105.000000
-3.16520000 3.95359993 7.04160023 255 255 255 -1743.000000
-1.76830006 1.54460001 6.43179989 255 255 255 113.000000
-1.94959998 1.99240005 6.30530024 255 255 255 849.000000
-3.29979992 1.41750002 8.11579990 255 255 255 289.000000
-3.23650002 1.79970002 7.82460022 255 255 255 -783.000000
-3.22049999 1.82449996 7.79300022 255 255 255 -975.000000
-4.05200005 1.70739996 8.79430008 255 255 255 -335.000000
-3.01239991 2.24569988 7.33750010 255 255 255 737.000000
-3.01950002 2.25780010 7.33960009 255 255 255 417.000000
-2.04390001 3.39100003 5.73909998 255 255 255 1025.000000
-2.01830006 3.40989995 5.70200014 255 255 255 1105.000000
-2.00959992 3.42359996 5.68699980 255 255 255 1361.000000
-2.00440001 3.43600011 5.67670012 255 255 255 1409.000000
-2.00000000 3.44899988 5.66730022 255 255 255 1425.000000
-2.00009990 3.45980000 5.66400003 255 255 255 1201.000000
-2.00029993 3.47040009 5.66099977 255 255 255 1361.000000
-2.00359988 3.48090005 5.66179991 255 255 255 1281.000000
-2.00909996 3.49040008 5.66559982 255 255 255 1537.000000
-2.01570010 3.49920011 5.67100000 255 255 255 1089.000000
-2.02579999 3.50799990 5.68079996 255 255 255 1105.000000
-2.03550005 3.51600003 5.69040012 255 255 255 1217.000000
-2.05069995 3.52290010 5.70699978 255 255 255 1089.000000
-2.07130003 3.52909994 5.73029995 255 255 255 1073.000000
-3.19420004 3.95029998 7.04360008 255 255 255 -1583.000000
-1.77300000 1.54120004 6.40740013 255 255 255 1105.000000
-1.97070003 1.97920001 6.30509996 255 255 255 801.000000
-3.15540004 1.94130003 7.61889982 255 255 255 321.000000
-3.14420009 1.96290004 7.59480000 255 255 255 337.000000
-3.13809991 1.98169994 7.57810020 255 255 255 33.000000
-3.11689997 2.00889993 7.53999996 255 255 255 -111.000000
-3.67610002 1.85150003 8.25209999 255 255 255 97.000000
-4.06040001 1.70400000 8.76210022 255 255 255 481.000000
-3.01379991 2.21479988 7.31820011 255 255 255 -1711.000000
-3.02020001 2.22659993 7.31969976 255 255 255 993.000000
-2.31410003 2.88199997 6.20319986 255 255 255 1217.000000
-2.31769991 2.89330006 6.20260000 255 255 255 1089.000000
-2.32529998 2.90269995 6.20760012 255 255 255 -383.000000
-2.04310012 3.39170003 5.70959997 255 255 255 1105.000000
-2.02160001 3.40939999 5.67799997 255 255 255 1217.000000
-2.01079988 3.42370009 5.66039991 255 255 255 1345.000000
-2.00500011 3.43639994 5.64930010 255 255 255 1441.000000
-2.00029993 3.44939995 5.63950014 255 255 255 1473.000000
-1.99969995 3.46040010 5.63539982 255 255 255 1569.000000
-2.00090003 3.47070003 5.63380003 255 255 255 1505.000000
-2.00359988 3.48140001 5.63369989 255 255 255 1473.000000
-2.00780010 3.49119997 5.63590002 255 255 255 1265.000000
-2.01489997 3.49990010 5.64190006 255 255 255 1249.000000
-2.02390003 3.50900006 5.65019989 255 255 255 1329.000000
-2.03360009 3.51699996 5.65959978 255 255 255 1153.000000
-2.04660010 3.52449989 5.67329979 255 255 255 1089.000000
-2.06590009 3.53099990 5.69500017 255 255 255 1041.000000
-1.98860002 1.96809995 6.30000019 255 255 255 1073.000000
-3.31769991 1.80850005 7.83279991 255 255 255 737.000000
-3.32349992 1.82229996 7.83179998 255 255 255 33.000000
-3.13369989 1.98440003 7.53450012 255 255 255 -431.000000
-3.13100004 2.00239992 7.52209997 255 255 255 257.000000
-3.11849999 2.02410007 7.49679995 255 255 255 513.000000
-3.10879993 2.04480004 7.47510004 255 255 255 113.000000
-3.68000007 1.85020006 8.21640015 255 255 255 -1375.000000
-3.00460005 2.21970010 7.26929998 255 255 255 81.000000
-2.92890000 2.28550005 7.15119982 255 255 255 -15.000000
-2.91339993 2.30769992 7.12279987 255 255 255 81.000000
-2.88520002 2.35019994 7.07019997 255 255 255 -543.000000
-2.87100005 2.37140012 7.04390001 255 255 255 -383.000000
-2.85719991 2.39199996 7.01830006 255 255 255 -959.000000
-3.51580000 2.17880011 7.87120008 255 255 255 -655.000000
-2.32890010 2.91479993 6.17619991 255 255 255 1425.000000
-2.31929994 2.90140009 6.19129992 255 255 255 1137.000000
-2.31999993 2.91420007 6.18680000 255 255 255 1265.000000
-2.04800010 3.39070010 5.68769979 255 255 255 993.000000
-2.02290010 3.40949988 5.65159988 255 255 255 1201.000000
-2.01200008 3.42379999 5.63390017 255 255 255 1361.000000
-2.00749993 3.43610001 5.62459993 255 255 255 1425.000000
-2.00300002 3.44910002 5.61509991 255 255 255 1569.000000
-2.00139999 3.46040010 5.60970020 255 255 255 1489.000000
-2.00099993 3.47119999 5.60589981 255 255 255 1281.000000
-2.00349998 3.48189998 5.60580015 255 255 255 1393.000000
-2.00850010 3.49149990 5.60879993 255 255 255 1313.000000
-2.01410007 3.50060010 5.61299992 255 255 255 1217.000000
-2.02390003 3.50950003 5.62230015 255 255 255 1201.000000
-2.03239989 3.51780009 5.63009977 255 255 255 1057.000000
-2.04539990 3.52530003 5.64359999 255 255 255 1185.000000
-2.06290007 3.53230000 5.66289997 255 255 255 1089.000000
-2.08829999 3.53620005 5.69259977 255 255 255 801.000000
-1.94140005 1.45799994 6.57040024 255 255 255 97.000000
-2.00629997 1.95700002 6.29470015 255 255 255 1169.000000
-3.36159992 1.83739996 7.82740021 255 255 255 1057.000000
-3.36949992 1.85000002 7.82950020 255 255 255 49.000000
-3.10120010 2.06529999 7.41940022 255 255 255 1.000000
-3.02309990 2.16540003 7.28130007 255 255 255 -31.000000
-3.00430012 2.18910003 7.24840021 255 255 255 161.000000
-2.98920012 2.21199989 7.21999979 255 255 255 353.000000
-2.97180009 2.23559999 7.18889999 255 255 255 33.000000
-2.95779991 2.25670004 7.16270018 255 255 255 65.000000
-2.94610000 2.27800012 7.13920021 255 255 255 -95.000000
-2.92540002 2.30270004 7.10379982 255 255 255 -47.000000
-2.90969992 2.32430005 7.07560015 255 255 255 17.000000
-2.89420009 2.34660006 7.04740000 255 255 255 161.000000
-2.88360000 2.36619997 7.02610016 255 255 255 337.000000
-2.86630011 2.38840008 6.99580002 255 255 255 225.000000
-2.83629990 2.41689992 6.94840002 255 255 255 337.000000
-2.81299996 2.44180012 6.91020012 255 255 255 481.000000
-2.78719997 2.46720004 6.86910009 255 255 255 433.000000
-2.77189994 2.48880005 6.84170008 255 255 255 385.000000
-2.76209998 2.50760007 6.82180023 255 255 255 385.000000
-2.33649993 2.92470002 6.15080023 255 255 255 -735.000000
-2.33909988 2.93630004 6.14900017 255 255 255 1537.000000
-2.34030008 2.94869995 6.14550018 255 255 255 881.000000
-2.32979989 2.92330003 6.16400003 255 255 255 817.000000
-2.32820010 2.93639994 6.15679979 255 255 255 1521.000000
-2.80890012 2.95930004 6.71250010 255 255 255 -1439.000000
-2.05060005 3.39039993 5.66300011 255 255 255 865.000000
-2.02959991 3.40799999 5.63229990 255 255 255 1041.000000
-2.01510000 3.42339993 5.61000013 255 255 255 881.000000
-2.00850010 3.43630004 5.59810019 255 255 255 1361.000000
-2.00359988 3.44939995 5.58809996 255 255 255 1585.000000
-2.00219989 3.46059990 5.58300018 255 255 255 1521.000000
-2.00239992 3.47119999 5.57999992 255 255 255 1505.000000
-2.00379992 3.48230004 5.57840014 255 255 255 1489.000000
-2.00769997 3.49219990 5.58010006 255 255 255 1361.000000
-2.01349998 3.50130010 5.58440018 255 255 255 1393.000000
-2.02220011 3.51049995 5.59219980 255 255 255 1041.000000
-2.03200006 3.51839995 5.60179996 255 255 255 1121.000000
-2.04340005 3.52629995 5.61320019 255 255 255 1217.000000
-2.05879998 3.53390002 5.62970018 255 255 255 1009.000000
-2.08240008 3.53830004 5.65689993 255 255 255 993.000000
-1.85440004 1.31770003 6.55819988 255 255 255 881.000000
-1.78610003 1.54709995 6.32210016 255 255 255 689.000000
-1.95860004 1.44509995 6.56440020 255 255 255 945.000000
-2.02250004 1.94700003 6.28709984 255 255 255 897.000000
-3.63879991 1.64339995 8.19680023 255 255 255 -2047.000000
-3.05890012 2.14870000 7.29390001 255 255 255 385.000000
-2.76500010 2.50679994 6.79199982 255 255 255 481.000000
-2.74889994 2.52749991 6.76420021 255 255 255 625.000000
-2.74110007 2.54550004 6.74730015 255 255 255 369.000000
-2.66770005 2.79769993 6.55499983 255 255 255 945.000000
-2.34929991 2.94580007 6.12690020 255 255 255 817.000000
-2.34809995 2.95880008 6.12029982 255 255 255 1537.000000
-2.34999990 2.97049999 6.11789989 255 255 255 -127.000000
-2.33850002 2.94600010 6.13450003 255 255 255 929.000000
-2.33719993 2.95880008 6.12779999 255 255 255 1441.000000
-2.07019997 3.38499999 5.66020012 255 255 255 273.000000
-2.03430009 3.40700006 5.61049986 255 255 255 1009.000000
-2.01789999 3.42300010 5.58599997 255 255 255 1281.000000
-2.01110005 3.43600011 5.57380009 255 255 255 1489.000000
-2.00550008 3.44930005 5.56300020 255 255 255 1553.000000
-2.00279999 3.46090007 5.55630016 255 255 255 1569.000000
-2.00270009 3.47160006 5.55299997 255 255 255 1505.000000
-2.00430012 3.48259997 5.55149984 255 255 255 1313.000000
-2.00830007 3.49250007 5.55340004 255 255 255 1249.000000
-2.01370001 3.50169992 5.55719995 255 255 255 1169.000000
-2.02139997 3.51119995 5.56370020 255 255 255 1057.000000
-2.03040004 3.51929998 5.57210016 255 255 255 1185.000000
-2.04270005 3.52699995 5.58459997 255 255 255 1233.000000
-2.05609989 3.53509998 5.59849977 255 255 255 1121.000000
-2.07439995 3.54089999 5.61889982 255 255 255 1009.000000
-1.86640000 1.30809999 6.54460001 255 255 255 -1279.000000
-2.10190010 1.88080001 6.38030005 255 255 255 -543.000000
-2.03730011 1.93789995 6.27750015 255 255 255 17.000000
-3.47909999 1.98130000 7.80779982 255 255 255 385.000000
-3.48679996 1.99450004 7.80999994 255 255 255 929.000000
-3.49519992 2.00659990 7.81330013 255 255 255 817.000000
-3.53369999 2.05629992 7.83260012 255 255 255 625.000000
-3.55209994 2.06459999 7.84940004 255 255 255 -1999.000000
-3.60179996 2.12599993 7.87680006 255 255 255 -927.000000
-2.74489999 2.54430008 6.71899986 255 255 255 481.000000
-2.72519994 2.56690001 6.68660021 255 255 255 593.000000
-2.70460010 2.58909988 6.65339994 255 255 255 417.000000
-2.68880010 2.61019993 6.62620020 255 255 255 593.000000
-2.67569995 2.62989998 6.60260010 255 255 255 497.000000
-2.65190005 2.66759992 6.55919981 255 255 255 657.000000
-2.62700009 2.70510006 6.51469994 255 255 255 -1615.000000
-2.35739994 2.96819997 6.09740019 255 255 255 1409.000000
-2.35759997 2.98110008 6.09259987 255 255 255 1345.000000
-2.62529993 2.78320003 6.50139999 255 255 255 449.000000
-2.34770012 2.96799994 6.10629988 255 255 255 1345.000000
-2.34960008 2.98029995 6.10370016 255 255 255 1169.000000
-2.04460001 3.40440011 5.59600019 255 255 255 1153.000000
-2.02099991 3.42260003 5.56230021 255 255 255 1169.000000
-2.01259995 3.43600011 5.54820013 255 255 255 1393.000000
-2.00650001 3.44950008 5.53679991 255 255 255 1489.000000
-2.00469995 3.46090007 5.53119993 255 255 255 1441.000000
-2.00489998 3.47140002 5.52839994 255 255 255 1201.000000
-2.00589991 3.48270011 5.52619982 255 255 255 1073.000000
-2.00860000 3.49289989 5.52629995 255 255 255 1233.000000
-2.01449990 3.50189996 5.53070021 255 255 255 1041.000000
-2.02200007 3.51149988 5.53700018 255 255 255 1025.000000
-2.02909994 3.52010012 5.54290009 255 255 255 1249.000000
-2.04299998 3.52740002 5.55749989 255 255 255 801.000000
-2.05460000 3.53600001 5.56890011 255 255 255 961.000000
-2.07200003 3.54200006 5.58809996 255 255 255 1073.000000
-2.05469990 1.92709994 6.27150011 255 255 255 -495.000000
-3.73429990 1.61310005 8.23639965 255 255 255 -367.000000
-4.11450005 1.66219997 8.62880039 255 255 255 529.000000
-3.63389993 2.11249995 7.88030005 255 255 255 -2047.000000
-2.69790006 2.62109995 6.59919977 255 255 255 289.000000
-2.67680001 2.64330006 6.56570005 255 255 255 561.000000
-2.65580010 2.66650009 6.53189993 255 255 255 1041.000000
-2.63599992 2.68840003 6.50010014 255 255 255 913.000000
-2.62109995 2.70790005 6.47489977 255 255 255 801.000000
-2.60669994 2.72799993 6.44999981 255 255 255 577.000000
-2.59410000 2.74650002 6.42789984 255 255 255 769.000000
-2.58240008 2.76440001 6.40710020 255 255 255 945.000000
-2.56940007 2.78320003 6.38460016 255 255 255 753.000000
-2.55839992 2.80089998 6.36479998 255 255 255 273.000000
-2.55360007 2.81590009 6.35309982 255 255 255 417.000000
-2.54169989 2.83410001 6.33220005 255 255 255 -1343.000000
-2.76690006 2.78839993 6.60820007 255 255 255 -415.000000
-2.36610007 2.96539998 6.07870007 255 255 255 -383.000000
-2.36919999 2.97729993 6.07760000 255 255 255 513.000000
-2.56030011 2.80909991 6.38439989 255 255 255 465.000000
-2.35940003 2.96409988 6.09140015 255 255 255 -591.000000
-2.35770011 2.97779989 6.08409977 255 255 255 961.000000
-2.35750008 2.99009991 6.07900000 255 255 255 1393.000000
-2.36680007 2.99920011 6.08620024 255 255 255 -799.000000
-2.05550003 3.40159988 5.58220005 255 255 255 1089.000000
-2.02390003 3.42219996 5.53859997 255 255 255 1169.000000
-2.01329994 3.43630004 5.52169991 255 255 255 1297.000000
-2.00720000 3.44980001 5.51049995 255 255 255 1505.000000
-2.00440001 3.46140003 5.50369978 255 255 255 1537.000000
-2.00359988 3.47230005 5.49949980 255 255 255 1345.000000
-2.00679994 3.48289990 5.50010014 255 255 255 1265.000000
-2.00889993 3.49329996 5.49949980 255 255 255 1409.000000
-2.01399994 3.50250006 5.50290012 255 255 255 1329.000000
-2.02099991 3.51220012 5.50850010 255 255 255 1169.000000
-2.02859998 3.52069998 5.51499987 255 255 255 1409.000000
-2.04119992 3.52839994 5.52790022 255 255 255 1153.000000
-2.05469990 3.53640008 5.54160023 255 255 255 1233.000000
-2.06859994 3.54340005 5.55620003 255 255 255 1025.000000
-2.09559989 3.54699993 5.58729982 255 255 255 -1087.000000
-2.12299991 1.88349998 6.33809996 255 255 255 385.000000
-2.07579994 1.92789996 6.26200008 255 255 255 17.000000
-2.56559992 2.79850006 6.34270000 255 255 255 1089.000000
-2.54670000 2.81900001 6.31290007 255 255 255 753.000000
-2.53439999 2.83739996 6.29150009 255 255 255 849.000000
-2.52719998 2.85319996 6.27699995 255 255 255 657.000000
-2.52659988 2.86640000 6.27110004 255 255 255 449.000000
-2.54229999 2.81669998 6.32940006 255 255 255 785.000000
-2.53230000 2.83430004 6.31090021 255 255 255 769.000000
-2.52719998 2.84920001 6.29899979 255 255 255 737.000000
-2.53160000 2.86050010 6.29960012 255 255 255 33.000000
-2.35529995 2.97919989 6.05089998 255 255 255 -175.000000
-2.36199999 2.98889995 6.05480003 255 255 255 -1263.000000
-2.36560011 3.00009990 6.05469990 255 255 255 945.000000
-2.37280011 3.01049995 6.05900002 255 255 255 241.000000
-2.58710003 3.16720009 6.25220013 255 255 255 -79.000000
-2.06049991 3.40059996 5.56110001 255 255 255 625.000000
-2.02800012 3.42149997 5.51660013 255 255 255 945.000000
-2.01449990 3.43639994 5.49609995 255 255 255 1457.000000
-2.00839996 3.44989991 5.48490000 255 255 255 1425.000000
-2.00600004 3.46140003 5.47860003 255 255 255 1585.000000
-2.00530005 3.47230005 5.47459984 255 255 255 1457.000000
-2.00629997 3.48350000 5.47240019 255 255 255 1393.000000
-2.00929999 3.49370003 5.47300005 255 255 255 1521.000000
-2.01320004 3.50320005 5.47489977 255 255 255 1361.000000
-2.02010012 3.51300001 5.48010015 255 255 255 1281.000000
-2.02940011 3.52099991 5.48890018 255 255 255 1121.000000
-2.03959990 3.52929997 5.49860001 255 255 255 1185.000000
-2.05290008 3.53740001 5.51210022 255 255 255 1217.000000
-2.06739998 3.54419994 5.52740002 255 255 255 1105.000000
-2.09579992 3.54749990 5.56020021 255 255 255 113.000000
-4.22809982 1.96360004 8.53160000 255 255 255 145.000000
-2.55130005 2.83130002 6.28240013 255 255 255 913.000000
-2.53029990 2.85240006 6.25010014 255 255 255 1153.000000
-2.51580000 2.87100005 6.22639990 255 255 255 897.000000
-2.50239992 2.88949990 6.20389986 255 255 255 801.000000
-2.48810005 2.90790009 6.18050003 255 255 255 673.000000
-2.44829988 2.94880009 6.11929989 255 255 255 817.000000
-2.56719995 2.80739999 6.33050013 255 255 255 -2047.000000
-2.53780007 2.83270001 6.28690004 255 255 255 993.000000
-2.52160001 2.85190010 6.26070023 255 255 255 1041.000000
-2.51209998 2.86849999 6.24340010 255 255 255 1041.000000
-2.50539994 2.88459992 6.22930002 255 255 255 897.000000
-2.49550009 2.90109992 6.21159983 255 255 255 641.000000
-2.47469997 2.92190003 6.17969990 255 255 255 -175.000000
-2.43510008 2.95009995 6.12360001 255 255 255 -1311.000000
-2.37039995 2.99889994 6.03100014 255 255 255 305.000000
-2.36139989 3.01510000 6.01459980 255 255 255 369.000000
-2.35470009 3.02979994 6.00129986 255 255 255 449.000000
-2.34389997 3.04620004 5.98290014 255 255 255 465.000000
-2.33590007 3.06189990 5.96789980 255 255 255 625.000000
-2.33509994 3.07439995 5.96239996 255 255 255 401.000000
-2.02870011 3.42170000 5.49030018 255 255 255 1105.000000
-2.01580000 3.43650007 5.47079992 255 255 255 1409.000000
-2.01040006 3.44980001 5.46049976 255 255 255 1617.000000
-2.00629997 3.46180010 5.45200014 255 255 255 1377.000000
-2.00550008 3.47270012 5.44789982 255 255 255 1441.000000
-2.00679994 3.48379993 5.44610023 255 255 255 1345.000000
-2.00880003 3.49429989 5.44549990 255 255 255 1505.000000
-2.01279998 3.50379992 5.44740009 255 255 255 1233.000000
-2.01970005 3.51349998 5.45270014 255 255 255 1217.000000
-2.02629995 3.52230000 5.45800018 255 255 255 1233.000000
-2.03760004 3.53029990 5.46910000 255 255 255 977.000000
-2.05110002 3.53830004 5.48280001 255 255 255 1265.000000
-2.06660008 3.54489994 5.49919987 255 255 255 1121.000000
-2.09170008 3.54900002 5.52769995 255 255 255 881.000000
-4.14319992 1.61360002 8.55739975 255 255 255 577.000000
-2.52220011 2.86899996 6.20400000 255 255 255 -863.000000
-2.51449990 2.88540006 6.18900013 255 255 255 1041.000000
-2.49589992 2.90540004 6.16020012 255 255 255 945.000000
-2.47410011 2.92639995 6.12739992 255 255 255 865.000000
-2.44970012 2.94869995 6.09119987 255 255 255 753.000000
-2.52620006 2.86360002 6.23070002 255 255 255 673.000000
-2.50720000 2.88439989 6.20090008 255 255 255 961.000000
-2.48729992 2.90470004 6.17040014 255 255 255 913.000000
-2.46819997 2.92490005 6.14090014 255 255 255 721.000000
-2.44639993 2.94630003 6.10799980 255 255 255 865.000000
-2.41779995 2.96930003 6.06669998 255 255 255 737.000000
-2.39510012 2.99029994 6.03280020 255 255 255 545.000000
-2.37930012 3.00909996 6.00769997 255 255 255 625.000000
-2.36739993 3.02570009 5.98799992 255 255 255 609.000000
-2.34629989 3.04579997 5.95650005 255 255 255 1137.000000
-2.33279991 3.06340003 5.93459988 255 255 255 401.000000
-2.31820011 3.08089995 5.91149998 255 255 255 497.000000
-2.30699992 3.09719992 5.89270020 255 255 255 769.000000
-2.30390000 3.11100006 5.88430023 255 255 255 433.000000
-2.06940007 3.39890003 5.51779985 255 255 255 -303.000000
-2.03360009 3.42079997 5.46939993 255 255 255 1041.000000
-2.01920009 3.43589997 5.44820023 255 255 255 1361.000000
-2.01139998 3.44989991 5.43489981 255 255 255 1473.000000
-2.00729990 3.46199989 5.42649984 255 255 255 1713.000000
-2.00629997 3.47289991 5.42210007 255 255 255 1441.000000
-2.00740004 3.48410010 5.42010021 255 255 255 1473.000000
-2.00839996 3.49480009 5.41830015 255 255 255 1425.000000
-2.01230001 3.50440001 5.42000008 255 255 255 1377.000000
-2.01959991 3.51399994 5.42579985 255 255 255 1297.000000
-2.02570009 3.52290010 5.43050003 255 255 255 833.000000
-2.03620005 3.53110003 5.44049978 255 255 255 865.000000
-2.04830003 3.53959990 5.45230007 255 255 255 1201.000000
-2.06290007 3.54629993 5.46759987 255 255 255 1153.000000
-2.08850002 3.55029988 5.49660015 255 255 255 1025.000000
-2.51749992 2.90689993 6.17360020 255 255 255 -2047.000000
-2.44860005 2.97119999 6.07119989 255 255 255 -447.000000
-2.48079991 2.97270012 6.10710001 255 255 255 -1503.000000
-2.47189999 2.98860002 6.09110022 255 255 255 881.000000
-2.32789993 3.06570005 5.89919996 255 255 255 -2047.000000
-2.32890010 3.07760000 5.89599991 255 255 255 737.000000
-2.30189991 3.09949994 5.85739994 255 255 255 513.000000
-2.28230000 3.11899996 5.82800007 255 255 255 673.000000
-2.27180004 3.13450003 5.81059980 255 255 255 705.000000
-2.26670003 3.14820004 5.79990005 255 255 255 609.000000
-2.27150011 3.15939999 5.80149984 255 255 255 -463.000000
-2.05629992 3.40330005 5.47429991 255 255 255 -2047.000000
-2.03690004 3.42020011 5.44670010 255 255 255 1137.000000
-2.02239990 3.43549991 5.42539978 255 255 255 1089.000000
-2.01290011 3.45000005 5.40999985 255 255 255 1377.000000
-2.00729990 3.46239996 5.39989996 255 255 255 1473.000000
-2.00710011 3.47309995 5.39659977 255 255 255 1361.000000
-2.00729990 3.48460007 5.39340019 255 255 255 1313.000000
-2.00970006 3.49489999 5.39330006 255 255 255 1633.000000
-2.01200008 3.50500011 5.39309978 255 255 255 1425.000000
-2.01799989 3.51489997 5.39729977 255 255 255 1313.000000
-2.02579999 3.52340007 5.40390015 255 255 255 1217.000000
-2.03559995 3.53180003 5.41309977 255 255 255 1265.000000
-2.04839993 3.53999996 5.42579985 255 255 255 1169.000000
-2.06069994 3.54740000 5.43809986 255 255 255 977.000000
-2.08470011 3.55180001 5.46490002 255 255 255 945.000000
-2.14260006 1.90170002 6.22410011 255 255 255 113.000000
-2.26810002 3.13619995 5.77750015 255 255 255 849.000000
-2.25300002 3.15339994 5.75419998 255 255 255 1105.000000
-2.25040007 3.16700006 5.74660015 255 255 255 865.000000
-2.24499989 3.18059993 5.73579979 255 255 255 737.000000
-2.04180002 3.41919994 5.42609978 255 255 255 1249.000000
-2.02430010 3.43540001 5.40119982 255 255 255 945.000000
-2.01419997 3.45009995 5.38509989 255 255 255 1505.000000
-2.01020002 3.46199989 5.37699986 255 255 255 1457.000000
-2.00720000 3.47359991 5.37020016 255 255 255 1601.000000
-2.00790000 3.48490000 5.36770010 255 255 255 1553.000000
-2.01020002 3.49530005 5.36740017 255 255 255 1617.000000
-2.01189995 3.50539994 5.36649990 255 255 255 1441.000000
-2.01699996 3.51559997 5.36959982 255 255 255 1201.000000
-2.02340007 3.52449989 5.37459993 255 255 255 1169.000000
-2.03299999 3.53290009 5.38329983 255 255 255 1297.000000
-2.04609990 3.54110003 5.39639997 255 255 255 1185.000000
-2.05830002 3.54850006 5.40850019 255 255 255 1089.000000
-2.08089995 3.55329990 5.43349981 255 255 255 1025.000000
-1.90030003 1.07959998 6.52400017 255 255 255 -495.000000
-2.16429996 1.90339994 6.21449995 255 255 255 849.000000
-2.31200004 3.12159991 5.80399990 255 255 255 -1855.000000
-2.26480007 3.14980006 5.74079990 255 255 255 769.000000
-2.25029993 3.16750002 5.71829987 255 255 255 1025.000000
