-5.62949991 -5.81510019 1.15419996 183 183 183 881.000000
-5.56669998 -5.80170012 1.16569996 197 197 197 1105.000000
-5.52530003 -5.76910019 1.17789996 184 184 184 897.000000
-5.91009998 -5.57700014 1.14830005 175 175 175 753.000000
-5.90819979 -5.60109997 1.14370000 160 160 160 513.000000
-5.90630007 -5.62720013 1.13870001 156 156 156 449.000000
-5.88140011 -5.67059994 1.13320005 165 165 165 593.000000
-5.89239979 -5.71530008 1.12279999 183 183 183 881.000000
-5.88439989 -5.72879982 1.12119997 198 198 198 1121.000000
-5.87510014 -5.74179983 1.11979997 176 176 176 769.000000
-5.86549997 -5.75309992 1.11880004 190 190 190 993.000000
-5.85739994 -5.76700020 1.11710000 170 170 170 673.000000
-5.84679985 -5.77759981 1.11640000 167 167 167 625.000000
-5.83879995 -5.79090023 1.11489999 149 149 149 337.000000
-5.80130005 -5.78649998 1.12070000 163 163 163 561.000000
-5.80179977 -5.81379986 1.11530006 165 165 165 593.000000
-5.78910017 -5.81920004 1.11600006 188 188 188 961.000000
-5.77479982 -5.82460022 1.11679995 198 198 198 1121.000000
-5.75950003 -5.82760000 1.11829996 174 174 174 737.000000
-5.72499990 -5.82740021 1.12310004 170 170 170 673.000000
-5.70779991 -5.82779980 1.12530005 186 186 186 929.000000
-5.68959999 -5.82550001 1.12829995 176 176 176 769.000000
-5.66820002 -5.82100010 1.13209999 183 183 183 881.000000
-5.64809990 -5.81689978 1.13569999 178 178 178 801.000000
-5.62989998 -5.81580019 1.13839996 170 170 170 673.000000
-5.58990002 -5.80989981 1.14520001 199 199 199 1137.000000
-5.56680012 -5.80200005 1.14989996 185 185 185 913.000000
-5.52269983 -5.76569986 1.16310000 167 167 167 625.000000
-5.89830017 -5.52869987 1.14370000 89 89 89 -623.000000
-5.90939999 -5.57590008 1.13290000 182 182 182 865.000000
-5.90889978 -5.60239983 1.12769997 148 148 148 321.000000
-5.90719986 -5.62879992 1.12259996 157 157 157 465.000000
-5.89270020 -5.71600008 1.10720003 181 181 181 849.000000
-5.88390017 -5.72809982 1.10599995 192 192 192 1025.000000
-5.87470007 -5.74139977 1.10459995 168 168 168 641.000000
-5.86649990 -5.75479984 1.10300004 176 176 176 769.000000
-5.85720015 -5.76679993 1.10189998 177 177 177 785.000000
-5.84609985 -5.77659988 1.10140002 173 173 173 721.000000
-5.83930016 -5.79190016 1.09930003 154 154 154 417.000000
-5.81379986 -5.80579996 1.09990001 161 161 161 529.000000
-5.80119991 -5.81300020 1.10020006 170 170 170 673.000000
-5.78840017 -5.81829977 1.10090005 192 192 192 1025.000000
-5.77379990 -5.82329988 1.10189998 193 193 193 1041.000000
-5.75649977 -5.82320023 1.10420001 171 171 171 689.000000
-5.67700005 -5.80719995 1.11800003 184 184 184 897.000000
-5.64890003 -5.79300022 1.12460005 175 175 175 753.000000
-5.61870003 -5.77440023 1.13230002 166 166 166 609.000000
-5.90199995 -5.53499985 1.12609994 111 111 111 -271.000000
-5.91050005 -5.57779980 1.11670005 182 182 182 865.000000
-5.90950012 -5.60360003 1.11170006 153 153 153 401.000000
-5.90829992 -5.63070011 1.10660005 157 157 157 465.000000
-5.56050014 -5.79339981 1.12100005 200 200 200 1153.000000
-5.90740013 -5.54409981 1.10790002 112 112 112 -255.000000
-5.91149998 -5.57969999 1.10049999 189 189 189 977.000000
-5.90959978 -5.60389996 1.09599996 156 156 156 449.000000
-5.90819979 -5.63070011 1.09099996 148 148 148 321.000000
-5.80789995 -5.79710007 1.07169998 156 156 156 449.000000
-5.79839993 -5.80910015 1.07070005 168 168 168 641.000000
-5.78900003 -5.81939983 1.06990004 177 177 177 785.000000
-5.77390003 -5.82380009 1.07110000 204 204 204 1217.000000
-5.74380016 -5.82919979 1.07400000 176 176 176 769.000000
-5.72620010 -5.82959986 1.07630002 201 201 201 1169.000000
-5.69220018 -5.82980013 1.08080006 172 172 172 705.000000
-5.66769981 -5.82070017 1.08570004 183 183 183 881.000000
-5.64720011 -5.81610012 1.08930004 183 183 183 881.000000
-5.62890005 -5.81489992 1.09200001 178 178 178 801.000000
-5.60979986 -5.81370020 1.09480000 160 160 160 513.000000
-5.56440020 -5.79909992 1.10370004 178 178 178 801.000000
-5.51749992 -5.75869989 1.11759996 98 98 98 -479.000000
-5.90560007 -5.54120016 1.09300005 150 150 150 353.000000
-5.91340017 -5.58279991 1.08399999 180 180 180 833.000000
-5.91099977 -5.60629988 1.07980001 158 158 158 481.000000
-5.90819979 -5.63079977 1.07539999 149 149 149 337.000000
-5.89410019 -5.69140005 1.06560004 163 163 163 561.000000
-5.89659977 -5.72259998 1.05929995 134 134 134 97.000000
-5.88560009 -5.73129988 1.05900002 157 157 157 465.000000
-5.87629986 -5.74429989 1.05770004 171 171 171 689.000000
-5.86689997 -5.75589991 1.05669999 153 153 153 401.000000
-5.85790014 -5.76819992 1.05550003 185 185 185 913.000000
-5.82670021 -5.79920006 1.05359995 196 196 196 1089.000000
-5.81529999 -5.80849981 1.05330002 162 162 162 545.000000
-5.80319977 -5.81640005 1.05340004 199 199 199 1137.000000
-5.78989983 -5.82100010 1.05420005 165 165 165 593.000000
-5.77460003 -5.82490015 1.05550003 187 187 187 945.000000
-5.75950003 -5.82810020 1.05680001 177 177 177 785.000000
-5.74399996 -5.82969999 1.05859995 179 179 179 817.000000
-5.72580004 -5.82900000 1.06110001 193 193 193 1041.000000
-5.66739988 -5.82049990 1.07040000 143 143 143 241.000000
-5.64779997 -5.81699991 1.07360005 175 175 175 753.000000
-5.62869978 -5.81470013 1.07659996 172 172 172 705.000000
-5.60979986 -5.81389999 1.07920003 181 181 181 849.000000
-5.56529999 -5.80060005 1.08770001 171 171 171 689.000000
-5.52470016 -5.76910019 1.09889996 56 56 56 -1151.000000
-5.90539980 -5.54099989 1.07729995 167 167 167 625.000000
-5.91410017 -5.58409977 1.06809998 175 175 175 753.000000
-5.91289997 -5.60939980 1.06340003 157 157 157 465.000000
-5.90910006 -5.63240004 1.05949998 160 160 160 513.000000
-5.90000010 -5.70120001 1.04760003 187 187 187 945.000000
-5.89550018 -5.72079992 1.04449999 163 163 163 561.000000
-5.88570023 -5.73150015 1.04369998 176 176 176 769.000000
-5.87639999 -5.74440002 1.04240000 164 164 164 577.000000
-5.86719990 -5.75640011 1.04130006 159 159 159 497.000000
-5.83839989 -5.79099989 1.03840005 175 175 175 753.000000
-5.82690001 -5.79960012 1.03820002 204 204 204 1217.000000
-5.81549978 -5.80900002 1.03789997 151 151 151 369.000000
-5.80299997 -5.81640005 1.03820002 191 191 191 1009.000000
-5.78989983 -5.82110023 1.03900003 170 170 170 673.000000
-5.77510023 -5.82579994 1.03999996 172 172 172 705.000000
-5.75880003 -5.82730007 1.04180002 178 178 178 801.000000
-5.74319983 -5.82859993 1.04349995 175 175 175 753.000000
-5.72620010 -5.82980013 1.04550004 183 183 183 881.000000
-5.70709991 -5.82740021 1.04849994 179 179 179 817.000000
-5.64860010 -5.81839991 1.05780005 152 152 152 385.000000
-5.63140011 -5.81879997 1.05990005 157 157 157 465.000000
-5.60799980 -5.81150007 1.06439996 177 177 177 785.000000
-5.56379986 -5.79860020 1.07260001 179 179 179 817.000000
-5.90710020 -5.54400015 1.06089997 163 163 163 561.000000
-5.91550016 -5.58669996 1.05180001 171 171 171 689.000000
-5.91309977 -5.60990000 1.04779994 157 157 157 465.000000
-5.90700006 -5.62909985 1.04489994 157 157 157 465.000000
-5.90010023 -5.70130014 1.03219998 159 159 159 497.000000
-5.89499998 -5.72020006 1.02929997 165 165 165 593.000000
-5.88509989 -5.73080015 1.02859998 163 163 163 561.000000
-5.87699986 -5.74550009 1.02680004 182 182 182 865.000000
-5.86709976 -5.75649977 1.02600002 165 165 165 593.000000
-5.83839989 -5.79120016 1.02310002 174 174 174 737.000000
-5.82730007 -5.80039978 1.02279997 194 194 194 1057.000000
-5.81629992 -5.81029987 1.02240002 161 161 161 529.000000
-5.80289984 -5.81640005 1.02289999 171 171 171 689.000000
-5.78980017 -5.82100010 1.02370000 169 169 169 657.000000
-5.77479982 -5.82550001 1.02479994 177 177 177 785.000000
-5.74350023 -5.82910013 1.02810001 175 175 175 753.000000
-5.72599983 -5.82969999 1.03020000 184 184 184 897.000000
-5.70749998 -5.82810020 1.03289998 199 199 199 1137.000000
-5.68849993 -5.82480001 1.03600001 167 167 167 625.000000
-5.66489983 -5.81710005 1.04040003 172 172 172 705.000000
-5.60860014 -5.81250000 1.04859996 157 157 157 465.000000
-5.56029987 -5.79370022 1.05830002 188 188 188 961.000000
-5.91219997 -5.55259991 1.04299998 156 156 156 449.000000
-5.91690016 -5.58900023 1.03569996 171 171 171 689.000000
-5.91429996 -5.61199999 1.03170002 159 159 159 497.000000
-5.89799976 -5.61460018 1.03310001 148 148 148 321.000000
-5.90070009 -5.70249987 1.01660001 161 161 161 529.000000
-5.89470005 -5.71980000 1.01409996 173 173 173 721.000000
-5.88570023 -5.73180008 1.01300001 165 165 165 593.000000
-5.87729979 -5.74620008 1.01139998 187 187 187 945.000000
-5.84849977 -5.78109980 1.00849998 219 219 219 1457.000000
-5.83860016 -5.79169989 1.00779998 175 175 175 753.000000
-5.82789993 -5.80140018 1.00730002 181 181 181 849.000000
-5.81599998 -5.80989981 1.00720000 162 162 162 545.000000
-5.80240011 -5.81559992 1.00790000 208 208 208 1281.000000
-5.79050016 -5.82229996 1.00820005 192 192 192 1025.000000
-5.75960016 -5.82870007 1.01090002 187 187 187 945.000000
-5.74429989 -5.83050013 1.01250005 171 171 171 689.000000
-5.72609997 -5.82999992 1.01489997 188 188 188 961.000000
-5.70660019 -5.82700014 1.01789999 204 204 204 1217.000000
-5.68820000 -5.82450008 1.02069998 188 188 188 961.000000
-5.66690016 -5.82019997 1.02419996 183 183 183 881.000000
-5.64550018 -5.81419992 1.02800000 179 179 179 817.000000
-5.62750006 -5.81339979 1.03050005 159 159 159 497.000000
-5.91580009 -5.55870008 1.02579999 165 165 165 593.000000
-5.91800022 -5.59100008 1.01960003 171 171 171 689.000000
-5.91440010 -5.61240005 1.01610005 153 153 153 401.000000
-5.90059996 -5.70240021 1.00129998 147 147 147 305.000000
-5.89550018 -5.72139978 0.99839997 176 176 176 769.000000
-5.88640022 -5.73299980 0.99739999 175 175 175 753.000000
-5.87480021 -5.74240017 0.99710000 178 178 178 801.000000
-5.85790014 -5.76879978 0.99440002 177 177 177 785.000000
-5.84950018 -5.78289986 0.99280000 175 175 175 753.000000
-5.83890009 -5.79230022 0.99239999 168 168 168 641.000000
-5.82840014 -5.80229998 0.99190003 159 159 159 497.000000
-5.81710005 -5.81169987 0.99159998 175 175 175 753.000000
-5.80179977 -5.81500006 0.99290001 223 223 223 1521.000000
-5.78970003 -5.82119989 0.99320000 187 187 187 945.000000
-5.77519989 -5.82630014 0.99409997 206 206 206 1249.000000
-5.75960016 -5.82889986 0.99559999 186 186 186 929.000000
-5.74490023 -5.83150005 0.99699998 177 177 177 785.000000
-5.72580004 -5.82969999 0.99970001 180 180 180 833.000000
-5.70599985 -5.82620001 1.00279999 220 220 220 1473.000000
-5.68750000 -5.82359982 1.00559998 187 187 187 945.000000
-5.66650009 -5.81969976 1.00890005 173 173 173 721.000000
-5.64650011 -5.81580019 1.01209998 178 178 178 801.000000
-5.62729979 -5.81330013 1.01499999 171 171 171 689.000000
-5.60850000 -5.81269979 1.01750004 168 168 168 641.000000
-5.58710003 -5.80719995 1.02119994 137 137 137 145.000000
-5.91650009 -5.55999994 1.00989997 158 158 158 481.000000
-5.91720009 -5.58979988 1.00440001 147 147 147 305.000000
-5.91550016 -5.61429977 1.00020003 162 162 162 545.000000
-5.90189981 -5.70459986 0.98540002 149 149 149 337.000000
-5.89529991 -5.72109985 0.98320001 174 174 174 737.000000
-5.88740015 -5.73479986 0.98170000 191 191 191 1009.000000
-5.86030006 -5.77269983 0.97810000 160 160 160 513.000000
-5.85029984 -5.78420019 0.97729999 158 158 158 481.000000
-5.84040022 -5.79470015 0.97659999 178 178 178 801.000000
-5.82889986 -5.80319977 0.97649997 189 189 189 977.000000
-5.81699991 -5.81180000 0.97640002 195 195 195 1073.000000
-5.80319977 -5.81710005 0.97710001 216 216 216 1409.000000
-5.77510023 -5.82639980 0.97890002 204 204 204 1217.000000
-5.75990009 -5.82940006 0.98019999 167 167 167 625.000000
-5.74329996 -5.82929993 0.98229998 223 223 223 1521.000000
-5.72499990 -5.82859993 0.98470002 179 179 179 817.000000
-5.70609999 -5.82660007 0.98740000 219 219 219 1457.000000
-5.68790007 -5.82429981 0.99000001 186 186 186 929.000000
-5.66590023 -5.81909990 0.99370003 169 169 169 657.000000
-5.64709997 -5.81669998 0.99650002 176 176 176 769.000000
-5.62760019 -5.81389999 0.99940002 185 185 185 913.000000
-5.60750008 -5.81139994 1.00240004 204 204 204 1217.000000
-5.58629990 -5.80620003 1.00600004 156 156 156 449.000000
-5.91599989 -5.55929995 0.99449998 163 163 163 561.000000
-5.91879988 -5.59259987 0.98820001 152 152 152 385.000000
-5.91289997 -5.61009979 0.98570001 153 153 153 401.000000
-5.90150023 -5.70419979 0.97030002 151 151 151 369.000000
-5.89559984 -5.72170019 0.96780002 181 181 181 849.000000
-5.86929989 -5.76049995 0.96399999 182 182 182 865.000000
-5.86059999 -5.77320004 0.96280003 149 149 149 337.000000
-5.85160017 -5.78639984 0.96160001 177 177 177 785.000000
-5.84019995 -5.79449987 0.96149999 190 190 190 993.000000
-5.82889986 -5.80340004 0.96130002 180 180 180 833.000000
-5.81699991 -5.81190014 0.96120000 172 172 172 705.000000
-5.80280018 -5.81659985 0.96210003 213 213 213 1361.000000
-5.79110003 -5.82359982 0.96230000 186 186 186 929.000000
-5.77460003 -5.82569981 0.96390003 223 223 223 1521.000000
-5.74350023 -5.82969999 0.96700001 217 217 217 1425.000000
-5.72520018 -5.82910013 0.96929997 174 174 174 737.000000
-5.70629978 -5.82690001 0.97200000 226 226 226 1569.000000
-5.68790007 -5.82439995 0.97469997 172 172 172 705.000000
-5.66639996 -5.81990004 0.97810000 179 179 179 817.000000
-5.62720013 -5.81349993 0.98409998 162 162 162 545.000000
-5.60729980 -5.81129980 0.98689997 195 195 195 1073.000000
-5.58729982 -5.80779982 0.99010003 169 169 169 657.000000
-5.91930008 -5.56489992 0.97759998 155 155 155 433.000000
-5.92030001 -5.59520006 0.97210002 150 150 150 353.000000
-5.91370010 -5.61159992 0.96990001 144 144 144 257.000000
-5.90229988 -5.70559978 0.95469999 145 145 145 273.000000
-5.88679981 -5.70779991 0.95609999 201 201 201 1169.000000
-5.87830019 -5.74830008 0.94989997 173 173 173 721.000000
-5.87050009 -5.76240015 0.94840002 179 179 179 817.000000
-5.86210012 -5.77570009 0.94700003 164 164 164 577.000000
-5.85109997 -5.78579998 0.94660002 171 171 171 689.000000
-5.84100008 -5.79589987 0.94599998 161 161 161 529.000000
-5.82969999 -5.80469990 0.94580001 179 179 179 817.000000
-5.81790018 -5.81339979 0.94569999 184 184 184 897.000000
-5.80399990 -5.81860018 0.94639999 221 221 221 1489.000000
-5.79139996 -5.82420015 0.94700003 205 205 205 1233.000000
-5.77460003 -5.82590008 0.94870001 215 215 215 1393.000000
-5.74459982 -5.83150005 0.95130002 189 189 189 977.000000
-5.72559977 -5.82969999 0.95389998 184 184 184 897.000000
-5.70660019 -5.82760000 0.95660001 221 221 221 1489.000000
-5.68820000 -5.82509995 0.95920002 184 184 184 897.000000
-5.66590023 -5.81930017 0.96289998 177 177 177 785.000000
-5.64720011 -5.81720018 0.96560001 158 158 158 481.000000
-5.60790014 -5.81230021 0.97130001 169 169 169 657.000000
-5.58580017 -5.80569983 0.97509998 178 178 178 801.000000
-5.92119980 -5.56799984 0.96130002 183 183 183 881.000000
-5.92199993 -5.59810019 0.95590001 153 153 153 401.000000
-5.91769981 -5.61819983 0.95289999 149 149 149 337.000000
-5.89680004 -5.69689989 0.94150001 150 150 150 353.000000
-5.88600016 -5.73299980 0.93650001 183 183 183 881.000000
-5.87919998 -5.74989986 0.93440002 182 182 182 865.000000
-5.87069988 -5.76289988 0.93309999 171 171 171 689.000000
-5.86189985 -5.77559996 0.93190002 159 159 159 497.000000
-5.85120010 -5.78599977 0.93140000 187 187 187 945.000000
-5.83990002 -5.79430008 0.93120003 214 214 214 1377.000000
-5.82900000 -5.80389977 0.93089998 183 183 183 881.000000
-5.81769991 -5.81330013 0.93059999 171 171 171 689.000000
-5.80439997 -5.81939983 0.93110001 187 187 187 945.000000
-5.79090023 -5.82350016 0.93199998 191 191 191 1009.000000
-5.74410009 -5.83090019 0.93629998 193 193 193 1041.000000
-5.72529984 -5.82950020 0.93870002 173 173 173 721.000000
-5.70669985 -5.82789993 0.94120002 178 178 178 801.000000
-5.68730021 -5.82390022 0.94419998 177 177 177 785.000000
-5.66459990 -5.81759977 0.94800001 167 167 167 625.000000
-5.64650011 -5.81629992 0.95039999 171 171 171 689.000000
-5.60710001 -5.81120014 0.95609999 153 153 153 401.000000
-5.58519983 -5.80509996 0.95980000 183 183 183 881.000000
-5.92100000 -5.56799984 0.94580001 183 183 183 881.000000
-5.92159986 -5.59749985 0.94059998 154 154 154 417.000000
-5.91849995 -5.61969995 0.93709999 140 140 140 193.000000
-5.89200020 -5.71630001 0.92350000 206 206 206 1249.000000
-5.88780022 -5.73589993 0.92060000 185 185 185 913.000000
-5.87839985 -5.74870014 0.91949999 196 196 196 1089.000000
-5.87020016 -5.76230001 0.91810000 165 165 165 593.000000
-5.86180019 -5.77559996 0.91680002 186 186 186 929.000000
-5.85200024 -5.78749990 0.91589999 180 180 180 833.000000
-5.84119987 -5.79650021 0.91560000 192 192 192 1025.000000
-5.83020020 -5.80579996 0.91530001 166 166 166 609.000000
-5.81659985 -5.81169987 0.91589999 199 199 199 1137.000000
-5.80469990 -5.82000017 0.91579998 172 172 172 705.000000
-5.79090023 -5.82369995 0.91680002 198 198 198 1121.000000
-5.77500010 -5.82670021 0.91820002 211 211 211 1329.000000
-5.74469995 -5.83199978 0.92079997 211 211 211 1329.000000
-5.72520018 -5.82950020 0.92350000 181 181 181 849.000000
-5.70650005 -5.82779980 0.92600000 195 195 195 1073.000000
-5.68730021 -5.82410002 0.92890000 185 185 185 913.000000
-5.66580009 -5.81949997 0.93220001 182 182 182 865.000000
-5.64489985 -5.81419992 0.93559998 186 186 186 929.000000
-5.62599993 -5.81209993 0.93820000 169 169 169 657.000000
-5.58479977 -5.80469990 0.94440001 175 175 175 753.000000
-5.92269993 -5.57089996 0.92960000 194 194 194 1057.000000
-5.92259979 -5.59940004 0.92479998 163 163 163 561.000000
-5.91909981 -5.62090015 0.92150003 149 149 149 337.000000
-5.89799976 -5.72599983 0.90600002 181 181 181 849.000000
-5.88819981 -5.73670006 0.90530002 188 188 188 961.000000
-5.87879992 -5.74949980 0.90410000 172 172 172 705.000000
-5.87039995 -5.76280022 0.90289998 178 178 178 801.000000
-5.86259985 -5.77689981 0.90140003 183 183 183 881.000000
-5.85279989 -5.78879976 0.90050000 168 168 168 641.000000
-5.84200001 -5.79780006 0.90020001 173 173 173 721.000000
-5.82969999 -5.80520010 0.90030003 166 166 166 609.000000
-5.81759977 -5.81339979 0.90039998 198 198 198 1121.000000
-5.80520010 -5.82079983 0.90050000 185 185 185 913.000000
-5.79139996 -5.82450008 0.90149999 197 197 197 1105.000000
-5.74380016 -5.83080006 0.90600002 209 209 209 1297.000000
-5.72480011 -5.82910013 0.90840000 182 182 182 865.000000
-5.70660019 -5.82800007 0.91079998 206 206 206 1249.000000
-5.68750000 -5.82460022 0.91360003 191 191 191 1009.000000
-5.66510010 -5.81860018 0.91720003 190 190 190 993.000000
-5.64569998 -5.81549978 0.92000002 160 160 160 513.000000
-5.62669992 -5.81330013 0.92259997 176 176 176 769.000000
-5.58470011 -5.80469990 0.92900002 150 150 150 353.000000
-5.92449999 -5.57399988 0.91339999 206 206 206 1249.000000
-5.92299986 -5.59999990 0.90920001 181 181 181 849.000000
-5.91909981 -5.62090015 0.90609998 154 154 154 417.000000
-5.90409994 -5.70900011 0.89300001 156 156 156 449.000000
-5.89790010 -5.72599983 0.89080000 199 199 199 1137.000000
-5.88899994 -5.73810005 0.88980001 188 188 188 961.000000
-5.88049984 -5.75229979 0.88840002 174 174 174 737.000000
-5.87099981 -5.76370001 0.88749999 170 170 170 673.000000
-5.86280012 -5.77740002 0.88609999 172 172 172 705.000000
-5.85230017 -5.78809977 0.88559997 160 160 160 513.000000
-5.84140015 -5.79699993 0.88529998 168 168 168 641.000000
-5.82959986 -5.80509996 0.88529998 179 179 179 817.000000
-5.81699991 -5.81250000 0.88550001 229 229 229 1617.000000
-5.80389977 -5.81899977 0.88590002 193 193 193 1041.000000
-5.77530003 -5.82749987 0.88770002 191 191 191 1009.000000
-5.75899982 -5.82889986 0.88940001 197 197 197 1105.000000
-5.74329996 -5.83020020 0.89090002 224 224 224 1537.000000
-5.72599983 -5.83099985 0.89279997 201 201 201 1169.000000
-5.70580006 -5.82700014 0.89579999 211 211 211 1329.000000
-5.68709993 -5.82399988 0.89840001 188 188 188 961.000000
-5.66520023 -5.81890011 0.90179998 183 183 183 881.000000
-5.64459991 -5.81400013 0.90499997 147 147 147 305.000000
-5.92549992 -5.57579994 0.89760000 198 198 198 1121.000000
-5.92379999 -5.60150003 0.89349997 177 177 177 785.000000
-5.91020012 -5.69029999 0.88020003 206 206 206 1249.000000
-5.90399981 -5.70900011 0.87779999 150 150 150 353.000000
-5.89820004 -5.72660017 0.87550002 187 187 187 945.000000
-5.88950014 -5.73899984 0.87449998 187 187 187 945.000000
-5.88009977 -5.75180006 0.87339997 169 169 169 657.000000
-5.87139988 -5.76459980 0.87220001 181 181 181 849.000000
-5.86210012 -5.77650023 0.87129998 181 181 181 849.000000
-5.85209990 -5.78789997 0.87050003 181 181 181 849.000000
-5.84310007 -5.79979992 0.86960000 165 165 165 593.000000
-5.82959986 -5.80530024 0.87019998 209 209 209 1297.000000
-5.81680012 -5.81239986 0.87040001 225 225 225 1553.000000
-5.80490017 -5.82079983 0.87040001 209 209 209 1297.000000
-5.79069996 -5.82380009 0.87150002 225 225 225 1553.000000
-5.74329996 -5.83029985 0.87580001 230 230 230 1633.000000
-5.72480011 -5.82929993 0.87809998 197 197 197 1105.000000
-5.70660019 -5.82830000 0.88029999 201 201 201 1169.000000
-5.68739986 -5.82469988 0.88309997 179 179 179 817.000000
-5.66510010 -5.81890011 0.88650000 172 172 172 705.000000
-5.64440012 -5.81389999 0.88970000 145 145 145 273.000000
-5.62489986 -5.81099987 0.89240003 173 173 173 721.000000
-5.60510015 -5.80889988 0.89510000 179 179 179 817.000000
-5.92210007 -5.54099989 0.88819999 0 0 0 -2047.000000
-5.92679977 -5.57800007 0.88169998 175 175 175 753.000000
-5.91169977 -5.69290018 0.86449999 180 180 180 833.000000
-5.90460014 -5.71010017 0.86240000 165 165 165 593.000000
-5.89940023 -5.72870016 0.86000001 181 181 181 849.000000
-5.89029980 -5.74039984 0.85900003 191 191 191 1009.000000
-5.88040018 -5.75239992 0.85810000 172 172 172 705.000000
-5.87239981 -5.76620007 0.85680002 193 193 193 1041.000000
-5.86240005 -5.77699995 0.85610002 196 196 196 1089.000000
-5.85120010 -5.78669977 0.85579997 194 194 194 1057.000000
-5.84240007 -5.79890013 0.85470003 199 199 199 1137.000000
-5.83029985 -5.80639982 0.85490000 210 210 210 1313.000000
-5.81689978 -5.81279993 0.85530001 231 231 231 1649.000000
-5.80480003 -5.82070017 0.85540003 190 190 190 993.000000
-5.79139996 -5.82499981 0.85619998 204 204 204 1217.000000
-5.74240017 -5.82910013 0.86089998 224 224 224 1537.000000
-5.72410011 -5.82840014 0.86309999 190 190 190 993.000000
-5.70539999 -5.82670021 0.86549997 209 209 209 1297.000000
-5.68690014 -5.82410002 0.86799997 173 173 173 721.000000
-5.66480017 -5.81850004 0.87140000 165 165 165 593.000000
-5.64449978 -5.81419992 0.87440002 127 127 127 -15.000000
-5.62500000 -5.81129980 0.87699997 168 168 168 641.000000
-5.60090017 -5.80319977 0.88110000 184 184 184 897.000000
-5.91149998 -5.69269991 0.84930003 180 180 180 833.000000
-5.90549994 -5.71169996 0.84689999 180 180 180 833.000000
-5.89890003 -5.72800016 0.84500003 190 190 190 993.000000
-5.89060020 -5.74100018 0.84380001 175 175 175 753.000000
-5.88100004 -5.75349998 0.84280002 172 172 172 705.000000
-5.87230015 -5.76630020 0.84170002 185 185 185 913.000000
-5.86269999 -5.77759981 0.84090000 208 208 208 1281.000000
-5.85120010 -5.78679991 0.84069997 197 197 197 1105.000000
-5.84259987 -5.79939985 0.83960003 190 190 190 993.000000
-5.83010006 -5.80630016 0.83990002 183 183 183 881.000000
-5.81680012 -5.81269979 0.84030002 223 223 223 1521.000000
-5.80569983 -5.82219982 0.83999997 168 168 168 641.000000
-5.79099989 -5.82450008 0.84119999 185 185 185 913.000000
-5.75969982 -5.83050013 0.84369999 175 175 175 753.000000
-5.74280024 -5.82989979 0.84570003 220 220 220 1473.000000
-5.72389984 -5.82830000 0.84799999 176 176 176 769.000000
-5.70459986 -5.82560015 0.85060000 224 224 224 1537.000000
-5.68610001 -5.82310009 0.85299999 161 161 161 529.000000
-5.66419983 -5.81799984 0.85630000 162 162 162 545.000000
-5.60489988 -5.78240013 0.86849999 143 143 143 241.000000
-5.92609978 -5.60570002 0.84649998 164 164 164 577.000000
-5.92049980 -5.62370014 0.84420002 146 146 146 289.000000
-5.91230011 -5.69399977 0.83389997 191 191 191 1009.000000
-5.90500021 -5.71099997 0.83190000 184 184 184 897.000000
-5.89979982 -5.72949982 0.82959998 184 184 184 897.000000
-5.88990021 -5.73999977 0.82889998 193 193 193 1041.000000
-5.87989998 -5.75190020 0.82810003 198 198 198 1121.000000
-5.87290001 -5.76719999 0.82639998 175 175 175 753.000000
-5.86329985 -5.77860022 0.82560003 196 196 196 1089.000000
-5.85160017 -5.78760004 0.82550001 175 175 175 753.000000
-5.84250021 -5.79930019 0.82459998 192 192 192 1025.000000
-5.83029985 -5.80670023 0.82470000 201 201 201 1169.000000
-5.81780005 -5.81430006 0.82489997 191 191 191 1009.000000
-5.80450010 -5.82049990 0.82539999 170 170 170 673.000000
-5.74310017 -5.83050013 0.83039999 216 216 216 1409.000000
-5.72380018 -5.82830000 0.83289999 172 172 172 705.000000
-5.70359993 -5.82420015 0.83569998 209 209 209 1297.000000
-5.68629980 -5.82350016 0.83770001 174 174 174 737.000000
-5.66370010 -5.81720018 0.84119999 166 166 166 609.000000
-5.93079996 -5.58500004 0.83399999 176 176 176 769.000000
-5.92729998 -5.60780001 0.83069998 164 164 164 577.000000
-5.91730022 -5.61859989 0.82999998 152 152 152 385.000000
-5.91370010 -5.69640017 0.81819999 184 184 184 897.000000
-5.90649986 -5.71350002 0.81629997 170 170 170 673.000000
-5.89970016 -5.72959995 0.81449997 164 164 164 577.000000
-5.88990021 -5.74020004 0.81379998 188 188 188 961.000000
-5.88110018 -5.75400019 0.81260002 173 173 173 721.000000
-5.87239981 -5.76669979 0.81150001 175 175 175 753.000000
-5.86289978 -5.77829981 0.81070000 211 211 211 1329.000000
-5.85340023 -5.79059982 0.80980003 183 183 183 881.000000
-5.84240007 -5.79930019 0.80960000 173 173 173 721.000000
-5.83069992 -5.80740023 0.80960000 186 186 186 929.000000
-5.81710005 -5.81349993 0.81010002 228 228 228 1601.000000
-5.80380011 -5.81960011 0.81050003 194 194 194 1057.000000
-5.79180002 -5.82600021 0.81080002 180 180 180 833.000000
-5.74139977 -5.82810020 0.81590003 222 222 222 1505.000000
-5.72349977 -5.82800007 0.81779999 173 173 173 721.000000
-5.70419979 -5.82530022 0.82040000 216 216 216 1409.000000
-5.68610001 -5.82329988 0.82260001 169 169 169 657.000000
-5.92229986 -5.54169989 0.82620001 159 159 159 497.000000
-5.93190002 -5.58699989 0.81819999 160 160 160 513.000000
-5.92770004 -5.60860014 0.81529999 153 153 153 401.000000
-5.91470003 -5.61450005 0.81569999 157 157 157 465.000000
-5.91349983 -5.69630003 0.80309999 168 168 168 641.000000
-5.90660000 -5.71369982 0.80110002 171 171 171 689.000000
-5.90080023 -5.73140001 0.79900002 178 178 178 801.000000
-5.89120007 -5.74240017 0.79830003 196 196 196 1089.000000
-5.88180017 -5.75509977 0.79729998 194 194 194 1057.000000
-5.87360001 -5.76870012 0.79610002 189 189 189 977.000000
-5.86320019 -5.77890015 0.79560000 215 215 215 1393.000000
-5.85489988 -5.79300022 0.79430002 167 167 167 625.000000
-5.84299994 -5.80030012 0.79439998 153 153 153 401.000000
-5.83039999 -5.80709982 0.79470003 221 221 221 1489.000000
-5.81750011 -5.81419992 0.79490000 188 188 188 961.000000
-5.80539989 -5.82219982 0.79500002 198 198 198 1121.000000
-5.75880003 -5.82940006 0.79879999 179 179 179 817.000000
-5.74340010 -5.83120012 0.80010003 211 211 211 1329.000000
-5.72380018 -5.82859993 0.80260003 173 173 173 721.000000
-5.70440006 -5.82579994 0.80510002 214 214 214 1377.000000
-5.60069990 -5.80340004 0.81959999 179 179 179 817.000000
-5.57539988 -5.79250002 0.82400000 137 137 137 145.000000
-5.92670012 -5.54909992 0.80919999 143 143 143 241.000000
-5.93279982 -5.58860016 0.80260003 165 165 165 593.000000
-5.92899990 -5.61079979 0.79949999 168 168 168 641.000000
-5.91580009 -5.70009995 0.78719997 188 188 188 961.000000
-5.90759993 -5.71540022 0.78570002 177 177 177 785.000000
-5.90030003 -5.73080015 0.78410000 196 196 196 1089.000000
-5.89150000 -5.74300003 0.78310001 200 200 200 1153.000000
-5.88170004 -5.75519991 0.78230000 185 185 185 913.000000
-5.87470007 -5.77059984 0.78070003 180 180 180 833.000000
-5.86429977 -5.78060007 0.78020000 184 184 184 897.000000
-5.84310007 -5.80060005 0.77929997 200 200 200 1153.000000
-5.83039999 -5.80730009 0.77960002 203 203 203 1201.000000
-5.81769991 -5.81470013 0.77980000 171 171 171 689.000000
-5.80450010 -5.82089996 0.78030002 182 182 182 865.000000
-5.75869989 -5.82959986 0.78369999 185 185 185 913.000000
-5.74359989 -5.83160019 0.78500003 179 179 179 817.000000
-5.72300005 -5.82760000 0.78780001 173 173 173 721.000000
-5.63619995 -5.80280018 0.80059999 151 151 151 369.000000
-5.62169981 -5.80730009 0.80150002 155 155 155 433.000000
-5.59989977 -5.80240011 0.80460000 173 173 173 721.000000
-5.54540014 -5.77500010 0.81440002 178 178 178 801.000000
-5.93039989 -5.55560017 0.79250002 153 153 153 401.000000
-5.93380022 -5.59030008 0.78689998 165 165 165 593.000000
-5.93009996 -5.61280012 0.78390002 171 171 171 689.000000
-5.91550016 -5.69969988 0.77219999 186 186 186 929.000000
-5.90799999 -5.71630001 0.77050000 203 203 203 1201.000000
-5.89979982 -5.73010015 0.76920003 162 162 162 545.000000
-5.89260006 -5.74490023 0.76770002 197 197 197 1105.000000
-5.88259983 -5.75670004 0.76700002 193 193 193 1041.000000
-5.87430000 -5.76999998 0.76580000 176 176 176 769.000000
-5.86390018 -5.78009987 0.76529998 180 180 180 833.000000
-5.85279989 -5.79010010 0.76499999 182 182 182 865.000000
-5.84940004 -5.81050014 0.76230001 158 158 158 481.000000
-5.83129978 -5.80880022 0.76429999 212 212 212 1345.000000
-5.81820011 -5.81549978 0.76470000 196 196 196 1089.000000
-5.80530024 -5.82219982 0.76499999 178 178 178 801.000000
-5.79160023 -5.82620001 0.76580000 173 173 173 721.000000
-5.75930023 -5.83050013 0.76849997 196 196 196 1089.000000
-5.74389982 -5.83209991 0.76990002 172 172 172 705.000000
-5.66270018 -5.81640005 0.78060001 154 154 154 417.000000
-5.64219999 -5.81169987 0.78340000 149 149 149 337.000000
-5.61969995 -5.80450010 0.78680003 137 137 137 145.000000
-5.57579994 -5.79330015 0.79310000 156 156 156 449.000000
-5.54020023 -5.76779985 0.80059999 192 192 192 1025.000000
-5.93079996 -5.55639982 0.77700001 144 144 144 257.000000
-5.93340015 -5.58990002 0.77170002 162 162 162 545.000000
-5.93030024 -5.61320019 0.76859999 167 167 167 625.000000
-5.91459990 -5.69840002 0.75739998 177 177 177 785.000000
-5.90840006 -5.71710014 0.75529999 206 206 206 1249.000000
-5.89970016 -5.73000002 0.75419998 167 167 167 625.000000
-5.89120007 -5.74280024 0.75319999 188 188 188 961.000000
-5.88259983 -5.75689983 0.75190002 192 192 192 1025.000000
-5.87459993 -5.77059984 0.75070000 167 167 167 625.000000
-5.86409998 -5.78060007 0.75029999 189 189 189 977.000000
-5.85290003 -5.79029989 0.75000000 197 197 197 1105.000000
-5.83220005 -5.81029987 0.74910003 158 158 158 481.000000
-5.81790018 -5.81519985 0.74980003 189 189 189 977.000000
-5.80539989 -5.82250023 0.75000000 184 184 184 897.000000
-5.79110003 -5.82550001 0.75099999 224 224 224 1537.000000
-5.75869989 -5.82969999 0.75370002 197 197 197 1105.000000
-5.68540001 -5.82289982 0.76209998 164 164 164 577.000000
-5.66279984 -5.81680012 0.76529998 165 165 165 593.000000
-5.63770008 -5.80530024 0.76959997 131 131 131 49.000000
-5.60020018 -5.80319977 0.77380002 166 166 166 609.000000
-5.57660007 -5.79460001 0.77749997 164 164 164 577.000000
-5.53980017 -5.76739979 0.78520000 195 195 195 1073.000000
-5.93310022 -5.56029987 0.76080000 156 156 156 449.000000
-5.93410015 -5.59119987 0.75620002 153 153 153 401.000000
-5.93149996 -5.61530018 0.75290000 156 156 156 449.000000
-5.91520023 -5.69950008 0.74220002 175 175 175 753.000000
-5.90869999 -5.71770000 0.74010003 205 205 205 1233.000000
-5.89940023 -5.72970009 0.73930001 193 193 193 1041.000000
-5.89039993 -5.74170017 0.73839998 215 215 215 1393.000000
-5.88310003 -5.75769997 0.73680001 201 201 201 1169.000000
-5.87319994 -5.76849985 0.73619998 168 168 168 641.000000
-5.86460018 -5.78160000 0.73509997 192 192 192 1025.000000
-5.85330009 -5.79110003 0.73490000 186 186 186 929.000000
-5.84289980 -5.80079985 0.73449999 159 159 159 497.000000
-5.81689978 -5.81379986 0.73519999 193 193 193 1041.000000
-5.80550003 -5.82280016 0.73500001 170 170 170 673.000000
-5.79160023 -5.82639980 0.73589998 216 216 216 1409.000000
-5.74700022 -5.81239986 0.74229997 168 168 168 641.000000
-5.68319988 -5.81990004 0.74769998 174 174 174 737.000000
-5.61999989 -5.80530024 0.75620002 134 134 134 97.000000
-5.59989977 -5.80289984 0.75860000 178 178 178 801.000000
-5.57560015 -5.79339981 0.76239997 174 174 174 737.000000
-5.54020023 -5.76809978 0.76959997 200 200 200 1153.000000
-5.93440008 -5.56260014 0.74510002 165 165 165 593.000000
-5.93550014 -5.59359980 0.74049997 149 149 149 337.000000
-5.93249989 -5.61709976 0.73740000 159 159 159 497.000000
-5.91610003 -5.70109987 0.72680002 145 145 145 273.000000
-5.90959978 -5.71920013 0.72479999 192 192 192 1025.000000
-5.90000010 -5.73080015 0.72399998 178 178 178 801.000000
-5.89109993 -5.74289989 0.72320002 191 191 191 1009.000000
-5.88369989 -5.75880003 0.72160000 210 210 210 1313.000000
-5.87459993 -5.77089977 0.72070003 158 158 158 481.000000
-5.86450005 -5.78149986 0.72020000 193 193 193 1041.000000
-5.85519981 -5.79409981 0.71929997 181 181 181 849.000000
-5.84289980 -5.80089998 0.71950001 164 164 164 577.000000
-5.83150005 -5.80950022 0.71939999 162 162 162 545.000000
-5.80459976 -5.82159996 0.72030002 183 183 183 881.000000
-5.73990011 -5.82670021 0.72600001 177 177 177 785.000000
-5.72300005 -5.82810020 0.72750002 175 175 175 753.000000
-5.65030003 -5.79879999 0.73879999 145 145 145 273.000000
-5.64029980 -5.80950022 0.73830003 152 152 152 385.000000
-5.61990023 -5.80530024 0.74100000 163 163 163 561.000000
-5.59910011 -5.80179977 0.74360001 193 193 193 1041.000000
-5.57649994 -5.79479980 0.74680001 184 184 184 897.000000
-5.53989983 -5.76789999 0.75430000 167 167 167 625.000000
-5.93739986 -5.56769991 0.72880000 171 171 171 689.000000
-5.93559980 -5.59390020 0.72520000 158 158 158 481.000000
-5.93300009 -5.61810017 0.72200000 160 160 160 513.000000
-5.91660023 -5.70209980 0.71160001 151 151 151 369.000000
-5.90969992 -5.71939993 0.70980000 194 194 194 1057.000000
-5.90049982 -5.73169994 0.70889997 170 170 170 673.000000
-5.89209986 -5.74459982 0.70779997 180 180 180 833.000000
-5.88420010 -5.75969982 0.70649999 193 193 193 1041.000000
-5.87489986 -5.77150011 0.70569998 172 172 172 705.000000
-5.86579990 -5.78369999 0.70480001 216 216 216 1409.000000
-5.85500002 -5.79390001 0.70440000 152 152 152 385.000000
-5.84350014 -5.80189991 0.70440000 162 162 162 545.000000
-5.83169985 -5.80999994 0.70440000 178 178 178 801.000000
-5.81759977 -5.81510019 0.70510000 199 199 199 1137.000000
-5.78679991 -5.81949997 0.70740002 147 147 147 305.000000
-5.75530005 -5.82520008 0.70969999 158 158 158 481.000000
-5.74149990 -5.82919979 0.71050000 164 164 164 577.000000
-5.72279978 -5.82800007 0.71240002 167 167 167 625.000000
-5.70349979 -5.82539988 0.71469998 168 168 168 641.000000
-5.68489981 -5.82259989 0.71689999 171 171 171 689.000000
-5.66190004 -5.81589985 0.72009999 172 172 172 705.000000
-5.64230013 -5.81260014 0.72250003 145 145 145 273.000000
-5.62069988 -5.80670023 0.72549999 170 170 170 673.000000
-5.59959984 -5.80270004 0.72810000 189 189 189 977.000000
-5.57679987 -5.79540014 0.73140001 174 174 174 737.000000
-5.53999996 -5.76809978 0.73879999 168 168 168 641.000000
-5.93769979 -5.56820011 0.71340001 171 171 171 689.000000
-5.93569994 -5.59420013 0.70990002 152 152 152 385.000000
-5.93459988 -5.62090015 0.70630002 156 156 156 449.000000
-5.91680002 -5.70249987 0.69650000 167 167 167 625.000000
-5.91009998 -5.72020006 0.69459999 219 219 219 1457.000000
-5.90119982 -5.73299980 0.69370002 176 176 176 769.000000
-5.89279985 -5.74590015 0.69270003 176 176 176 769.000000
-5.88409996 -5.75969982 0.69150001 167 167 167 625.000000
-5.87489986 -5.77159977 0.69080001 154 154 154 417.000000
-5.86660004 -5.78499985 0.68970001 202 202 202 1185.000000
-5.85500002 -5.79400015 0.68949997 165 165 165 593.000000
-5.84299994 -5.80130005 0.68959999 182 182 182 865.000000
-5.83279991 -5.81190014 0.68910003 175 175 175 753.000000
-5.81820011 -5.81619978 0.68989998 159 159 159 497.000000
-5.80310011 -5.81969976 0.69090003 158 158 158 481.000000
-5.76879978 -5.81949997 0.69419998 159 159 159 497.000000
-5.75939989 -5.83139992 0.69349998 166 166 166 609.000000
-5.74219990 -5.83039999 0.69520003 160 160 160 513.000000
-5.72319984 -5.82870007 0.69730002 170 170 170 673.000000
-5.70380020 -5.82579994 0.69959998 170 170 170 673.000000
-5.68559980 -5.82369995 0.70160002 187 187 187 945.000000
-5.66079998 -5.81440020 0.70529997 166 166 166 609.000000
-5.64150000 -5.81150007 0.70760000 154 154 154 417.000000
-5.62099981 -5.80719995 0.71020001 172 172 172 705.000000
-5.59819984 -5.80089998 0.71329999 191 191 191 1009.000000
-5.57509995 -5.79300022 0.71660000 171 171 171 689.000000
-5.52720022 -5.75000000 0.72710001 155 155 155 433.000000
-5.93790007 -5.56879997 0.69800001 161 161 161 529.000000
-5.93629980 -5.59520006 0.69450003 140 140 140 193.000000
-5.93510008 -5.62179995 0.69090003 154 154 154 417.000000
-5.91750002 -5.70370007 0.68120003 158 158 158 481.000000
-5.91120005 -5.72209978 0.67930001 176 176 176 769.000000
-5.90210009 -5.73449993 0.67839998 169 169 169 657.000000
-5.89279985 -5.74599981 0.67769998 191 191 191 1009.000000
-5.88380003 -5.75930023 0.67670000 192 192 192 1025.000000
-5.87459993 -5.77120018 0.67589998 169 169 169 657.000000
-5.86590004 -5.78410006 0.67500001 180 180 180 833.000000
-5.85370016 -5.79220009 0.67500001 219 219 219 1457.000000
-5.84369993 -5.80249977 0.67449999 161 161 161 529.000000
-5.83290005 -5.81209993 0.67420000 150 150 150 353.000000
-5.81890011 -5.81739998 0.67479998 143 143 143 241.000000
-5.74170017 -5.82969999 0.68040001 176 176 176 769.000000
-5.72349977 -5.82919979 0.68220001 159 159 159 497.000000
-5.70459986 -5.82719994 0.68430001 164 164 164 577.000000
-5.68450022 -5.82219982 0.68690002 204 204 204 1217.000000
-5.66160011 -5.81570005 0.68989998 167 167 167 625.000000
-5.64069986 -5.81050014 0.69260001 155 155 155 433.000000
-5.61929989 -5.80490017 0.69540000 181 181 181 849.000000
-5.59800005 -5.80079985 0.69800001 189 189 189 977.000000
-5.57490015 -5.79290009 0.70130002 170 170 170 673.000000
-5.53289986 -5.75839996 0.70999998 132 132 132 65.000000
-5.93860006 -5.57009983 0.68250000 162 162 162 545.000000
-5.93830013 -5.59870005 0.67869997 154 154 154 417.000000
-5.93580008 -5.62309980 0.67559999 163 163 163 561.000000
-5.91709995 -5.70319986 0.66640002 171 171 171 689.000000
-5.91109991 -5.72209978 0.66439998 208 208 208 1281.000000
-5.90220022 -5.73470020 0.66339999 169 169 169 657.000000
-5.89260006 -5.74590015 0.66280001 180 180 180 833.000000
-5.88380003 -5.75939989 0.66180003 192 192 192 1025.000000
-5.87570000 -5.77309990 0.66070002 197 197 197 1105.000000
-5.86549997 -5.78350019 0.66020000 193 193 193 1041.000000
-5.85470009 -5.79379988 0.65979999 209 209 209 1297.000000
-5.84539986 -5.80530024 0.65910000 159 159 159 497.000000
-5.83230019 -5.81129980 0.65950000 165 165 165 593.000000
-5.80560017 -5.79720020 0.66380000 127 127 127 -15.000000
-5.78950024 -5.82399988 0.66180003 230 230 230 1633.000000
-5.77519989 -5.82940006 0.66240001 156 156 156 449.000000
-5.72329998 -5.82910013 0.66720003 168 168 168 641.000000
-5.70469999 -5.82749987 0.66920000 157 157 157 465.000000
-5.68340015 -5.82079983 0.67210001 172 172 172 705.000000
-5.66120005 -5.81529999 0.67490000 179 179 179 817.000000
-5.64020014 -5.80989981 0.67760003 173 173 173 721.000000
-5.61969995 -5.80569983 0.68010002 175 175 175 753.000000
-5.59859991 -5.80179977 0.68260002 181 181 181 849.000000
-5.57390022 -5.79169989 0.68629998 170 170 170 673.000000
-5.52960014 -5.75390005 0.69550002 117 117 117 -175.000000
-5.94010019 -5.57270002 0.66680002 165 165 165 593.000000
-5.93930006 -5.60039997 0.66320002 153 153 153 401.000000
-5.93709993 -5.62529993 0.66009998 156 156 156 449.000000
-5.91849995 -5.70559978 0.65100002 147 147 147 305.000000
-5.91109991 -5.72230005 0.64940000 199 199 199 1137.000000
-5.90220022 -5.73490000 0.64850003 165 165 165 593.000000
-5.89349985 -5.74730015 0.64760000 168 168 168 641.000000
-5.88420010 -5.76020002 0.64670002 185 185 185 913.000000
-5.87519979 -5.77239990 0.64590001 192 192 192 1025.000000
-5.86719990 -5.78639984 0.64480001 147 147 147 305.000000
-5.85489988 -5.79430008 0.64490002 204 204 204 1217.000000
-5.84429979 -5.80369997 0.64459997 157 157 157 465.000000
-5.83179998 -5.81059980 0.64480001 171 171 171 689.000000
-5.78999996 -5.82480001 0.64670002 225 225 225 1553.000000
-5.77440023 -5.82830000 0.64770001 164 164 164 577.000000
-5.74209976 -5.83059978 0.65039998 170 170 170 673.000000
-5.68830013 -5.82810020 0.65560001 146 146 146 289.000000
-5.66079998 -5.81479979 0.65990001 165 165 165 593.000000
-5.64010000 -5.80980015 0.66250002 154 154 154 417.000000
-5.62010002 -5.80630016 0.66479999 178 178 178 801.000000
-5.59819984 -5.80130005 0.66750002 163 163 163 561.000000
-5.57359982 -5.79139996 0.67110002 160 160 160 513.000000
-5.53109980 -5.75610018 0.67960000 61 61 61 -1071.000000
-5.93580008 -5.53749990 0.65660000 67 67 67 -975.000000
-5.94409990 -5.57940006 0.65039998 170 170 170 673.000000
-5.93979979 -5.60150003 0.64780003 130 130 130 33.000000
-5.93839979 -5.62750006 0.64450002 158 158 158 481.000000
-5.91769981 -5.70440006 0.63620001 166 166 166 609.000000
-5.91060019 -5.72160006 0.63459998 220 220 220 1473.000000
-5.89370012 -5.74770021 0.63260001 173 173 173 721.000000
-5.88479996 -5.76130009 0.63169998 181 181 181 849.000000
-5.87570000 -5.77339983 0.63090003 172 172 172 705.000000
-5.86660004 -5.78560019 0.63010001 158 158 158 481.000000
-5.85510015 -5.79470015 0.62989998 206 206 206 1249.000000
-5.84549999 -5.80569983 0.62940001 160 160 160 513.000000
-5.81729984 -5.78849983 0.63400000 141 141 141 209.000000
-5.80480003 -5.82270002 0.63080001 166 166 166 609.000000
-5.79040003 -5.82560015 0.63169998 196 196 196 1089.000000
-5.77440023 -5.82849979 0.63279998 212 212 212 1345.000000
-5.74039984 -5.82819986 0.63590002 180 180 180 833.000000
-5.72100019 -5.82600021 0.63789999 189 189 189 977.000000
-5.70289993 -5.82509995 0.63970000 181 181 181 849.000000
-5.68979979 -5.83050013 0.64020002 175 175 175 753.000000
-5.60729980 -5.81459999 0.64980000 161 161 161 529.000000
-5.57280016 -5.79050016 0.65600002 165 165 165 593.000000
-5.53350019 -5.75960016 0.66360003 50 50 50 -1247.000000
-5.93429995 -5.53509998 0.64170003 116 116 116 -191.000000
-5.94290018 -5.57749987 0.63559997 178 178 178 801.000000
-5.94049978 -5.60279989 0.63249999 143 143 143 241.000000
-5.93720007 -5.62570000 0.62980002 154 154 154 417.000000
-5.91750002 -5.70419979 0.62129998 183 183 183 881.000000
-5.91209984 -5.72410011 0.61919999 209 209 209 1297.000000
-5.90310001 -5.73659992 0.61839998 165 165 165 593.000000
-5.89359999 -5.74779987 0.61780000 127 127 127 -15.000000
-5.88509989 -5.76179981 0.61669999 184 184 184 897.000000
-5.87570000 -5.77349997 0.61600000 171 171 171 689.000000
-5.86600018 -5.78469992 0.61540002 170 170 170 673.000000
-5.85559988 -5.79570007 0.61489999 168 168 168 641.000000
-5.84439993 -5.80410004 0.61479998 151 151 151 369.000000
-5.81010008 -5.80450010 0.61780000 167 167 167 625.000000
-5.80600023 -5.82460022 0.61559999 171 171 171 689.000000
-5.79150009 -5.82740021 0.61650002 164 164 164 577.000000
-5.77360010 -5.82749987 0.61809999 220 220 220 1473.000000
-5.75869989 -5.83109999 0.61890000 165 165 165 593.000000
-5.74039984 -5.82849979 0.62089998 174 174 174 737.000000
-5.72049999 -5.82539988 0.62309998 168 168 168 641.000000
-5.70400000 -5.82690001 0.62440002 175 175 175 753.000000
-5.68599987 -5.82499981 0.62620002 201 201 201 1169.000000
-5.66190004 -5.81680012 0.62940001 159 159 159 497.000000
-5.63880014 -5.80830002 0.63260001 143 143 143 241.000000
-5.61940002 -5.80560017 0.63470000 196 196 196 1089.000000
-5.59740019 -5.80049992 0.63730001 158 158 158 481.000000
-5.93289995 -5.53289986 0.62690002 155 155 155 433.000000
-5.94350004 -5.57859993 0.62019998 182 182 182 865.000000
-5.94169998 -5.60480022 0.61699998 146 146 146 289.000000
-5.93849993 -5.62799978 0.61430001 162 162 162 545.000000
-5.92010021 -5.70860004 0.60560000 153 153 153 401.000000
-5.91169977 -5.72359991 0.60439998 170 170 170 673.000000
-5.90310001 -5.73680019 0.60350001 171 171 171 689.000000
-5.89559984 -5.75099993 0.60229999 163 163 163 561.000000
-5.88549995 -5.76259995 0.60170001 198 198 198 1121.000000
-5.87570000 -5.77360010 0.60110003 188 188 188 961.000000
-5.86670017 -5.78599977 0.60030001 158 158 158 481.000000
-5.85589981 -5.79619980 0.60000002 160 160 160 513.000000
-5.82329988 -5.77159977 0.60579997 130 130 130 33.000000
-5.81920004 -5.81850004 0.60039997 170 170 170 673.000000
-5.80630016 -5.82530022 0.60060000 153 153 153 401.000000
-5.78959990 -5.82469988 0.60219997 168 168 168 641.000000
-5.77330017 -5.82709980 0.60329998 200 200 200 1153.000000
-5.75750017 -5.82940006 0.60439998 168 168 168 641.000000
-5.73939991 -5.82709980 0.60619998 171 171 171 689.000000
-5.72090006 -5.82620001 0.60799998 194 194 194 1057.000000
-5.70190001 -5.82399988 0.60990000 196 196 196 1089.000000
-5.68389988 -5.82219982 0.61170000 203 203 203 1201.000000
-5.66120005 -5.81589985 0.61449999 187 187 187 945.000000
-5.63929987 -5.80919981 0.61729997 168 168 168 641.000000
-5.61829996 -5.80420017 0.61979997 199 199 199 1137.000000
-5.59670019 -5.79960012 0.62230003 165 165 165 593.000000
-5.56939983 -5.78590012 0.62639999 165 165 165 593.000000
-5.93800020 -5.54150009 0.61009997 163 163 163 561.000000
-5.94379997 -5.57929993 0.60490000 172 172 172 705.000000
-5.94250011 -5.60620022 0.60159999 145 145 145 273.000000
-5.93620014 -5.62430000 0.59990001 166 166 166 609.000000
-5.91940022 -5.70760012 0.59090000 168 168 168 641.000000
-5.91200018 -5.72429991 0.58939999 183 183 183 881.000000
-5.90280008 -5.73640013 0.58870000 170 170 170 673.000000
-5.89419985 -5.74889994 0.58780003 157 157 157 465.000000
-5.88500023 -5.76210022 0.58700001 194 194 194 1057.000000
-5.87610006 -5.77430010 0.58620000 166 166 166 609.000000
-5.86539984 -5.78399992 0.58590001 185 185 185 913.000000
-5.85550022 -5.79580021 0.58530003 180 180 180 833.000000
-5.82170010 -5.79570007 0.58810002 178 178 178 801.000000
-5.81879997 -5.81809998 0.58560002 179 179 179 817.000000
-5.80520010 -5.82380009 0.58609998 154 154 154 417.000000
-5.79020023 -5.82560015 0.58710003 165 165 165 593.000000
-5.77250004 -5.82609987 0.58859998 205 205 205 1233.000000
-5.75719976 -5.82910013 0.58960003 169 169 169 657.000000
-5.73969984 -5.82770014 0.59119999 173 173 173 721.000000
-5.72069979 -5.82600021 0.59310001 184 184 184 897.000000
-5.70359993 -5.82660007 0.59450001 187 187 187 945.000000
-5.68440008 -5.82310009 0.59660000 184 184 184 897.000000
-5.65929985 -5.81330013 0.60000002 186 186 186 929.000000
-5.63929987 -5.80929995 0.60219997 161 161 161 529.000000
-5.61660004 -5.80189991 0.60509998 184 184 184 897.000000
-5.59490013 -5.79729986 0.60759997 171 171 171 689.000000
-5.56939983 -5.78599977 0.61119998 165 165 165 593.000000
-5.93849993 -5.54250002 0.59469998 161 161 161 529.000000
-5.94460011 -5.58069992 0.58950001 184 184 184 897.000000
-5.94199991 -5.60559988 0.58670002 157 157 157 465.000000
-5.93970013 -5.63009977 0.58380002 166 166 166 609.000000
-5.92000008 -5.70860004 0.57580000 175 175 175 753.000000
-5.91209984 -5.72450018 0.57450002 179 179 179 817.000000
-5.90290022 -5.73670006 0.57370001 178 178 178 801.000000
-5.89449978 -5.74959993 0.57290000 157 157 157 465.000000
-5.88530016 -5.76259995 0.57200003 162 162 162 545.000000
-5.87599993 -5.77430010 0.57139999 166 166 166 609.000000
-5.86560011 -5.78459978 0.57099998 199 199 199 1137.000000
-5.82980013 -5.80830002 0.57110000 197 197 197 1105.000000
-5.81890011 -5.81829977 0.57080001 167 167 167 625.000000
-5.80450010 -5.82289982 0.57139999 166 166 166 609.000000
-5.79029989 -5.82590008 0.57230002 161 161 161 529.000000
-5.77269983 -5.82660007 0.57370001 204 204 204 1217.000000
-5.75689983 -5.82880020 0.57470000 177 177 177 785.000000
-5.73929977 -5.82719994 0.57639998 192 192 192 1025.000000
