2.13109994 5.28669977 6.44859982 255 255 255 -1199.000000
2.17529988 5.28329992 6.39160013 255 255 255 -783.000000
2.20169997 5.28719997 6.36089993 255 255 255 -431.000000
2.22000003 5.29390001 6.34159994 255 255 255 -47.000000
2.23390007 5.30270004 6.32910013 255 255 255 113.000000
2.24650002 5.31209993 6.31869984 255 255 255 33.000000
2.25629997 5.32250023 6.31209993 255 255 255 449.000000
2.26239991 5.33459997 6.31120014 255 255 255 257.000000
2.27010012 5.34639978 6.30819988 255 255 255 273.000000
2.27449989 5.35920000 6.30989981 255 255 255 497.000000
2.27719998 5.37309980 6.31430006 255 255 255 689.000000
2.27979994 5.38700008 6.31890011 255 255 255 353.000000
2.28049994 5.40150023 6.32630014 255 255 255 513.000000
2.28080010 5.41629982 6.33430004 255 255 255 1361.000000
2.27839994 5.43279982 6.34660006 255 255 255 1185.000000
2.27440000 5.44969988 6.36119986 255 255 255 1377.000000
2.26670003 5.46850014 6.38149977 255 255 255 1537.000000
2.25359988 5.49020004 6.41009998 255 255 255 1153.000000
2.23550010 5.51410007 6.44610023 255 255 255 1185.000000
2.21740007 5.53849983 6.48260021 255 255 255 -1631.000000
2.14540005 5.28060007 6.39069986 255 255 255 -543.000000
2.18099999 5.28090000 6.34670019 255 255 255 -431.000000
2.20659995 5.28509998 6.31710005 255 255 255 -319.000000
2.22399998 5.29209995 6.29930019 255 255 255 -47.000000
2.23559999 5.30189991 6.29029989 255 255 255 -63.000000
2.24830008 5.31120014 6.27969980 255 255 255 849.000000
2.25600004 5.32270002 6.27640009 255 255 255 -95.000000
2.26370001 5.33400011 6.27309990 255 255 255 17.000000
2.27150011 5.34569979 6.26989985 255 255 255 433.000000
2.27559996 5.35860014 6.27199984 255 255 255 705.000000
2.27579999 5.37370014 6.28009987 255 255 255 129.000000
2.27859998 5.38749981 6.28439999 255 255 255 385.000000
2.27970004 5.40180016 6.29110003 255 255 255 769.000000
2.27900004 5.41709995 6.30060005 255 255 255 1233.000000
2.27649999 5.43359995 6.31300020 255 255 255 1601.000000
2.27239990 5.45060015 6.32770014 255 255 255 1297.000000
2.26309991 5.47020006 6.35020018 255 255 255 1569.000000
2.24880004 5.49240017 6.38040018 255 255 255 1505.000000
2.22320008 5.51999998 6.42749977 255 255 255 1089.000000
2.15650010 5.27580023 6.33790016 255 255 255 -591.000000
2.18820000 5.27769995 6.29969978 255 255 255 -495.000000
2.21070004 5.28329992 6.27500010 255 255 255 209.000000
2.22539997 5.29150009 6.26119995 255 255 255 -79.000000
2.23900008 5.30030012 6.24919987 255 255 255 161.000000
2.25070000 5.31010008 6.24009991 255 255 255 369.000000
2.25710011 5.32210016 6.23880005 255 255 255 17.000000
2.26370001 5.33400011 6.23710012 255 255 255 81.000000
2.26979995 5.34649992 6.23649979 255 255 255 993.000000
2.27539992 5.35869980 6.23640013 255 255 255 289.000000
2.27690005 5.37309980 6.24249983 255 255 255 273.000000
2.27729988 5.38810015 6.25029993 255 255 255 273.000000
2.27909994 5.40199995 6.25579977 255 255 255 993.000000
2.27740002 5.41769981 6.26669979 255 255 255 1169.000000
2.27460003 5.43440008 6.27960014 255 255 255 1649.000000
2.26900005 5.45209980 6.29650021 255 255 255 1265.000000
2.25830007 5.47240019 6.32100010 255 255 255 1441.000000
2.24320006 5.49499989 6.35220003 255 255 255 1361.000000
2.20910001 5.52670002 6.41179991 255 255 255 785.000000
2.16560006 5.27190018 6.28840017 255 255 255 -399.000000
2.19370008 5.27530003 6.25570011 255 255 255 -447.000000
2.21479988 5.28149986 6.23309994 255 255 255 353.000000
2.22919989 5.28980017 6.21990013 255 255 255 161.000000
2.23970008 5.30000019 6.21250010 255 255 255 625.000000
2.25040007 5.31029987 6.20489979 255 255 255 337.000000
2.25819993 5.32159996 6.20139980 255 255 255 65.000000
2.26559997 5.33309984 6.19859982 255 255 255 193.000000
2.27049994 5.34609985 6.19969988 255 255 255 273.000000
2.27440000 5.35909986 6.20209980 255 255 255 561.000000
2.27460003 5.37410021 6.21010017 255 255 255 321.000000
2.27659988 5.38829994 6.21540022 255 255 255 689.000000
2.27710009 5.40290022 6.22289991 255 255 255 1073.000000
2.27539992 5.41860008 6.23369980 255 255 255 1073.000000
2.27169991 5.43569994 6.24790001 255 255 255 1393.000000
2.26609993 5.45340014 6.26459980 255 255 255 1505.000000
2.25419998 5.47429991 6.29080009 255 255 255 1233.000000
2.23550010 5.49870014 6.32730007 255 255 255 1153.000000
2.13540006 5.26980019 6.28830004 255 255 255 -543.000000
2.17359996 5.26849985 6.24079990 255 255 255 -191.000000
2.19849992 5.27330017 6.21299982 255 255 255 -351.000000
2.21709991 5.28049994 6.19409990 255 255 255 -143.000000
2.22979999 5.28950024 6.18340015 255 255 255 33.000000
2.24140000 5.29920006 6.17430019 255 255 255 753.000000
2.25110006 5.30989981 6.16830015 255 255 255 241.000000
2.25850010 5.32140017 6.16550016 255 255 255 81.000000
2.26519990 5.33319998 6.16359997 255 255 255 609.000000
2.26950002 5.34649992 6.16569996 255 255 255 273.000000
2.27399993 5.35930014 6.16720009 255 255 255 561.000000
2.27440000 5.37410021 6.17479992 255 255 255 529.000000
2.27460003 5.38920021 6.18270016 255 255 255 769.000000
2.27489996 5.40380001 6.19049978 255 255 255 1201.000000
2.27340007 5.41949987 6.20100021 255 255 255 1009.000000
2.26769996 5.43760014 6.21799994 255 255 255 1329.000000
2.26300001 5.45480013 6.23330021 255 255 255 1585.000000
2.25040007 5.47599983 6.26039982 255 255 255 1553.000000
2.22280002 5.50470018 6.30980015 255 255 255 1217.000000
2.14809990 5.26450014 6.23420000 255 255 255 -543.000000
2.18070006 5.26550007 6.19509983 255 255 255 -127.000000
2.20490003 5.27050018 6.16820002 255 255 255 305.000000
2.21849990 5.27990007 6.15660000 255 255 255 65.000000
2.23189998 5.28859997 6.14489985 255 255 255 369.000000
2.24250007 5.29869986 6.13749981 255 255 255 945.000000
2.25110006 5.30989981 6.13299990 255 255 255 1.000000
2.25869989 5.32130003 6.12979984 255 255 255 657.000000
2.26469994 5.33339977 6.12900019 255 255 255 545.000000
2.26950002 5.34649992 6.13040018 255 255 255 -111.000000
2.27169991 5.36019993 6.13509989 255 255 255 785.000000
2.27460003 5.37400007 6.13910007 255 255 255 513.000000
2.27370000 5.38950014 6.14870024 255 255 255 593.000000
2.27300000 5.40469980 6.15789986 255 255 255 1313.000000
2.27049994 5.42070007 6.16970015 255 255 255 1473.000000
2.26440001 5.43900013 6.18720007 255 255 255 1601.000000
2.25850010 5.45679998 6.20429993 255 255 255 1553.000000
2.24519992 5.47830009 6.23210001 255 255 255 1457.000000
2.21550012 5.50810003 6.28439999 255 255 255 929.000000
2.16050005 5.25920010 6.18090010 255 255 255 -511.000000
2.18440008 5.26389980 6.15439987 255 255 255 -271.000000
2.20919991 5.26859999 6.12680006 255 255 255 129.000000
2.22110009 5.27869987 6.11770010 255 255 255 -95.000000
2.23379993 5.28770018 6.10710001 255 255 255 273.000000
2.24169993 5.29909992 6.10349989 255 255 255 673.000000
2.25209999 5.30940008 6.09639978 255 255 255 225.000000
2.26180005 5.31990004 6.09040022 255 255 255 561.000000
2.26699996 5.33230019 6.09070015 255 255 255 625.000000
2.27090001 5.34579992 6.09329987 255 255 255 353.000000
2.27340007 5.35939980 6.09759998 255 255 255 769.000000
2.27290010 5.37470007 6.10640001 255 255 255 657.000000
2.27279997 5.38990021 6.11479998 255 255 255 753.000000
2.27130008 5.40530014 6.12500000 255 255 255 1457.000000
2.26810002 5.42180014 6.13789988 255 255 255 1297.000000
2.26189995 5.44010019 6.15549994 255 255 255 1361.000000
2.25349998 5.45909977 6.17589998 255 255 255 1473.000000
2.23779988 5.48180008 6.20739985 255 255 255 1409.000000
2.20510006 5.51300001 6.26380014 255 255 255 -1087.000000
2.12479997 5.25899982 6.18870020 255 255 255 -623.000000
2.16810012 5.25589991 6.13479996 255 255 255 -511.000000
2.19190001 5.26070023 6.10860014 255 255 255 -159.000000
2.21040010 5.26809978 6.09009981 255 255 255 33.000000
2.22449994 5.27720022 6.07789993 255 255 255 129.000000
2.23530006 5.28700018 6.07009983 255 255 255 337.000000
2.24390006 5.29809999 6.06549978 255 255 255 513.000000
2.25659990 5.30730009 6.05509996 255 255 255 273.000000
2.26209998 5.31969976 6.05509996 255 255 255 33.000000
2.26539993 5.33300018 6.05819988 255 255 255 817.000000
2.27130008 5.34560013 6.05789995 255 255 255 113.000000
2.27209997 5.35990000 6.06449986 255 255 255 673.000000
2.27340007 5.37440014 6.07079983 255 255 255 545.000000
2.27329993 5.38959980 6.07919979 255 255 255 369.000000
2.27010012 5.40590000 6.09180021 255 255 255 1441.000000
2.26600003 5.42269993 6.10589981 255 255 255 1569.000000
2.25959992 5.44110012 6.12360001 255 255 255 1553.000000
2.24959993 5.46089983 6.14639997 255 255 255 1425.000000
2.22880006 5.48600006 6.18489981 255 255 255 1393.000000
2.14529991 5.25040007 6.12449980 255 255 255 -223.000000
2.17449999 5.25330019 6.09089994 255 255 255 -399.000000
2.19950008 5.25740004 6.06300020 255 255 255 273.000000
2.21210003 5.26739979 6.05310011 255 255 255 241.000000
2.22580004 5.27659988 6.04139996 255 255 255 529.000000
2.23440003 5.28739977 6.03669977 255 255 255 529.000000
2.24489999 5.29759979 6.02950001 255 255 255 241.000000
2.25279999 5.30900002 6.02589989 255 255 255 129.000000
2.26200008 5.31969976 6.02059984 255 255 255 753.000000
2.26690006 5.33230019 6.02150011 255 255 255 737.000000
2.27160001 5.34539986 6.02279997 255 255 255 385.000000
2.27279997 5.35960007 6.02899981 255 255 255 161.000000
2.27270007 5.37470007 6.03719997 255 255 255 961.000000
2.27180004 5.39020014 6.04650021 255 255 255 833.000000
2.26780009 5.40689993 6.06040001 255 255 255 1521.000000
2.26430011 5.42339993 6.07340002 255 255 255 1537.000000
2.25699997 5.44229984 6.09240007 255 255 255 1585.000000
2.24519992 5.46290016 6.11770010 255 255 255 1473.000000
2.22119999 5.48950005 6.16060019 255 255 255 865.000000
2.10859990 5.25059986 6.13350010 255 255 255 -831.000000
2.15300012 5.24709988 6.07880020 255 255 255 -111.000000
2.18280005 5.24970007 6.04440022 255 255 255 273.000000
2.19819999 5.25790024 6.03020000 255 255 255 81.000000
2.21280003 5.26700020 6.01760006 255 255 255 33.000000
2.22569990 5.27670002 6.00710011 255 255 255 753.000000
2.23850012 5.28560019 5.99639988 255 255 255 497.000000
2.24620008 5.29699993 5.99319983 255 255 255 97.000000
2.25489998 5.30800009 5.98859978 255 255 255 129.000000
2.25880003 5.32110023 5.99090004 255 255 255 1313.000000
2.26670003 5.33239985 5.98740005 255 255 255 305.000000
2.26920009 5.34639978 5.99179983 255 255 255 913.000000
2.27209997 5.35979986 5.99550009 255 255 255 417.000000
2.27259994 5.37470007 6.00290012 255 255 255 897.000000
2.27080011 5.39069986 6.01359987 255 255 255 1281.000000
2.26650000 5.40740013 6.02759981 255 255 255 1313.000000
2.26119995 5.42479992 6.04320002 255 255 255 1537.000000
2.25250006 5.44430017 6.06400013 255 255 255 1601.000000
2.23970008 5.46540022 6.09070015 255 255 255 1377.000000
2.20420003 5.49760008 6.14989996 255 255 255 705.000000
2.11929989 5.24609995 6.08360004 255 255 255 33.000000
2.15829992 5.24490023 6.03679991 255 255 255 -79.000000
2.18549991 5.24860001 6.00629997 255 255 255 65.000000
2.20129991 5.25659990 5.99149990 255 255 255 49.000000
2.21560001 5.26580000 5.97919989 255 255 255 673.000000
2.22740006 5.27589989 5.97049999 255 255 255 593.000000
2.23589993 5.28669977 5.96589994 255 255 255 529.000000
2.24569988 5.29720020 5.95970011 255 255 255 673.000000
2.25180006 5.30940008 5.95879984 255 255 255 433.000000
2.26079988 5.32019997 5.95389986 255 255 255 513.000000
2.26419997 5.33339977 5.95669985 255 255 255 1169.000000
2.26760006 5.34709978 5.95989990 255 255 255 145.000000
2.26889992 5.36119986 5.96579981 255 255 255 721.000000
2.26939988 5.37610006 5.97319984 255 255 255 977.000000
2.26799989 5.39190006 5.98320007 255 255 255 1345.000000
2.26309991 5.40889978 5.99800014 255 255 255 1825.000000
2.25909996 5.42570019 6.01179981 255 255 255 1633.000000
2.24939990 5.44570017 6.03389978 255 255 255 1649.000000
2.23379993 5.46810007 6.06440020 255 255 255 1137.000000
2.19689989 5.50099993 6.12540007 255 255 255 -2047.000000
2.12960005 5.24179983 6.03480005 255 255 255 -127.000000
2.16380000 5.24259996 5.99480009 255 255 255 -271.000000
2.18670011 5.24800014 5.97039986 255 255 255 -47.000000
2.20359993 5.25559998 5.95419979 255 255 255 1.000000
2.21729994 5.26510000 5.94290018 255 255 255 289.000000
2.23009992 5.27470016 5.93260002 255 255 255 369.000000
2.23790002 5.28579998 5.92910004 255 255 255 49.000000
2.24629998 5.29689980 5.92490005 255 255 255 673.000000
2.25250006 5.30900002 5.92390013 255 255 255 497.000000
2.25920010 5.32079983 5.92210007 255 255 255 753.000000
2.26510000 5.33300018 5.92150021 255 255 255 353.000000
2.26830006 5.34670019 5.92500019 255 255 255 529.000000
2.26889992 5.36119986 5.93190002 255 255 255 945.000000
2.26789999 5.37669992 5.94129992 255 255 255 1313.000000
2.26530004 5.39309978 5.95300007 255 255 255 1441.000000
2.26079988 5.40990019 5.96719980 255 255 255 1601.000000
2.25629997 5.42689991 5.98150015 255 255 255 1505.000000
2.24379992 5.44829988 6.00759983 255 255 255 1553.000000
2.22530007 5.47200012 6.04180002 255 255 255 1297.000000
2.14310002 5.23610020 5.98190022 255 255 255 -239.000000
2.17170000 5.23920012 5.94969988 255 255 255 321.000000
2.19009995 5.24660015 5.93170023 255 255 255 81.000000
2.20589995 5.25460005 5.91709995 255 255 255 113.000000
2.21900010 5.26429987 5.90670013 255 255 255 609.000000
2.22989988 5.27479982 5.89919996 255 255 255 801.000000
2.23930001 5.28520012 5.89340019 255 255 255 321.000000
2.24600005 5.29699993 5.89160013 255 255 255 385.000000
2.25329995 5.30870008 5.88899994 255 255 255 417.000000
2.25769997 5.32140017 5.89039993 255 255 255 1025.000000
2.26270008 5.33400011 5.89120007 255 255 255 353.000000
2.26609993 5.34770012 5.89419985 255 255 255 1089.000000
2.26650000 5.36219978 5.90140009 255 255 255 1329.000000
2.26430011 5.37830019 5.91239977 255 255 255 1825.000000
2.26290011 5.39410019 5.92240000 255 255 255 1425.000000
2.25780010 5.41120005 5.93739986 255 255 255 1489.000000
2.25130010 5.42920017 5.95440006 255 255 255 1281.000000
2.23790002 5.45100021 5.98169994 255 255 255 1297.000000
2.21810007 5.47539997 6.01779985 255 255 255 1473.000000
2.10800004 5.23579979 5.98880005 255 255 255 -799.000000
2.14899993 5.23369980 5.93979979 255 255 255 33.000000
2.17600012 5.23740005 5.90990019 255 255 255 177.000000
2.19390011 5.24499989 5.89279985 255 255 255 225.000000
2.20799994 5.25369978 5.88059998 255 255 255 241.000000
2.22049999 5.26370001 5.87099981 255 255 255 529.000000
2.22989988 5.27470016 5.86549997 255 255 255 385.000000
2.23850012 5.28550005 5.86089993 255 255 255 705.000000
2.24429989 5.29769993 5.86040020 255 255 255 401.000000
2.25079989 5.30970001 5.85890007 255 255 255 1201.000000
2.25720000 5.32170010 5.85760021 255 255 255 609.000000
2.25959992 5.33540010 5.86189985 255 255 255 353.000000
2.26279998 5.34910011 5.86530018 255 255 255 705.000000
2.26480007 5.36289978 5.87010002 255 255 255 1361.000000
2.26239991 5.37909985 5.88129997 255 255 255 1649.000000
2.25999999 5.39540005 5.89270020 255 255 255 1553.000000
2.25390005 5.41300011 5.90899992 255 255 255 1729.000000
2.24410009 5.43249989 5.93060017 255 255 255 1697.000000
2.23090005 5.45419979 5.95739985 255 255 255 1729.000000
2.20370007 5.48220015 6.00369978 255 255 255 1377.000000
2.11170006 5.23430014 5.94990015 255 255 255 -351.000000
2.15470004 5.23129988 5.89830017 255 255 255 193.000000
2.17910004 5.23610020 5.87220001 255 255 255 -15.000000
2.19749999 5.24350023 5.85440016 255 255 255 81.000000
2.21079993 5.25250006 5.84340000 255 255 255 769.000000
2.22230005 5.26289988 5.83510017 255 255 255 65.000000
2.23259997 5.27349997 5.82840014 255 255 255 193.000000
2.23930001 5.28509998 5.82649994 255 255 255 513.000000
2.24539995 5.29720020 5.82550001 255 255 255 497.000000
2.24869990 5.31059980 5.82849979 255 255 255 1425.000000
2.25430012 5.32289982 5.82840014 255 255 255 497.000000
2.25830007 5.33589983 5.83029985 255 255 255 737.000000
2.26040006 5.35010004 5.83519983 255 255 255 1025.000000
2.25799990 5.36600018 5.84619999 255 255 255 1873.000000
2.25999999 5.38019991 5.85129976 255 255 255 1601.000000
2.25620008 5.39709997 5.86450005 255 255 255 1457.000000
2.24880004 5.41529989 5.88250017 255 255 255 1729.000000
2.23920012 5.43480015 5.90390015 255 255 255 1265.000000
2.21849990 5.45989990 5.94080019 255 255 255 1617.000000
2.19300008 5.48710012 5.98449993 255 255 255 1121.000000
2.12709999 5.22790003 5.89510012 255 255 255 -511.000000
2.16100001 5.22870016 5.85620022 255 255 255 33.000000
2.18309999 5.23439980 5.83339977 255 255 255 -175.000000
2.20070004 5.24209976 5.81669998 255 255 255 129.000000
2.21250010 5.25180006 5.80779982 255 255 255 305.000000
2.22370005 5.26219988 5.80000019 255 255 255 433.000000
2.23070002 5.27440023 5.79790020 255 255 255 353.000000
2.23779988 5.28569984 5.79540014 255 255 255 417.000000
2.24390006 5.29790020 5.79449987 255 255 255 673.000000
2.24920011 5.31040001 5.79470015 255 255 255 449.000000
2.25180006 5.32399988 5.79860020 255 255 255 321.000000
2.25519991 5.33729982 5.80149984 255 255 255 657.000000
2.25780010 5.35129976 5.80569983 255 255 255 1089.000000
2.25609994 5.36679983 5.81559992 255 255 255 1777.000000
2.25620008 5.38189983 5.82329988 255 255 255 1665.000000
2.25049996 5.39960003 5.83900023 255 255 255 1777.000000
2.24320006 5.41779995 5.85680008 255 255 255 1841.000000
2.23309994 5.43750000 5.87869978 255 255 255 1265.000000
2.20260000 5.46740007 5.92920017 255 255 255 1457.000000
2.18050003 5.49300003 5.96789980 255 255 255 -2047.000000
2.13919997 5.22289991 5.84539986 255 255 255 -287.000000
2.16729999 5.22609997 5.81440020 255 255 255 241.000000
2.18580008 5.23330021 5.79659986 255 255 255 49.000000
2.20210004 5.24149990 5.78179979 255 255 255 417.000000
2.21269989 5.25169992 5.77449989 255 255 255 289.000000
2.22239995 5.26280022 5.76879978 255 255 255 1057.000000
2.23189998 5.27379990 5.76329994 255 255 255 353.000000
2.23790002 5.28569984 5.76240015 255 255 255 513.000000
2.24390006 5.29780006 5.76160002 255 255 255 897.000000
2.24780011 5.31099987 5.76370001 255 255 255 241.000000
2.25000000 5.32480001 5.76809978 255 255 255 945.000000
2.25289989 5.33830023 5.77159977 255 255 255 897.000000
2.25410008 5.35290003 5.77780008 255 255 255 1713.000000
2.25419998 5.36759996 5.78509998 255 255 255 1425.000000
2.25130010 5.38409996 5.79689980 255 255 255 1393.000000
2.24499989 5.40210009 5.81339979 255 255 255 1729.000000
2.23510003 5.42159986 5.83479977 255 255 255 1969.000000
2.22659993 5.44049978 5.85440016 255 255 255 1313.000000
2.18560004 5.47529984 5.91900015 255 255 255 993.000000
2.10299993 5.22300005 5.85389996 255 255 255 -767.000000
2.14730000 5.21960020 5.80140018 255 255 255 -47.000000
2.17070007 5.22459984 5.77689981 255 255 255 1.000000
2.18770003 5.23250008 5.76109982 255 255 255 353.000000
2.20390010 5.24069977 5.74650002 255 255 255 161.000000
2.21460009 5.25080013 5.73909998 255 255 255 369.000000
2.22329998 5.26240015 5.73490000 255 255 255 865.000000
2.23149991 5.27400017 5.73120022 255 255 255 417.000000
2.23699999 5.28609991 5.73080015 255 255 255 961.000000
2.24239993 5.29850006 5.73089981 255 255 255 913.000000
2.24799991 5.32560015 5.73799992 255 255 255 401.000000
2.25099993 5.33909988 5.74149990 255 255 255 1137.000000
2.25289989 5.35340023 5.74660015 255 255 255 1521.000000
2.25099993 5.36899996 5.75659990 255 255 255 1425.000000
2.24760008 5.38570023 5.76900005 255 255 255 1473.000000
2.24040008 5.40420008 5.78669977 255 255 255 1425.000000
2.23149991 5.42309999 5.80649996 255 255 255 1521.000000
2.21460009 5.44610023 5.83760023 255 255 255 1617.000000
2.17000008 5.48260021 5.90700006 255 255 255 -1727.000000
2.11980009 5.21610022 5.79820013 255 255 255 -143.000000
2.15109992 5.21799994 5.76329994 255 255 255 465.000000
2.17449999 5.22300005 5.73899984 255 255 255 209.000000
2.19210005 5.23070002 5.72259998 255 255 255 513.000000
2.20499992 5.24020004 5.71239996 255 255 255 225.000000
2.21519995 5.25059986 5.70569992 255 255 255 449.000000
2.22449994 5.26189995 5.70069981 255 255 255 689.000000
2.23090005 5.27419996 5.69950008 255 255 255 417.000000
2.23760009 5.28579998 5.69750023 255 255 255 689.000000
2.24210000 5.29860020 5.69880009 255 255 255 449.000000
2.24559999 5.31190014 5.70139980 255 255 255 353.000000
2.24659991 5.32620001 5.70739985 255 255 255 449.000000
2.24850011 5.34019995 5.71220016 255 255 255 993.000000
2.25029993 5.35459995 5.71750021 255 255 255 1393.000000
2.24769998 5.37050009 5.72849989 255 255 255 1905.000000
2.24289989 5.38780022 5.74270010 255 255 255 1457.000000
2.23469996 5.40679979 5.76160002 255 255 255 1457.000000
2.22329998 5.42689991 5.78490019 255 255 255 1681.000000
2.19709992 5.45419979 5.82840014 255 255 255 1425.000000
2.12800002 5.21269989 5.75439978 255 255 255 -383.000000
2.15689993 5.21560001 5.72300005 255 255 255 -111.000000
2.17740011 5.22179985 5.70260000 255 255 255 225.000000
2.19260001 5.23040009 5.68940020 255 255 255 209.000000
2.20600009 5.23979998 5.67869997 255 255 255 513.000000
2.21790004 5.24940014 5.66979980 255 255 255 513.000000
2.22539997 5.26149988 5.66720009 255 255 255 577.000000
2.23189998 5.27379990 5.66569996 255 255 255 433.000000
2.23830009 5.28539991 5.66419983 255 255 255 929.000000
2.24270010 5.29820013 5.66550016 255 255 255 321.000000
2.24370003 5.31269979 5.67159986 255 255 255 305.000000
2.24740005 5.32579994 5.67379999 255 255 255 593.000000
2.24769998 5.34049988 5.68090010 255 255 255 1169.000000
2.24769998 5.35570002 5.68849993 255 255 255 1345.000000
2.24589992 5.37130022 5.69840002 255 255 255 1233.000000
2.23970008 5.38920021 5.71449995 255 255 255 1745.000000
2.23130012 5.40829992 5.73350000 255 255 255 1681.000000
2.21530008 5.43060017 5.76280022 255 255 255 1521.000000
2.16899991 5.46729994 5.83349991 255 255 255 1185.000000
2.13350010 5.21040010 5.71449995 255 255 255 -319.000000
2.16020012 5.21420002 5.68620014 255 255 255 -31.000000
2.17910004 5.22109985 5.66800022 255 255 255 33.000000
2.19510007 5.22940016 5.65390015 255 255 255 17.000000
2.20720005 5.23929977 5.64489985 255 255 255 289.000000
2.21740007 5.24959993 5.63829994 255 255 255 273.000000
2.22519994 5.26149988 5.63520002 255 255 255 689.000000
2.23219991 5.27360010 5.63320017 255 255 255 897.000000
2.23889995 5.28520012 5.63129997 255 255 255 657.000000
2.24169993 5.29869986 5.63469982 255 255 255 785.000000
2.24460006 5.31230021 5.63819981 255 255 255 321.000000
2.24749994 5.32569981 5.64150000 255 255 255 657.000000
2.24720001 5.34070015 5.64930010 255 255 255 1297.000000
2.24580002 5.35650015 5.65880013 255 255 255 1825.000000
2.24300003 5.37249994 5.66989994 255 255 255 1201.000000
2.23690009 5.39050007 5.68580008 255 255 255 1713.000000
2.22569990 5.41079998 5.70860004 255 255 255 1505.000000
2.20539999 5.43510008 5.74350023 255 255 255 1473.000000
2.10470009 5.20699978 5.71309996 255 255 255 -559.000000
2.14260006 5.20669985 5.67019987 255 255 255 1.000000
2.16319990 5.21299982 5.65000010 255 255 255 -31.000000
2.18179989 5.21999979 5.63229990 255 255 255 17.000000
2.19980001 5.22739983 5.61560011 255 255 255 225.000000
2.21040010 5.23789978 5.60860014 255 255 255 113.000000
2.22110009 5.24800014 5.60139990 255 255 255 545.000000
2.22749996 5.26060009 5.60029984 255 255 255 401.000000
2.23370004 5.27299976 5.59919977 255 255 255 401.000000
2.23970008 5.28480005 5.59829998 255 255 255 961.000000
2.24289989 5.29809999 5.60109997 255 255 255 369.000000
2.24530005 5.31190014 5.60519981 255 255 255 849.000000
2.24650002 5.32609987 5.61079979 255 255 255 1393.000000
2.24309993 5.34250021 5.62270021 255 255 255 849.000000
2.24289989 5.35769987 5.63049984 255 255 255 1697.000000
2.24169993 5.37309980 5.63950014 255 255 255 1761.000000
2.23370004 5.39179993 5.65780020 255 255 255 1361.000000
2.22199988 5.41249990 5.68120003 255 255 255 1345.000000
2.19309998 5.44070005 5.72749996 255 255 255 1569.000000
2.11279988 5.20370007 5.67010021 255 255 255 -447.000000
2.14439988 5.20599985 5.63579988 255 255 255 257.000000
2.16869998 5.21070004 5.61079979 255 255 255 -15.000000
2.18790007 5.21740007 5.59240007 255 255 255 -47.000000
2.20140004 5.22679996 5.58169985 255 255 255 193.000000
2.21309996 5.23680019 5.57329988 255 255 255 977.000000
2.22259998 5.24739981 5.56769991 255 255 255 129.000000
2.23140001 5.25890017 5.56339979 255 255 255 529.000000
2.23760009 5.27129984 5.56239986 255 255 255 161.000000
2.24140000 5.28399992 5.56430006 255 255 255 273.000000
2.24270010 5.29820013 5.56969976 255 255 255 417.000000
2.24460006 5.31220007 5.57439995 255 255 255 273.000000
2.24629998 5.32620001 5.57929993 255 255 255 1393.000000
2.24510002 5.34149981 5.58820009 255 255 255 1281.000000
2.24300003 5.35769987 5.59849977 255 255 255 1601.000000
2.23830009 5.37459993 5.61210012 255 255 255 1489.000000
2.23099995 5.39300013 5.62930012 255 255 255 1665.000000
2.21659994 5.41489983 5.65619993 255 255 255 1345.000000
2.18099999 5.44630003 5.71140003 255 255 255 945.000000
2.12159991 5.20009995 5.62659979 255 255 255 -383.000000
2.15300012 5.20249987 5.59270000 255 255 255 -31.000000
2.17569995 5.20779991 5.56990004 255 255 255 465.000000
2.19280005 5.21540022 5.55429983 255 255 255 65.000000
2.20670009 5.22450018 5.54309988 255 255 255 193.000000
2.21799994 5.23470020 5.53529978 255 255 255 545.000000
2.22499990 5.24630022 5.53289986 255 255 255 257.000000
2.23399997 5.25769997 5.52839994 255 255 255 401.000000
2.24060011 5.26989985 5.52680016 255 255 255 321.000000
2.24359989 5.28299999 5.52979994 255 255 255 513.000000
2.24349999 5.29780006 5.53700018 255 255 255 401.000000
2.24510002 5.31199980 5.54220009 255 255 255 497.000000
2.24550009 5.32649994 5.54879999 255 255 255 1217.000000
2.24370003 5.34210014 5.55840015 255 255 255 1745.000000
2.24289989 5.35769987 5.56689978 255 255 255 1489.000000
2.23810005 5.37459993 5.58059978 255 255 255 1377.000000
2.22919989 5.39379978 5.59980011 255 255 255 1393.000000
2.21269989 5.41669989 5.62939978 255 255 255 1393.000000
2.08660007 5.19990015 5.63369989 255 255 255 -863.000000
2.13150001 5.19610023 5.58199978 255 255 255 17.000000
2.15919995 5.19990015 5.55299997 255 255 255 -303.000000
2.18179989 5.20529985 5.53039980 255 255 255 321.000000
2.19819999 5.21320009 5.51580000 255 255 255 433.000000
2.21110010 5.22270012 5.50600004 255 255 255 305.000000
2.22239995 5.23280001 5.49819994 255 255 255 689.000000
2.22909999 5.24459982 5.49630022 255 255 255 481.000000
2.23659992 5.25659990 5.49359989 255 255 255 449.000000
2.24009991 5.27010012 5.49620008 255 255 255 1121.000000
2.24429989 5.28270006 5.49749994 255 255 255 609.000000
2.24640012 5.29650021 5.50180006 255 255 255 305.000000
2.24769998 5.31080008 5.50729990 255 255 255 417.000000
2.24550009 5.32649994 5.51739979 255 255 255 769.000000
2.24329996 5.34229994 5.52740002 255 255 255 1537.000000
2.24110007 5.35839987 5.53770018 255 255 255 1553.000000
2.23620009 5.37550020 5.55149984 255 255 255 1473.000000
2.22670007 5.39489985 5.57140017 255 255 255 1521.000000
2.20740008 5.41900015 5.60449982 255 255 255 1601.000000
2.10139990 5.19390011 5.58279991 255 255 255 -143.000000
2.14109993 5.19210005 5.53800011 255 255 255 145.000000
2.16669989 5.19680023 5.51189995 255 255 255 241.000000
2.18449998 5.20419979 5.49560022 255 255 255 -111.000000
2.20040011 5.21220016 5.48169994 255 255 255 161.000000
2.21239996 5.22209978 5.47300005 255 255 255 433.000000
2.22280002 5.23260021 5.46649981 255 255 255 497.000000
2.23049998 5.24399996 5.46330023 255 255 255 465.000000
2.23749995 5.25619984 5.46140003 255 255 255 257.000000
2.24219990 5.26919985 5.46229982 255 255 255 657.000000
2.24640012 5.28179979 5.46369982 255 255 255 1.000000
2.24740005 5.29600000 5.46939993 255 255 255 897.000000
2.24799991 5.31059980 5.47559977 255 255 255 961.000000
2.24419999 5.32700014 5.48769999 255 255 255 1505.000000
2.24469995 5.34159994 5.49420023 255 255 255 1089.000000
2.23839998 5.35960007 5.50990009 255 255 255 1825.000000
2.23499990 5.37589979 5.52159977 255 255 255 1649.000000
2.22650003 5.39489985 5.54010010 255 255 255 1649.000000
2.20140004 5.42180014 5.58069992 255 255 255 1505.000000
2.11120009 5.19000006 5.53859997 255 255 255 -271.000000
2.14619994 5.19010019 5.50019979 255 255 255 17.000000
2.16989994 5.19549990 5.47660017 255 255 255 49.000000
2.18930006 5.20219994 5.45830011 255 255 255 513.000000
2.20519996 5.21029997 5.44460011 255 255 255 337.000000
2.22620010 5.23120022 5.43120003 255 255 255 513.000000
2.23370004 5.24259996 5.42819977 255 255 255 481.000000
2.23880005 5.25559998 5.42880011 255 255 255 801.000000
2.24200010 5.26929998 5.43160009 255 255 255 769.000000
2.24569988 5.28210020 5.43359995 255 255 255 1505.000000
2.24589992 5.29670000 5.44029999 255 255 255 1249.000000
2.24460006 5.31209993 5.44910002 255 255 255 1233.000000
2.24440002 5.32690001 5.45639992 255 255 255 1057.000000
2.24119997 5.34310007 5.46770000 255 255 255 1745.000000
2.23889995 5.35930014 5.47800016 255 255 255 1425.000000
2.23440003 5.37620020 5.49109983 255 255 255 1441.000000
2.22219992 5.39690018 5.51450014 255 255 255 1745.000000
2.19449997 5.42490005 5.55819988 255 255 255 1457.000000
2.12120008 5.18590021 5.49469995 255 255 255 -399.000000
2.15890002 5.18489981 5.45289993 255 255 255 161.000000
2.17930007 5.19169998 5.43359995 255 255 255 49.000000
2.19429994 5.20009995 5.42100000 255 255 255 465.000000
2.20819998 5.20900011 5.40990019 255 255 255 433.000000
2.21790004 5.21980000 5.40420008 255 255 255 513.000000
2.22799993 5.23040009 5.39799976 255 255 255 497.000000
2.23309994 5.24289989 5.39830017 255 255 255 577.000000
2.23880005 5.25559998 5.39799976 255 255 255 657.000000
2.24130011 5.26959991 5.40180016 255 255 255 1137.000000
2.24469995 5.28249979 5.40409994 255 255 255 337.000000
2.24469995 5.29720020 5.41109991 255 255 255 705.000000
2.24329996 5.31260014 5.41989994 255 255 255 833.000000
2.24320006 5.32740021 5.42710018 255 255 255 1121.000000
2.23959994 5.34380007 5.43879986 255 255 255 1505.000000
2.23839998 5.35949993 5.44759989 255 255 255 1505.000000
2.23370004 5.37650013 5.46099997 255 255 255 1537.000000
2.22149992 5.39720011 5.48420000 255 255 255 1633.000000
2.18670011 5.42840004 5.53700018 255 255 255 1265.000000
2.13680005 5.17959976 5.44379997 255 255 255 321.000000
2.15949988 5.18470001 5.42129993 255 255 255 129.000000
2.18140006 5.19080019 5.40019989 255 255 255 161.000000
2.19700003 5.19899988 5.38689995 255 255 255 385.000000
2.20830011 5.20889997 5.37909985 255 255 255 305.000000
2.21900010 5.21929979 5.37220001 255 255 255 1089.000000
2.22740006 5.23070002 5.36819983 255 255 255 865.000000
2.23200011 5.24329996 5.36910009 255 255 255 513.000000
2.23769999 5.25600004 5.36870003 255 255 255 673.000000
2.24219990 5.26910019 5.36990023 255 255 255 1041.000000
2.24429989 5.28259993 5.37400007 255 255 255 1233.000000
2.24280000 5.29799986 5.38290024 255 255 255 673.000000
2.24370003 5.31239986 5.38859987 255 255 255 577.000000
2.24200010 5.32789993 5.39790010 255 255 255 1137.000000
2.23839998 5.34429979 5.40959978 255 255 255 1585.000000
2.23589993 5.36059999 5.42000008 255 255 255 1585.000000
2.23090005 5.37769985 5.43370008 255 255 255 1617.000000
2.22259998 5.39659977 5.45170021 255 255 255 1345.000000
2.17740011 5.43270016 5.51770020 255 255 255 -191.000000
2.10310006 5.17799997 5.44880009 255 255 255 -95.000000
2.13770008 5.17929983 5.41190004 255 255 255 -63.000000
2.16560006 5.18219995 5.38290024 255 255 255 -15.000000
2.18429995 5.18959999 5.36600018 255 255 255 753.000000
2.19970012 5.19789982 5.35300016 255 255 255 193.000000
2.21199989 5.20739985 5.34399986 255 255 255 593.000000
2.22090006 5.21850014 5.33930016 255 255 255 721.000000
2.22889996 5.23000002 5.33589983 255 255 255 641.000000
2.23410010 5.24240017 5.33599997 255 255 255 433.000000
2.23909998 5.25549984 5.33659983 255 255 255 657.000000
2.24140000 5.26949978 5.34060001 255 255 255 833.000000
2.24239993 5.28350019 5.34600019 255 255 255 545.000000
2.24140000 5.29860020 5.35410023 255 255 255 673.000000
2.24289989 5.31269979 5.35920000 255 255 255 1169.000000
2.23939991 5.32900000 5.37060022 255 255 255 993.000000
2.23779988 5.34460020 5.37979984 255 255 255 1569.000000
2.23499990 5.36100006 5.39060020 255 255 255 1233.000000
2.22749996 5.37919998 5.40730000 255 255 255 1665.000000
2.21390009 5.40059996 5.43209982 255 255 255 1297.000000
2.11969995 5.17129993 5.39720011 255 255 255 33.000000
2.14420009 5.17659998 5.37309980 255 255 255 -79.000000
2.16680002 5.18170023 5.35099983 255 255 255 33.000000
2.18709993 5.18849993 5.33199978 255 255 255 769.000000
2.20250010 5.19680023 5.31909990 255 255 255 497.000000
2.21379995 5.20669985 5.31139994 255 255 255 113.000000
2.22140002 5.21829987 5.30849981 255 255 255 1265.000000
2.22909999 5.22989988 5.30539989 255 255 255 513.000000
2.23530006 5.24189997 5.30420017 255 255 255 433.000000
2.23970008 5.25519991 5.30550003 255 255 255 289.000000
2.24340010 5.26859999 5.30779982 255 255 255 881.000000
2.24079990 5.28410006 5.31780005 255 255 255 449.000000
2.24160004 5.29850006 5.32350016 255 255 255 401.000000
2.24090004 5.31360006 5.33129978 255 255 255 1521.000000
2.23920012 5.32910013 5.34049988 255 255 255 1201.000000
2.23370004 5.34630013 5.35440016 255 255 255 1089.000000
2.22939992 5.36350012 5.36719990 255 255 255 1873.000000
2.22250009 5.38140011 5.38310003 255 255 255 1649.000000
2.20289993 5.40549994 5.41540003 255 255 255 1793.000000
2.11689997 5.17250013 5.37020016 255 255 255 -79.000000
2.14840007 5.17500019 5.33750010 255 255 255 -15.000000
2.17160010 5.17980003 5.31470013 255 255 255 -95.000000
2.19190001 5.18650007 5.29580021 255 255 255 513.000000
2.20320010 5.19649982 5.28819990 255 255 255 497.000000
2.21379995 5.20660019 5.28130007 255 255 255 673.000000
2.22329998 5.21750021 5.27600002 255 255 255 849.000000
2.23060012 5.22930002 5.27349997 255 255 255 865.000000
2.23580003 5.24160004 5.27349997 255 255 255 641.000000
2.23810005 5.25579977 5.27750015 255 255 255 689.000000
2.24020004 5.26999998 5.28179979 255 255 255 577.000000
2.24049997 5.28429985 5.28809977 255 255 255 369.000000
2.24210000 5.29820013 5.29279995 255 255 255 673.000000
2.24169993 5.31320000 5.30019999 255 255 255 1345.000000
2.23769999 5.32969999 5.31209993 255 255 255 945.000000
2.23230004 5.34689999 5.32590008 255 255 255 1393.000000
2.22569990 5.36509991 5.34149981 255 255 255 1697.000000
2.21569991 5.38450003 5.36129999 255 255 255 1553.000000
2.19950008 5.40700006 5.38920021 255 255 255 1537.000000
2.08419991 5.17070007 5.37410021 255 255 255 -191.000000
2.12439990 5.16949987 5.33050013 255 255 255 193.000000
2.15510011 5.17229986 5.29890013 255 255 255 -351.000000
2.17799997 5.17719984 5.27659988 255 255 255 785.000000
2.19440007 5.18550014 5.26270008 255 255 255 -127.000000
2.20589995 5.19540024 5.25479984 255 255 255 145.000000
2.21560001 5.20590019 5.24910021 255 255 255 785.000000
2.22359991 5.21740007 5.24569988 255 255 255 545.000000
2.23130012 5.22900009 5.24280024 255 255 255 705.000000
2.23600006 5.24160004 5.24350023 255 255 255 817.000000
2.23920012 5.25540018 5.24639988 255 255 255 721.000000
2.24070001 5.26970005 5.25120020 255 255 255 497.000000
2.24219990 5.28350019 5.25589991 255 255 255 785.000000
2.24169993 5.29839993 5.26329994 255 255 255 1457.000000
2.23880005 5.31449986 5.27390003 255 255 255 1377.000000
2.23580003 5.33050013 5.28450012 255 255 255 1393.000000
2.23009992 5.34789991 5.29860020 255 255 255 1649.000000
2.22199988 5.36670017 5.31589985 255 255 255 1633.000000
2.20659995 5.38859987 5.34250021 255 255 255 1649.000000
2.19070005 5.41099977 5.36980009 255 255 255 1185.000000
2.09340000 5.16709995 5.33239985 255 255 255 -303.000000
2.13059998 5.16699982 5.29279995 255 255 255 257.000000
2.15969992 5.17040014 5.26329994 255 255 255 -303.000000
2.18309999 5.17509985 5.24039984 255 255 255 385.000000
2.19829988 5.18389988 5.22819996 255 255 255 241.000000
2.20749998 5.19469976 5.22310019 255 255 255 273.000000
2.21620011 5.20569992 5.21869993 255 255 255 1041.000000
2.22490001 5.21680021 5.21439981 255 255 255 625.000000
2.23160005 5.22889996 5.21269989 255 255 255 625.000000
2.23639989 5.24139977 5.21320009 255 255 255 689.000000
2.23869991 5.25559998 5.21729994 255 255 255 529.000000
2.24140000 5.26940012 5.22060013 255 255 255 833.000000
2.24280000 5.28319979 5.22539997 255 255 255 1233.000000
2.24130011 5.29850006 5.23400021 255 255 255 1313.000000
2.23830009 5.31470013 5.24459982 255 255 255 1409.000000
2.23420000 5.33120012 5.25649977 255 255 255 1313.000000
2.22770000 5.34889984 5.27159977 255 255 255 1313.000000
2.21679997 5.36899996 5.29239988 255 255 255 1713.000000
2.20210004 5.39060020 5.31799984 255 255 255 1697.000000
2.17619991 5.41760015 5.35780001 255 255 255 849.000000
2.10389996 5.16289997 5.28950024 255 255 255 -159.000000
2.14000010 5.16319990 5.25129986 255 255 255 -383.000000
2.16860008 5.16680002 5.22249985 255 255 255 -127.000000
2.18630004 5.17379999 5.20679998 255 255 255 113.000000
2.20169997 5.18249989 5.19439983 255 255 255 273.000000
2.21129990 5.19309998 5.18879986 255 255 255 385.000000
2.22090006 5.20370007 5.18340015 255 255 255 545.000000
2.22609997 5.21630001 5.18340015 255 255 255 369.000000
2.23420000 5.22779989 5.17999983 255 255 255 737.000000
2.23830009 5.24060011 5.18130016 255 255 255 705.000000
2.23959994 5.25519991 5.18660021 255 255 255 673.000000
2.24200010 5.26919985 5.19040012 255 255 255 705.000000
2.24270010 5.28319979 5.19600010 255 255 255 1521.000000
2.23950005 5.29930019 5.20660019 255 255 255 1057.000000
2.23499990 5.31610012 5.21899986 255 255 255 849.000000
2.23090005 5.33269978 5.23099995 255 255 255 1313.000000
2.22270012 5.35109997 5.24809980 255 255 255 1649.000000
2.21239996 5.37099981 5.26809978 255 255 255 1825.000000
2.19720006 5.39270020 5.29400015 255 255 255 1553.000000
2.17039990 5.42030001 5.33489990 255 255 255 -1871.000000
2.07290006 5.16079998 5.29139996 255 255 255 -735.000000
2.11220002 5.15959978 5.24940014 255 255 255 17.000000
2.14949989 5.15939999 5.21000004 255 255 255 -399.000000
2.17490005 5.16429996 5.18520021 255 255 255 721.000000
2.18919992 5.17259979 5.17379999 255 255 255 513.000000
2.20469999 5.18130016 5.16120005 255 255 255 305.000000
2.21329999 5.19229984 5.15700006 255 255 255 897.000000
2.22320008 5.20270014 5.15110016 255 255 255 481.000000
2.22919989 5.21500015 5.15019989 255 255 255 849.000000
2.23280001 5.22840023 5.15240002 255 255 255 1233.000000
2.23900008 5.24030018 5.15110016 255 255 255 865.000000
2.24189997 5.25419998 5.15430021 255 255 255 1361.000000
2.24210000 5.26910019 5.16079998 255 255 255 897.000000
2.24020004 5.28429985 5.16970015 255 255 255 897.000000
2.23819995 5.29979992 5.17869997 255 255 255 1185.000000
2.23379993 5.31659985 5.19089985 255 255 255 929.000000
2.22790003 5.33400011 5.20499992 255 255 255 1521.000000
2.21819997 5.35309982 5.22389984 255 255 255 1281.000000
2.20749998 5.37319994 5.24429989 255 255 255 1601.000000
2.18810010 5.39690018 5.27549982 255 255 255 1553.000000
2.08920002 5.15439987 5.24170017 255 255 255 -351.000000
2.12430000 5.15479994 5.20499992 255 255 255 257.000000
2.15849996 5.15579987 5.16949987 255 255 255 1.000000
2.17610002 5.16379976 5.15450001 255 255 255 625.000000
2.19099998 5.17189980 5.14230013 255 255 255 785.000000
2.20400000 5.18160009 5.13290024 255 255 255 273.000000
2.21320009 5.19239998 5.12790012 255 255 255 1105.000000
2.22199988 5.20330000 5.12340021 255 255 255 769.000000
2.22889996 5.21519995 5.12150002 255 255 255 737.000000
2.23469996 5.22760010 5.12080002 255 255 255 961.000000
2.23720002 5.24100018 5.12419987 255 255 255 849.000000
2.23920012 5.25530005 5.12839985 255 255 255 657.000000
2.24049997 5.26970005 5.13350010 255 255 255 1441.000000
2.24119997 5.28380013 5.13910007 255 255 255 1089.000000
2.23740005 5.30019999 5.15040016 255 255 255 1057.000000
2.23169994 5.31750011 5.16419983 255 255 255 1313.000000
2.22449994 5.33540010 5.17980003 255 255 255 1185.000000
2.21600008 5.35410023 5.19719982 255 255 255 1457.000000
2.20070004 5.37620020 5.22310019 255 255 255 1457.000000
2.17770004 5.40150023 5.25860023 255 255 255 1649.000000
2.09960008 5.15030003 5.19960022 255 255 255 353.000000
2.13010001 5.15250015 5.16849995 255 255 255 177.000000
2.16000009 5.15530014 5.13850021 255 255 255 273.000000
2.17930007 5.16249990 5.12139988 255 255 255 641.000000
2.19300008 5.17110014 5.11079979 255 255 255 545.000000
2.20469999 5.18130016 5.10290003 255 255 255 529.000000
2.21490002 5.19169998 5.09679985 255 255 255 689.000000
2.22250009 5.20300007 5.09380007 255 255 255 913.000000
2.22830009 5.21540022 5.09310007 255 255 255 785.000000
2.23289990 5.22830009 5.09399986 255 255 255 1329.000000
2.23490000 5.24200010 5.09789991 255 255 255 593.000000
2.23909998 5.25530005 5.09950018 255 255 255 833.000000
2.23950005 5.27019978 5.10559988 255 255 255 625.000000
2.23720002 5.28560019 5.11490011 255 255 255 609.000000
2.23600006 5.30079985 5.12300014 255 255 255 1681.000000
2.23049998 5.31799984 5.13649988 255 255 255 1473.000000
2.21970010 5.33760023 5.15649986 255 255 255 1409.000000
2.21000004 5.35680008 5.17519999 255 255 255 1793.000000
2.19580007 5.37839985 5.19969988 255 255 255 1569.000000
2.16129994 5.40899992 5.24919987 255 255 255 209.000000
2.07920003 5.14340019 5.18849993 255 255 255 -1951.000000
2.10509992 5.14820004 5.16359997 255 255 255 241.000000
2.13240004 5.15159988 5.13660002 255 255 255 -31.000000
2.16389990 5.15369987 5.10470009 255 255 255 225.000000
2.18099999 5.16179991 5.09030008 255 255 255 417.000000
2.19519997 5.17019987 5.07919979 255 255 255 513.000000
2.20530009 5.18109989 5.07340002 255 255 255 977.000000
2.21490002 5.19169998 5.06790018 255 255 255 641.000000
2.22140002 5.20349979 5.06629992 255 255 255 769.000000
2.22869992 5.21519995 5.06379986 255 255 255 1057.000000
2.23390007 5.22790003 5.06389999 255 255 255 817.000000
2.23460007 5.24209976 5.06939983 255 255 255 705.000000
2.23650002 5.25649977 5.07380009 255 255 255 1697.000000
2.23810005 5.27080011 5.07840014 255 255 255 1057.000000
2.23469996 5.28660011 5.08890009 255 255 255 1137.000000
2.23189998 5.30259991 5.09899998 255 255 255 1601.000000
2.22679996 5.31960011 5.11189985 255 255 255 1233.000000
2.21799994 5.33830023 5.12930012 255 255 255 1441.000000
2.20330000 5.35970020 5.15409994 255 255 255 1697.000000
2.18759990 5.38210011 5.18030024 255 255 255 1601.000000
2.07209992 5.14620018 5.16769981 255 255 255 97.000000
2.10850000 5.14690018 5.13030005 255 255 255 -335.000000
2.13989997 5.14860010 5.09849977 255 255 255 -191.000000
2.16589999 5.15290022 5.07340002 255 255 255 417.000000
2.18309999 5.16099977 5.05900002 255 255 255 289.000000
2.19619989 5.16989994 5.04930019 255 255 255 369.000000
2.20779991 5.17999983 5.04150009 255 255 255 737.000000
2.21539998 5.19150019 5.03859997 255 255 255 945.000000
2.22180009 5.20340014 5.03709984 255 255 255 513.000000
2.22659993 5.21610022 5.03770018 255 255 255 913.000000
2.23000002 5.22949982 5.03989983 255 255 255 737.000000
2.23370004 5.24249983 5.04180002 255 255 255 833.000000
2.23510003 5.25710011 5.04670000 255 255 255 1521.000000
2.23429990 5.27239990 5.05420017 255 255 255 1105.000000
2.23230004 5.28770018 5.06309986 255 255 255 1521.000000
2.23079991 5.30299997 5.07140017 255 255 255 1761.000000
2.22480011 5.32049990 5.08540010 255 255 255 1585.000000
2.21720004 5.33860016 5.10129976 255 255 255 1617.000000
2.19759989 5.36219978 5.13189983 255 255 255 1761.000000
2.17910004 5.38590002 5.16139984 255 255 255 1425.000000
2.07809997 5.14389992 5.13129997 255 255 255 1.000000
2.11520004 5.14419985 5.09329987 255 255 255 -287.000000
2.14610004 5.14620018 5.06220007 255 255 255 -63.000000
2.16890001 5.15170002 5.04110003 255 255 255 465.000000
2.18429995 5.16060019 5.02890015 255 255 255 865.000000
2.19689989 5.16960001 5.01980019 255 255 255 449.000000
2.20729995 5.18030024 5.01359987 255 255 255 737.000000
2.21409988 5.19199991 5.01160002 255 255 255 1409.000000
2.22160006 5.20340014 5.00869989 255 255 255 609.000000
2.22620010 5.21630001 5.00950003 255 255 255 1057.000000
2.22909999 5.22989988 5.01249981 255 255 255 1345.000000
2.23070002 5.24380016 5.01690006 255 255 255 881.000000
2.23270011 5.25810003 5.02099991 255 255 255 1073.000000
2.23029995 5.27409983 5.03049994 255 255 255 1041.000000
2.22650003 5.29020023 5.04139996 255 255 255 1937.000000
2.22420001 5.30590010 5.05070019 255 255 255 1633.000000
2.21650004 5.32420015 5.06669998 255 255 255 1809.000000
2.20830011 5.34250021 5.08309984 255 255 255 1537.000000
2.19420004 5.36369991 5.10699987 255 255 255 1857.000000
2.16689992 5.39130020 5.14709997 255 255 255 1249.000000
2.08610010 5.14080000 5.09289980 255 255 255 1.000000
2.12529993 5.14020014 5.05240011 255 255 255 -63.000000
2.15170002 5.14400005 5.02689981 255 255 255 257.000000
2.17219996 5.15040016 5.00860023 255 255 255 33.000000
2.18689990 5.15950012 4.99730015 255 255 255 625.000000
2.19899988 5.16870022 4.98880005 255 255 255 545.000000
2.20790005 5.17999983 4.98449993 255 255 255 -15.000000
2.21499991 5.19169998 4.98210001 255 255 255 1537.000000
2.22160006 5.20340014 4.98040009 255 255 255 657.000000
2.22580004 5.21649981 4.98159981 255 255 255 881.000000
2.22979999 5.22959995 4.98320007 255 255 255 625.000000
2.23110008 5.24359989 4.98789978 255 255 255 833.000000
2.23079991 5.25890017 4.99480009 255 255 255 753.000000
2.22909999 5.27460003 5.00339985 255 255 255 1601.000000
2.22569990 5.29050016 5.01389980 255 255 255 1825.000000
2.21970010 5.30779982 5.02750015 255 255 255 1777.000000
2.21350002 5.32539988 5.04150009 255 255 255 1889.000000
2.20169997 5.34549999 5.06230021 255 255 255 1969.000000
2.18880010 5.36609983 5.08459997 255 255 255 1265.000000
2.15450001 5.39690018 5.13299990 255 255 255 -2031.000000
2.10030007 5.13520002 5.04740000 255 255 255 -111.000000
2.13290000 5.13719988 5.01490021 255 255 255 -127.000000
2.15849996 5.14130020 4.99049997 255 255 255 417.000000
2.17639995 5.14870024 4.97520018 255 255 255 529.000000
2.18980002 5.15840006 4.96560001 255 255 255 577.000000
2.19950008 5.16849995 4.95989990 255 255 255 1041.000000
2.20889997 5.17959976 4.95499992 255 255 255 769.000000
2.21499991 5.19169998 4.95389986 255 255 255 753.000000
2.22040009 5.20389986 4.95349979 255 255 255 817.000000
2.22359991 5.21740007 4.95599985 255 255 255 1473.000000
2.22690010 5.23089981 4.95839977 255 255 255 897.000000
2.22989988 5.24410009 4.96099997 255 255 255 1121.000000
2.23020005 5.25909996 4.96719980 255 255 255 1425.000000
2.22790003 5.27510023 4.97650003 255 255 255 1553.000000
2.22340012 5.29150009 4.98810005 255 255 255 1249.000000
2.21670008 5.30910015 5.00260019 255 255 255 1649.000000
2.20740008 5.32810020 5.02029991 255 255 255 1505.000000
2.19530010 5.34829998 5.04139996 255 255 255 1489.000000
2.18079996 5.36969995 5.06549978 255 255 255 1745.000000
2.06229997 5.13539982 5.05749989 255 255 255 -735.000000
2.10949993 5.13159990 5.00799990 255 255 255 -127.000000
2.13940001 5.13469982 4.97879982 255 255 255 97.000000
2.16210008 5.13990021 4.95800018 255 255 255 705.000000
2.17880011 5.14779997 4.94420004 255 255 255 433.000000
2.19050002 5.15810013 4.93660021 255 255 255 625.000000
2.19970012 5.16849995 4.93149996 255 255 255 881.000000
2.20830011 5.17990017 4.92759991 255 255 255 881.000000
2.21429992 5.19199991 4.92659998 255 255 255 897.000000
2.22079992 5.20380020 4.92500019 255 255 255 849.000000
2.22320008 5.21759987 4.92840004 255 255 255 753.000000
2.22589993 5.23129988 4.93139982 255 255 255 705.000000
2.22630000 5.24560022 4.93720007 255 255 255 673.000000
2.22650003 5.26070023 4.94350004 255 255 255 769.000000
2.22420001 5.27670002 4.95260000 255 255 255 1489.000000
2.22009993 5.29290009 4.96369982 255 255 255 1393.000000
2.21280003 5.31080008 4.97889996 255 255 255 1841.000000
2.20280004 5.33010006 4.99739981 255 255 255 1393.000000
2.18729997 5.35179996 5.02250004 255 255 255 1457.000000
2.17269993 5.37330008 5.04659986 255 255 255 1473.000000
2.07529998 5.13030005 5.01370001 255 255 255 -79.000000
2.11800003 5.12830019 4.96969986 255 255 255 -47.000000
