-6.71869993 -3.43969989 -0.14640000 201 201 201 1169.000000
-6.69619989 -3.44120002 -0.14659999 210 210 210 1313.000000
-6.67910004 -3.43610001 -0.14700000 233 233 233 1681.000000
-6.66020012 -3.43319988 -0.14730000 220 220 220 1473.000000
-6.64249992 -3.42689991 -0.14770000 217 217 217 1425.000000
-6.62629986 -3.41989994 -0.14810000 232 232 232 1665.000000
-6.61009979 -3.41300011 -0.14850000 225 225 225 1553.000000
-6.59410000 -3.40300012 -0.14900000 221 221 221 1489.000000
-6.57880020 -3.39450002 -0.14950000 211 211 211 1329.000000
-6.56419992 -3.38579988 -0.14990000 212 212 212 1345.000000
-6.54790020 -3.37639999 -0.15040000 255 255 255 2033.000000
-6.53359985 -3.36680007 -0.15090001 255 255 255 2033.000000
-6.51910019 -3.35680008 -0.15140000 227 227 227 1585.000000
-6.50850010 -3.33800006 -0.15210000 217 217 217 1425.000000
-6.49809980 -3.32209992 -0.15270001 232 232 232 1665.000000
-6.48859978 -3.30279994 -0.15350001 246 246 246 1889.000000
-6.47800016 -3.28489995 -0.15420000 213 213 213 1361.000000
-6.47499990 -3.25570011 -0.15520000 194 194 194 1057.000000
-6.46689987 -3.23370004 -0.15600000 201 201 201 1169.000000
-6.45909977 -3.21050000 -0.15690000 182 182 182 865.000000
-6.45179987 -3.18829989 -0.15770000 252 252 252 1985.000000
-6.47489977 -3.11100006 -0.15989999 170 170 170 673.000000
-6.86910009 -3.37330008 -0.16520000 188 188 188 961.000000
-6.83010006 -3.40079999 -0.16460000 195 195 195 1073.000000
-6.79699993 -3.41790009 -0.16429999 201 201 201 1169.000000
-6.76809978 -3.42860007 -0.16419999 246 246 246 1889.000000
-6.74170017 -3.43820000 -0.16419999 215 215 215 1393.000000
-6.71939993 -3.43959999 -0.16429999 214 214 214 1377.000000
-6.69939995 -3.43720007 -0.16460000 242 242 242 1825.000000
-6.67859983 -3.43779993 -0.16480000 241 241 241 1809.000000
-6.65990019 -3.43449998 -0.16509999 212 212 212 1345.000000
-6.64249992 -3.42770004 -0.16550000 236 236 236 1729.000000
-6.62599993 -3.42120004 -0.16590001 228 228 228 1601.000000
-6.60979986 -3.41440010 -0.16630000 231 231 231 1649.000000
-6.59189987 -3.40739989 -0.16670001 255 255 255 2033.000000
-6.57740021 -3.39770007 -0.16720000 255 255 255 2033.000000
-6.56370020 -3.38759995 -0.16769999 215 215 215 1393.000000
-6.54780006 -3.37750006 -0.16820000 233 233 233 1681.000000
-6.53450012 -3.36630011 -0.16869999 233 233 233 1681.000000
-6.52080011 -3.35479999 -0.16920000 223 223 223 1521.000000
-6.50810003 -3.33960009 -0.16990000 204 204 204 1217.000000
-6.49679995 -3.32509995 -0.17050000 218 218 218 1441.000000
-6.48670006 -3.30699992 -0.17129999 219 219 219 1457.000000
-6.47639990 -3.28850007 -0.17200001 214 214 214 1377.000000
-6.47300005 -3.25999999 -0.17299999 207 207 207 1265.000000
-6.46649981 -3.23519993 -0.17399999 200 200 200 1153.000000
-6.45830011 -3.21280003 -0.17479999 182 182 182 865.000000
-6.44980001 -3.19269991 -0.17560001 255 255 255 2033.000000
-6.47219992 -3.11669993 -0.17810000 190 190 190 993.000000
-6.86950016 -3.37350011 -0.18340001 137 137 137 145.000000
-6.83080006 -3.40070009 -0.18269999 159 159 159 497.000000
-6.79720020 -3.41849995 -0.18240000 178 178 178 801.000000
-6.76800013 -3.42969990 -0.18220000 195 195 195 1073.000000
-6.74230003 -3.43820000 -0.18210000 196 196 196 1089.000000
-6.71980000 -3.43980002 -0.18220000 222 222 222 1505.000000
-6.69999981 -3.43700004 -0.18250000 246 246 246 1889.000000
-6.67740011 -3.44059992 -0.18260001 215 215 215 1393.000000
-6.66090012 -3.43379998 -0.18290000 226 226 226 1569.000000
-6.64139986 -3.43020010 -0.18320000 248 248 248 1921.000000
-6.62449980 -3.42449999 -0.18359999 251 251 251 1969.000000
-6.61070013 -3.41380000 -0.18410000 240 240 240 1793.000000
-6.59280014 -3.40680003 -0.18449999 222 222 222 1505.000000
-6.57760000 -3.39829993 -0.18500000 208 208 208 1281.000000
-6.56330013 -3.38899994 -0.18539999 213 213 213 1361.000000
-6.54610014 -3.38109994 -0.18590000 215 215 215 1393.000000
-6.53359985 -3.36859989 -0.18650000 217 217 217 1425.000000
-6.52029991 -3.35640001 -0.18700001 215 215 215 1393.000000
-6.50799990 -3.34050012 -0.18770000 200 200 200 1153.000000
-6.49630022 -3.32680011 -0.18830000 209 209 209 1297.000000
-6.48629999 -3.30839992 -0.18910000 222 222 222 1505.000000
-6.47520018 -3.29130006 -0.18979999 187 187 187 945.000000
-6.47139978 -3.26370001 -0.19090000 178 178 178 801.000000
-6.46600008 -3.23709989 -0.19190000 194 194 194 1057.000000
-6.45889997 -3.21280003 -0.19290000 196 196 196 1089.000000
-6.44950008 -3.19409990 -0.19370000 255 255 255 2033.000000
-6.47049999 -3.12059999 -0.19620000 187 187 187 945.000000
-6.87699986 -3.36299992 -0.20200001 185 185 185 913.000000
-6.83589983 -3.39369988 -0.20110001 194 194 194 1057.000000
-6.80000019 -3.41510010 -0.20050000 199 199 199 1137.000000
-6.76800013 -3.43059993 -0.20020001 198 198 198 1121.000000
-6.74429989 -3.43600011 -0.20010000 224 224 224 1537.000000
-6.72079992 -3.43910003 -0.20020001 225 225 225 1553.000000
-6.70039988 -3.43729997 -0.20039999 235 235 235 1713.000000
-6.68109989 -3.43560004 -0.20060000 221 221 221 1489.000000
-6.66099977 -3.43460011 -0.20080000 228 228 228 1601.000000
-6.64230013 -3.42969990 -0.20110001 230 230 230 1633.000000
-6.62709999 -3.42129993 -0.20150000 237 237 237 1745.000000
-6.60949993 -3.41650009 -0.20180000 206 206 206 1249.000000
-6.59280014 -3.40779996 -0.20230000 216 216 216 1409.000000
-6.57679987 -3.40039992 -0.20270000 217 217 217 1425.000000
-6.56360006 -3.38940001 -0.20320000 221 221 221 1489.000000
-6.54790020 -3.37910008 -0.20379999 243 243 243 1841.000000
-6.53369999 -3.36940002 -0.20430000 230 230 230 1633.000000
-6.51919985 -3.35920000 -0.20479999 208 208 208 1281.000000
-6.50559998 -3.34540009 -0.20540000 206 206 206 1249.000000
-6.49590015 -3.32839990 -0.20610000 204 204 204 1217.000000
-6.48559999 -3.31060004 -0.20690000 189 189 189 977.000000
-6.47419977 -3.29399991 -0.20770000 187 187 187 945.000000
-6.46920013 -3.26830006 -0.20870000 174 174 174 737.000000
-6.46369982 -3.24189997 -0.20980000 187 187 187 945.000000
-6.45879984 -3.21379995 -0.21089999 213 213 213 1361.000000
-6.45050001 -3.19330001 -0.21179999 223 223 223 1521.000000
-6.46479988 -3.13140011 -0.21410000 179 179 179 817.000000
-6.88430023 -3.35290003 -0.22070000 165 165 165 593.000000
-6.83760023 -3.39199996 -0.21930000 189 189 189 977.000000
-6.80240011 -3.41230011 -0.21870001 198 198 198 1121.000000
-6.77190018 -3.42540002 -0.21840000 204 204 204 1217.000000
-6.74720001 -3.43230009 -0.21820000 202 202 202 1185.000000
-6.72209978 -3.43790007 -0.21810000 215 215 215 1393.000000
-6.70009995 -3.43860006 -0.21820000 216 216 216 1409.000000
-6.68200016 -3.43510008 -0.21850000 216 216 216 1409.000000
-6.66230011 -3.43330002 -0.21870001 232 232 232 1665.000000
-6.64389992 -3.42799997 -0.21900000 223 223 223 1521.000000
-6.62709999 -3.42210007 -0.21930000 239 239 239 1777.000000
-6.60909986 -3.41810012 -0.21960001 224 224 224 1537.000000
-6.59259987 -3.40890002 -0.22010000 229 229 229 1617.000000
-6.57779980 -3.39969993 -0.22059999 230 230 230 1633.000000
-6.56370020 -3.39010000 -0.22100000 216 216 216 1409.000000
-6.54740000 -3.38080001 -0.22149999 255 255 255 2033.000000
-6.53210020 -3.37280011 -0.22190000 220 220 220 1473.000000
-6.51949978 -3.35949993 -0.22260000 205 205 205 1233.000000
-6.50439978 -3.34840012 -0.22310001 208 208 208 1281.000000
-6.49480009 -3.33119988 -0.22390001 196 196 196 1089.000000
-6.48420000 -3.31389999 -0.22470000 199 199 199 1137.000000
-6.47539997 -3.29279995 -0.22560000 218 218 218 1441.000000
-6.46750021 -3.27220011 -0.22650000 191 191 191 1009.000000
-6.46330023 -3.24349999 -0.22770000 178 178 178 801.000000
-6.45739985 -3.21720004 -0.22880000 204 204 204 1217.000000
-6.44920015 -3.19650006 -0.22980000 189 189 189 977.000000
-6.44789982 -3.16190004 -0.23119999 204 204 204 1217.000000
-6.47030020 -3.08540010 -0.23420000 159 159 159 497.000000
-6.88980007 -3.34540009 -0.23930000 49 49 49 -1263.000000
-6.83990002 -3.38940001 -0.23760000 191 191 191 1009.000000
-6.80480003 -3.40949988 -0.23690000 197 197 197 1105.000000
-6.77330017 -3.42409992 -0.23639999 193 193 193 1041.000000
-6.74779987 -3.43219995 -0.23620000 198 198 198 1121.000000
-6.72249985 -3.43820000 -0.23600000 231 231 231 1649.000000
-6.70170021 -3.43689990 -0.23620000 229 229 229 1617.000000
-6.68179989 -3.43630004 -0.23630001 212 212 212 1345.000000
-6.66099977 -3.43630004 -0.23639999 235 235 235 1713.000000
-6.64349985 -3.42950010 -0.23680000 231 231 231 1649.000000
-6.62540007 -3.42569995 -0.23700000 222 222 222 1505.000000
-6.60970020 -3.41799998 -0.23740000 219 219 219 1457.000000
-6.59250021 -3.41000009 -0.23790000 210 210 210 1313.000000
-6.57779980 -3.40059996 -0.23830000 231 231 231 1649.000000
-6.56349993 -3.39129996 -0.23880000 209 209 209 1297.000000
-6.54699993 -3.38229990 -0.23930000 229 229 229 1617.000000
-6.53230000 -3.37339997 -0.23970000 212 212 212 1345.000000
-6.51879978 -3.36159992 -0.24030000 232 232 232 1665.000000
-6.50540018 -3.34759998 -0.24100000 223 223 223 1521.000000
-6.49389982 -3.33360004 -0.24169999 189 189 189 977.000000
-6.48420000 -3.31469989 -0.24250001 188 188 188 961.000000
-6.47380018 -3.29660010 -0.24339999 214 214 214 1377.000000
-6.46560001 -3.27640009 -0.24429999 192 192 192 1025.000000
-6.46159983 -3.24729991 -0.24560000 187 187 187 945.000000
-6.45559978 -3.22129989 -0.24670000 183 183 183 881.000000
-6.44859982 -3.19860005 -0.24779999 188 188 188 961.000000
-6.44680023 -3.16479993 -0.24920000 172 172 172 705.000000
-6.46479988 -3.09599996 -0.25209999 145 145 145 273.000000
-6.84399986 -3.38409996 -0.25600001 204 204 204 1217.000000
-6.80760002 -3.40610003 -0.25520000 210 210 210 1313.000000
-6.77530003 -3.42190003 -0.25450000 195 195 195 1073.000000
-6.74910021 -3.43109989 -0.25420001 195 195 195 1073.000000
-6.72440004 -3.43610001 -0.25409999 231 231 231 1649.000000
-6.70340014 -3.43519998 -0.25420001 227 227 227 1585.000000
-6.68300009 -3.43519998 -0.25420001 200 200 200 1153.000000
-6.65939999 -3.43959999 -0.25409999 228 228 228 1601.000000
-6.64319992 -3.43090010 -0.25459999 230 230 230 1633.000000
-6.62709999 -3.42379999 -0.25490001 235 235 235 1713.000000
-6.60960007 -3.41910005 -0.25520000 219 219 219 1457.000000
-6.59420013 -3.40799999 -0.25580001 240 240 240 1793.000000
-6.57719994 -3.40229988 -0.25610000 221 221 221 1489.000000
-6.56279993 -3.39339995 -0.25650001 217 217 217 1425.000000
-6.54600000 -3.38490009 -0.25700000 223 223 223 1521.000000
-6.53160000 -3.37549996 -0.25749999 223 223 223 1521.000000
-6.51940012 -3.36150002 -0.25810000 242 242 242 1825.000000
-6.50470018 -3.34960008 -0.25870001 225 225 225 1553.000000
-6.49240017 -3.33690000 -0.25940001 206 206 206 1249.000000
-6.48220015 -3.31909990 -0.26019999 219 219 219 1457.000000
-6.47109985 -3.30189991 -0.26100001 222 222 222 1505.000000
-6.46309996 -3.28150010 -0.26199999 180 180 180 833.000000
-6.45819998 -3.25410008 -0.26330000 186 186 186 929.000000
-6.45489979 -3.22329998 -0.26470000 199 199 199 1137.000000
-6.44880009 -3.19910002 -0.26580000 203 203 203 1201.000000
-6.44229984 -3.17350006 -0.26699999 176 176 176 769.000000
-6.45870018 -3.10770011 -0.27000001 179 179 179 817.000000
-6.84490013 -3.38350010 -0.27430001 200 200 200 1153.000000
-6.80999994 -3.40319991 -0.27340001 203 203 203 1201.000000
-6.77659988 -3.42070007 -0.27260000 208 208 208 1281.000000
-6.75099993 -3.42910004 -0.27230000 200 200 200 1153.000000
-6.72669983 -3.43330002 -0.27210000 233 233 233 1681.000000
-6.70279980 -3.43689990 -0.27200001 214 214 214 1377.000000
-6.68470001 -3.43330002 -0.27219999 205 205 205 1233.000000
-6.66309977 -3.43460011 -0.27219999 234 234 234 1697.000000
-6.64370012 -3.43090010 -0.27239999 228 228 228 1601.000000
-6.62799978 -3.42319989 -0.27280000 242 242 242 1825.000000
-6.60939980 -3.42020011 -0.27300000 223 223 223 1521.000000
-6.59340000 -3.41030002 -0.27350000 227 227 227 1585.000000
-6.57679987 -3.40400004 -0.27379999 230 230 230 1633.000000
-6.56370020 -3.39269996 -0.27440000 228 228 228 1601.000000
-6.54710007 -3.38389993 -0.27480000 208 208 208 1281.000000
-6.53030014 -3.37849998 -0.27509999 210 210 210 1313.000000
-6.51830006 -3.36420012 -0.27590001 220 220 220 1473.000000
-6.50439978 -3.35109997 -0.27649999 213 213 213 1361.000000
-6.49230003 -3.33800006 -0.27720001 206 206 206 1249.000000
-6.48089981 -3.32209992 -0.27800000 225 225 225 1553.000000
-6.46990013 -3.30489993 -0.27880001 196 196 196 1089.000000
-6.46129990 -3.28539991 -0.27980000 196 196 196 1089.000000
-6.45809984 -3.25519991 -0.28119999 196 196 196 1089.000000
-6.45310020 -3.22740006 -0.28250000 197 197 197 1105.000000
-6.44619989 -3.20460010 -0.28369999 202 202 202 1185.000000
-6.44059992 -3.17750001 -0.28500000 182 182 182 865.000000
-6.45300007 -3.11849999 -0.28770000 193 193 193 1041.000000
-6.84810019 -3.37949991 -0.29269999 198 198 198 1121.000000
-6.81230021 -3.40050006 -0.29170001 205 205 205 1233.000000
-6.77820015 -3.41910005 -0.29080001 215 215 215 1393.000000
-6.75169992 -3.42880011 -0.29030001 211 211 211 1329.000000
-6.72760010 -3.43280005 -0.29010001 232 232 232 1665.000000
-6.70419979 -3.43569994 -0.28999999 220 220 220 1473.000000
-6.68429995 -3.43490005 -0.28999999 228 228 228 1601.000000
-6.66370010 -3.43460011 -0.29010001 229 229 229 1617.000000
-6.64449978 -3.43059993 -0.29030001 232 232 232 1665.000000
-6.62830019 -3.42359996 -0.29060000 240 240 240 1793.000000
-6.60949993 -3.42090011 -0.29080001 224 224 224 1537.000000
-6.59280014 -3.41199994 -0.29120001 225 225 225 1553.000000
-6.57690001 -3.40470004 -0.29159999 225 225 225 1553.000000
-6.56330013 -3.39429998 -0.29210001 218 218 218 1441.000000
-6.54559994 -3.38720012 -0.29249999 226 226 226 1569.000000
-6.53020000 -3.37960005 -0.29290000 206 206 206 1249.000000
-6.51719999 -3.36689997 -0.29350001 231 231 231 1649.000000
-6.50339985 -3.35360003 -0.29420000 190 190 190 993.000000
-6.49160004 -3.34010005 -0.29490000 197 197 197 1105.000000
-6.48000002 -3.32450008 -0.29570001 205 205 205 1233.000000
-6.46920013 -3.30699992 -0.29660001 203 203 203 1201.000000
-6.46089983 -3.28699994 -0.29760000 204 204 204 1217.000000
-6.45370007 -3.26360011 -0.29879999 208 208 208 1281.000000
-6.45020008 -3.23340011 -0.30030000 178 178 178 801.000000
-6.44570017 -3.20630002 -0.30170000 187 187 187 945.000000
-6.43879986 -3.18149996 -0.30289999 183 183 183 881.000000
-6.44479990 -3.13389993 -0.30530000 178 178 178 801.000000
-6.85169983 -3.37490010 -0.31119999 200 200 200 1153.000000
-6.81619978 -3.39540005 -0.31009999 218 218 218 1441.000000
-6.78160000 -3.41479993 -0.30899999 215 215 215 1393.000000
-6.75409985 -3.42589998 -0.30849999 233 233 233 1681.000000
-6.72779989 -3.43339992 -0.30800000 228 228 228 1601.000000
-6.70319986 -3.43799996 -0.30779999 211 211 211 1329.000000
-6.68440008 -3.43569994 -0.30790001 214 214 214 1377.000000
-6.66520023 -3.43300009 -0.30800000 238 238 238 1761.000000
-6.64540005 -3.43000007 -0.30820000 238 238 238 1761.000000
-6.62839985 -3.42440009 -0.30840001 216 216 216 1409.000000
-6.61000013 -3.42100000 -0.30860001 238 238 238 1761.000000
-6.59329987 -3.41210008 -0.30910000 255 255 255 2033.000000
-6.57770014 -3.40420008 -0.30950001 223 223 223 1521.000000
-6.56160021 -3.39800000 -0.30980000 225 225 225 1553.000000
-6.54570007 -3.38800001 -0.31029999 212 212 212 1345.000000
-6.53020000 -3.38050008 -0.31070000 211 211 211 1329.000000
-6.51650000 -3.36899996 -0.31130001 231 231 231 1649.000000
-6.50330019 -3.35470009 -0.31200001 199 199 199 1137.000000
-6.49179983 -3.34069991 -0.31270000 207 207 207 1265.000000
-6.47940016 -3.32640004 -0.31349999 194 194 194 1057.000000
-6.46859980 -3.30900002 -0.31439999 206 206 206 1249.000000
-6.45739985 -3.29390001 -0.31520000 224 224 224 1537.000000
-6.45109987 -3.26900005 -0.31650001 174 174 174 737.000000
-6.44939995 -3.23569989 -0.31819999 182 182 182 865.000000
-6.44269991 -3.21250010 -0.31940001 193 193 193 1041.000000
-6.43870020 -3.18269992 -0.32100001 177 177 177 785.000000
-6.43909979 -3.14479995 -0.32290000 171 171 171 689.000000
-6.44080019 -3.10570002 -0.32499999 0 0 0 -2047.000000
-6.85510015 -3.37050009 -0.32960001 198 198 198 1121.000000
-6.81820011 -3.39319992 -0.32830000 224 224 224 1537.000000
-6.78289986 -3.41359997 -0.32720000 200 200 200 1153.000000
-6.75519991 -3.42510009 -0.32650000 214 214 214 1377.000000
-6.72919989 -3.43199992 -0.32609999 234 234 234 1697.000000
-6.70539999 -3.43540001 -0.32580000 222 222 222 1505.000000
-6.68440008 -3.43639994 -0.32580000 227 227 227 1585.000000
-6.66559982 -3.43319988 -0.32589999 216 216 216 1409.000000
-6.64650011 -3.42919993 -0.32609999 225 225 225 1553.000000
-6.62760019 -3.42650008 -0.32620001 208 208 208 1281.000000
-6.60970020 -3.42240000 -0.32640001 231 231 231 1649.000000
-6.59289980 -3.41359997 -0.32679999 215 215 215 1393.000000
-6.57670021 -3.40669990 -0.32710001 230 230 230 1633.000000
-6.56150007 -3.39910007 -0.32749999 222 222 222 1505.000000
-6.54570007 -3.38890004 -0.32810000 206 206 206 1249.000000
-6.53009987 -3.38150001 -0.32839999 223 223 223 1521.000000
-6.51550007 -3.37159991 -0.32890001 224 224 224 1537.000000
-6.50290012 -3.35619998 -0.32980001 211 211 211 1329.000000
-6.49109983 -3.34270000 -0.33050001 217 217 217 1425.000000
-6.47860003 -3.32870007 -0.33120000 206 206 206 1249.000000
-6.46750021 -3.31170011 -0.33210000 198 198 198 1121.000000
-6.45739985 -3.29489994 -0.33300000 212 212 212 1345.000000
-6.44980001 -3.27209997 -0.33430001 183 183 183 881.000000
-6.44700003 -3.24070001 -0.33600000 177 177 177 785.000000
-6.44239998 -3.21390009 -0.33739999 191 191 191 1009.000000
-6.43800020 -3.18490005 -0.33899999 206 206 206 1249.000000
-6.43289995 -3.15669990 -0.34050000 191 191 191 1009.000000
-6.44610023 -3.09730005 -0.34369999 199 199 199 1137.000000
-6.86079979 -3.36279988 -0.34840000 185 185 185 913.000000
-6.81930017 -3.39240003 -0.34660000 209 209 209 1297.000000
-6.78490019 -3.41140008 -0.34540001 208 208 208 1281.000000
-6.75750017 -3.42240000 -0.34470001 181 181 181 849.000000
-6.72860003 -3.43379998 -0.34400001 207 207 207 1265.000000
-6.70520020 -3.43659997 -0.34369999 227 227 227 1585.000000
-6.68639994 -3.43420005 -0.34380001 233 233 233 1681.000000
-6.66540003 -3.43449998 -0.34369999 202 202 202 1185.000000
-6.64629984 -3.43030000 -0.34390000 227 227 227 1585.000000
-6.62779999 -3.42709994 -0.34400001 228 228 228 1601.000000
-6.61110020 -3.42100000 -0.34430000 225 225 225 1553.000000
-6.59110022 -3.41739988 -0.34439999 230 230 230 1633.000000
-6.57670021 -3.40750003 -0.34490001 227 227 227 1585.000000
-6.56169987 -3.39949989 -0.34529999 228 228 228 1601.000000
-6.54440022 -3.39190006 -0.34570000 219 219 219 1457.000000
-6.52960014 -3.38310003 -0.34619999 221 221 221 1489.000000
-6.51599979 -3.37159991 -0.34680000 220 220 220 1473.000000
-6.50339985 -3.35640001 -0.34760001 221 221 221 1489.000000
-6.48939991 -3.34640002 -0.34810001 218 218 218 1441.000000
-6.47830009 -3.33019996 -0.34900001 206 206 206 1249.000000
-6.46770000 -3.31229997 -0.34999999 230 230 230 1633.000000
-6.45599985 -3.29809999 -0.35080001 194 194 194 1057.000000
-6.44969988 -3.27329993 -0.35210001 218 218 218 1441.000000
-6.44430017 -3.24629998 -0.35360000 186 186 186 929.000000
-6.44110012 -3.21709991 -0.35530001 192 192 192 1025.000000
-6.43550014 -3.19009995 -0.35679999 212 212 212 1345.000000
-6.43219995 -3.15890002 -0.35850000 169 169 169 657.000000
-6.43639994 -3.11540008 -0.36100000 175 175 175 753.000000
-6.86429977 -3.35820007 -0.36690000 151 151 151 369.000000
-6.81979990 -3.39249992 -0.36469999 197 197 197 1105.000000
-6.78800011 -3.40750003 -0.36370000 214 214 214 1377.000000
-6.75890017 -3.42109990 -0.36280000 192 192 192 1025.000000
-6.72770023 -3.43600011 -0.36179999 201 201 201 1169.000000
-6.70760012 -3.43379998 -0.36179999 227 227 227 1585.000000
-6.68639994 -3.43499994 -0.36170000 227 227 227 1585.000000
-6.66690016 -3.43289995 -0.36170000 201 201 201 1169.000000
-6.64580011 -3.43199992 -0.36160001 223 223 223 1521.000000
-6.62779999 -3.42790008 -0.36179999 227 227 227 1585.000000
-6.61140013 -3.42140007 -0.36210001 236 236 236 1729.000000
-6.59140015 -3.41779995 -0.36219999 231 231 231 1649.000000
-6.57670021 -3.40849996 -0.36269999 227 227 227 1585.000000
-6.56220007 -3.39960003 -0.36309999 225 225 225 1553.000000
-6.54489994 -3.39190006 -0.36350000 231 231 231 1649.000000
-6.52939987 -3.38439989 -0.36390001 225 225 225 1553.000000
-6.51520014 -3.37369990 -0.36449999 221 221 221 1489.000000
-6.50150013 -3.36050010 -0.36520001 212 212 212 1345.000000
-6.48880005 -3.34840012 -0.36579999 218 218 218 1441.000000
-6.47709990 -3.33310008 -0.36669999 211 211 211 1329.000000
-6.46649981 -3.31520009 -0.36770001 201 201 201 1169.000000
-6.45620012 -3.29870009 -0.36860001 208 208 208 1281.000000
-6.44729996 -3.27819991 -0.36980000 225 225 225 1553.000000
-6.44309998 -3.24920011 -0.37149999 187 187 187 945.000000
-6.43930006 -3.22119999 -0.37310001 166 166 166 609.000000
-6.43450022 -3.19289994 -0.37470001 194 194 194 1057.000000
-6.43120003 -3.16149998 -0.37660000 191 191 191 1009.000000
-6.42929983 -3.12879992 -0.37850001 187 187 187 945.000000
-6.86549997 -3.35739994 -0.38530001 148 148 148 321.000000
-6.82229996 -3.38949990 -0.38310000 182 182 182 865.000000
-6.78910017 -3.40669990 -0.38190001 208 208 208 1281.000000
-6.75990009 -3.42050004 -0.38090000 213 213 213 1361.000000
-6.73040009 -3.43280005 -0.38000000 187 187 187 945.000000
-6.70790005 -3.43400002 -0.37979999 233 233 233 1681.000000
-6.68779993 -3.43370008 -0.37970001 221 221 221 1489.000000
-6.66709995 -3.43339992 -0.37959999 225 225 225 1553.000000
-6.64699984 -3.43090010 -0.37959999 239 239 239 1777.000000
-6.62939978 -3.42630005 -0.37979999 236 236 236 1729.000000
-6.61059999 -3.42350006 -0.37979999 240 240 240 1793.000000
-6.59130001 -3.41890001 -0.38000000 234 234 234 1697.000000
-6.57639980 -3.40980005 -0.38040000 225 225 225 1553.000000
-6.56139994 -3.40179992 -0.38080001 216 216 216 1409.000000
-6.54500008 -3.39260006 -0.38130000 240 240 240 1793.000000
-6.52930021 -3.38540006 -0.38170001 227 227 227 1585.000000
-6.51389980 -3.37689996 -0.38209999 221 221 221 1489.000000
-6.50089979 -3.36229992 -0.38290000 218 218 218 1441.000000
-6.48799992 -3.35069990 -0.38350001 215 215 215 1393.000000
-6.47639990 -3.33509994 -0.38440001 214 214 214 1377.000000
-6.46649981 -3.31620002 -0.38550001 233 233 233 1681.000000
-6.45499992 -3.30170012 -0.38640001 218 218 218 1441.000000
-6.44479990 -3.28349996 -0.38740000 213 213 213 1361.000000
-6.43889999 -3.25740004 -0.38900000 182 182 182 865.000000
-6.43709993 -3.22589993 -0.39089999 185 185 185 913.000000
-6.43419981 -3.19429994 -0.39280000 201 201 201 1169.000000
-6.43050003 -3.16380000 -0.39460000 218 218 218 1441.000000
-6.42670012 -3.13439989 -0.39640000 180 180 180 833.000000
-6.82579994 -3.38509989 -0.40160000 178 178 178 801.000000
-6.79150009 -3.40380001 -0.40020001 206 206 206 1249.000000
-6.76230001 -3.41759992 -0.39910001 215 215 215 1393.000000
-6.73190022 -3.43129992 -0.39809999 216 216 216 1409.000000
-6.70760012 -3.43540001 -0.39760000 215 215 215 1393.000000
-6.68769979 -3.43460011 -0.39750001 216 216 216 1409.000000
-6.66830015 -3.43249989 -0.39750001 223 223 223 1521.000000
-6.64629984 -3.43289995 -0.39730000 235 235 235 1713.000000
-6.63049984 -3.42540002 -0.39770001 229 229 229 1617.000000
-6.61049986 -3.42449999 -0.39760000 204 204 204 1217.000000
-6.59119987 -3.41989994 -0.39780000 240 240 240 1793.000000
-6.57639980 -3.41079998 -0.39820001 221 221 221 1489.000000
-6.56129980 -3.40280008 -0.39860001 221 221 221 1489.000000
-6.54460001 -3.39429998 -0.39899999 218 218 218 1441.000000
-6.53020000 -3.38490009 -0.39950001 210 210 210 1313.000000
-6.51469994 -3.37649989 -0.40000001 227 227 227 1585.000000
-6.50029993 -3.36420012 -0.40059999 211 211 211 1329.000000
-6.48810005 -3.35139990 -0.40140000 194 194 194 1057.000000
-6.47650003 -3.33579993 -0.40230000 195 195 195 1073.000000
-6.46360016 -3.32189989 -0.40300000 209 209 209 1297.000000
-6.45349979 -3.30509996 -0.40400001 209 209 209 1297.000000
-6.44320011 -3.28719997 -0.40509999 186 186 186 929.000000
-6.43730021 -3.26110005 -0.40669999 187 187 187 945.000000
-6.43550014 -3.22959995 -0.40869999 179 179 179 817.000000
-6.43160009 -3.19980001 -0.41049999 205 205 205 1233.000000
-6.42819977 -3.16860008 -0.41249999 186 186 186 929.000000
-6.42329979 -3.14129996 -0.41420001 189 189 189 977.000000
-6.82900000 -3.38100004 -0.42010000 187 187 187 945.000000
-6.79199982 -3.40389991 -0.41830000 190 190 190 993.000000
-6.76410007 -3.41569996 -0.41729999 208 208 208 1281.000000
-6.73330021 -3.42989993 -0.41620001 192 192 192 1025.000000
-6.70959997 -3.43309999 -0.41569999 234 234 234 1697.000000
-6.68699980 -3.43659997 -0.41530001 206 206 206 1249.000000
-6.66809988 -3.43359995 -0.41540000 231 231 231 1649.000000
-6.64699984 -3.43269992 -0.41520000 236 236 236 1729.000000
-6.62909985 -3.42849994 -0.41540000 222 222 222 1505.000000
-6.61030006 -3.42569995 -0.41540000 211 211 211 1329.000000
-6.59140015 -3.42039990 -0.41560000 231 231 231 1649.000000
-6.57410002 -3.41540003 -0.41569999 233 233 233 1681.000000
-6.56129980 -3.40370011 -0.41639999 215 215 215 1393.000000
-6.54309988 -3.39750004 -0.41659999 218 218 218 1441.000000
-6.52960014 -3.38669991 -0.41720000 207 207 207 1265.000000
-6.51459980 -3.37750006 -0.41769999 221 221 221 1489.000000
-6.49870014 -3.36770010 -0.41819999 223 223 223 1521.000000
-6.48750019 -3.35330009 -0.41909999 199 199 199 1137.000000
-6.47559977 -3.33829999 -0.41999999 209 209 209 1297.000000
-6.46330023 -3.32340002 -0.42080000 214 214 214 1377.000000
-6.45310020 -3.30669999 -0.42179999 206 206 206 1249.000000
-6.44339991 -3.28769994 -0.42300001 205 205 205 1233.000000
-6.43520021 -3.26559997 -0.42440000 195 195 195 1073.000000
-6.43370008 -3.23359990 -0.42640001 191 191 191 1009.000000
-6.42959976 -3.20409989 -0.42829999 207 207 207 1265.000000
-6.42630005 -3.17289996 -0.43030000 197 197 197 1105.000000
-6.42369986 -3.14159989 -0.43239999 225 225 225 1553.000000
-6.83010006 -3.38030005 -0.43840000 201 201 201 1169.000000
-6.79600000 -3.39860010 -0.43689999 160 160 160 513.000000
-6.76560020 -3.41429996 -0.43550000 216 216 216 1409.000000
-6.73559999 -3.42729998 -0.43439999 195 195 195 1073.000000
-6.71220016 -3.43000007 -0.43390000 255 255 255 2033.000000
-6.68979979 -3.43319988 -0.43349999 197 197 197 1105.000000
-6.66979980 -3.43179989 -0.43340001 239 239 239 1777.000000
-6.64830017 -3.43140006 -0.43320000 233 233 233 1681.000000
-6.62960005 -3.42849994 -0.43320000 218 218 218 1441.000000
-6.61049986 -3.42630005 -0.43320000 217 217 217 1425.000000
-6.59130001 -3.42140007 -0.43329999 240 240 240 1793.000000
-6.57480001 -3.41499996 -0.43360001 234 234 234 1697.000000
-6.56099987 -3.40510011 -0.43410000 216 216 216 1409.000000
-6.54330015 -3.39820004 -0.43439999 224 224 224 1537.000000
-6.52869987 -3.38919997 -0.43489999 214 214 214 1377.000000
-6.51310015 -3.38089991 -0.43529999 214 214 214 1377.000000
-6.49809980 -3.36960006 -0.43590000 206 206 206 1249.000000
-6.48740005 -3.35439992 -0.43680000 200 200 200 1153.000000
-6.47550011 -3.33929992 -0.43779999 221 221 221 1489.000000
-6.46239996 -3.32579994 -0.43849999 208 208 208 1281.000000
-6.45219994 -3.30920005 -0.43959999 212 212 212 1345.000000
-6.44189978 -3.29130006 -0.44069999 210 210 210 1313.000000
-6.43389988 -3.26889992 -0.44209999 202 202 202 1185.000000
-6.42969990 -3.24149990 -0.44389999 182 182 182 865.000000
-6.42780018 -3.20830011 -0.44610000 198 198 198 1121.000000
-6.42339993 -3.17890000 -0.44810000 199 199 199 1137.000000
-6.41970015 -3.14949989 -0.44999999 190 190 190 993.000000
-6.41960001 -3.11240005 -0.45249999 176 176 176 769.000000
-6.83449984 -3.37430000 -0.45710000 197 197 197 1105.000000
-6.79920006 -3.39450002 -0.45530000 184 184 184 897.000000
-6.76580000 -3.41470003 -0.45359999 212 212 212 1345.000000
-6.73820019 -3.42409992 -0.45260000 213 213 213 1361.000000
-6.71290016 -3.42969990 -0.45199999 231 231 231 1649.000000
-6.69029999 -3.43330002 -0.45150000 197 197 197 1105.000000
-6.66870022 -3.43449998 -0.45109999 230 230 230 1633.000000
-6.64919996 -3.43079996 -0.45120001 227 227 227 1585.000000
-6.62839985 -3.43120003 -0.45089999 211 211 211 1329.000000
-6.61089993 -3.42639995 -0.45100001 212 212 212 1345.000000
-6.59100008 -3.42289996 -0.45109999 234 234 234 1697.000000
-6.57530022 -3.41520000 -0.45140001 231 231 231 1649.000000
-6.56020021 -3.40730000 -0.45179999 210 210 210 1313.000000
-6.54209995 -3.40089989 -0.45210001 216 216 216 1409.000000
-6.52780008 -3.39140010 -0.45260000 226 226 226 1569.000000
-6.51240015 -3.38290000 -0.45300001 228 228 228 1601.000000
-6.49700022 -3.37229991 -0.45359999 203 203 203 1201.000000
-6.48600006 -3.35770011 -0.45449999 229 229 229 1617.000000
-6.47329998 -3.34400010 -0.45530000 210 210 210 1313.000000
-6.46250010 -3.32660007 -0.45640001 189 189 189 977.000000
-6.45230007 -3.30990005 -0.45739999 242 242 242 1825.000000
-6.44029999 -3.29489994 -0.45829999 221 221 221 1489.000000
-6.42939997 -3.27749991 -0.45940000 189 189 189 977.000000
-6.42560005 -3.24950004 -0.46129999 180 180 180 833.000000
-6.42700005 -3.21059990 -0.46399999 211 211 211 1329.000000
-6.42240000 -3.18160009 -0.46599999 191 191 191 1009.000000
-6.41820002 -3.15330005 -0.46790001 209 209 209 1297.000000
-6.41550016 -3.12069988 -0.47020000 179 179 179 817.000000
-6.83699989 -3.37140012 -0.47560000 200 200 200 1153.000000
-6.80060005 -3.39319992 -0.47360000 189 189 189 977.000000
-6.76800013 -3.41219997 -0.47189999 213 213 213 1361.000000
-6.74020004 -3.42179990 -0.47080001 245 245 245 1873.000000
-6.71400023 -3.42890000 -0.47000000 237 237 237 1745.000000
-6.69080019 -3.43330002 -0.46939999 211 211 211 1329.000000
-6.67089987 -3.43190002 -0.46930000 245 245 245 1873.000000
-6.65030003 -3.43000007 -0.46910000 218 218 218 1441.000000
-6.62979984 -3.43000007 -0.46890000 218 218 218 1441.000000
-6.61070013 -3.42770004 -0.46880001 218 218 218 1441.000000
-6.59189987 -3.42230010 -0.46900001 235 235 235 1713.000000
-6.57679987 -3.41359997 -0.46939999 251 251 251 1969.000000
-6.55919981 -3.40980005 -0.46950001 225 225 225 1553.000000
-6.54349995 -3.39960003 -0.47000000 227 227 227 1585.000000
-6.52790022 -3.39219999 -0.47029999 220 220 220 1473.000000
-6.51179981 -3.38470006 -0.47070000 218 218 218 1441.000000
-6.49830008 -3.37109995 -0.47150001 242 242 242 1825.000000
-6.48420000 -3.36150002 -0.47200000 204 204 204 1217.000000
-6.47170019 -3.34759998 -0.47290000 199 199 199 1137.000000
-6.46000004 -3.33170009 -0.47389999 200 200 200 1153.000000
-6.44999981 -3.31480002 -0.47499999 225 225 225 1553.000000
-6.43900013 -3.29800010 -0.47600001 208 208 208 1281.000000
-6.42859983 -3.27990007 -0.47720000 194 194 194 1057.000000
-6.42500019 -3.25160003 -0.47920001 202 202 202 1185.000000
-6.42490005 -3.21510005 -0.48179999 192 192 192 1025.000000
-6.42019987 -3.18639994 -0.48379999 196 196 196 1089.000000
-6.41559982 -3.15869999 -0.48570001 212 212 212 1345.000000
-6.41160011 -3.12859988 -0.48780000 197 197 197 1105.000000
-6.83970022 -3.36809993 -0.49419999 202 202 202 1185.000000
-6.80179977 -3.39219999 -0.49190000 193 193 193 1041.000000
-6.76999998 -3.41000009 -0.49020001 208 208 208 1281.000000
-6.73899984 -3.42449999 -0.48870000 210 210 210 1313.000000
-6.71509981 -3.42810011 -0.48809999 233 233 233 1681.000000
-6.69140005 -3.43319988 -0.48740000 227 227 227 1585.000000
-6.66870022 -3.43619990 -0.48690000 206 206 206 1249.000000
-6.64960003 -3.43199992 -0.48690000 225 225 225 1553.000000
-6.63119984 -3.42860007 -0.48690000 213 213 213 1361.000000
-6.61180019 -3.42680001 -0.48679999 212 212 212 1345.000000
-6.59310007 -3.42120004 -0.48690000 224 224 224 1537.000000
-6.57649994 -3.41499996 -0.48710001 228 228 228 1601.000000
-6.55940008 -3.41030002 -0.48730001 234 234 234 1697.000000
-6.54169989 -3.40339994 -0.48750001 231 231 231 1649.000000
-6.52750015 -3.39369988 -0.48809999 216 216 216 1409.000000
-6.51270008 -3.38420010 -0.48859999 207 207 207 1265.000000
-6.49679995 -3.37439990 -0.48910001 216 216 216 1409.000000
-6.48330021 -3.36389995 -0.48969999 225 225 225 1553.000000
-6.47200012 -3.34800005 -0.49070001 220 220 220 1473.000000
-6.45919991 -3.33389997 -0.49160001 216 216 216 1409.000000
-6.44869995 -3.31789994 -0.49259999 229 229 229 1617.000000
-6.43769979 -3.30119991 -0.49370000 199 199 199 1137.000000
-6.42959976 -3.27900004 -0.49520001 202 202 202 1185.000000
-6.42159986 -3.25830007 -0.49669999 206 206 206 1249.000000
-6.41960001 -3.22530007 -0.49910000 183 183 183 881.000000
-6.41750002 -3.19219995 -0.50150001 186 186 186 929.000000
-6.41200018 -3.16599989 -0.50330001 206 206 206 1249.000000
-6.40969992 -3.13290000 -0.50580001 190 190 190 993.000000
-6.84229994 -3.36500001 -0.51270002 189 189 189 977.000000
-6.80480003 -3.38860011 -0.51040000 197 197 197 1105.000000
-6.77120018 -3.40899992 -0.50840002 198 198 198 1121.000000
-6.74020004 -3.42359996 -0.50680000 205 205 205 1233.000000
-6.71600008 -3.42750001 -0.50620002 219 219 219 1457.000000
-6.69140005 -3.43400002 -0.50529999 218 218 218 1441.000000
-6.67019987 -3.43460011 -0.50489998 208 208 208 1281.000000
-6.65089989 -3.43070006 -0.50489998 240 240 240 1793.000000
-6.63170004 -3.42869997 -0.50480002 223 223 223 1521.000000
-6.61229992 -3.42689991 -0.50459999 217 217 217 1425.000000
-6.59359980 -3.42120004 -0.50480002 234 234 234 1697.000000
-6.57499981 -3.41829991 -0.50470001 207 207 207 1265.000000
-6.55910015 -3.41170001 -0.50500000 236 236 236 1729.000000
-6.54040003 -3.40639997 -0.50510001 227 227 227 1585.000000
-6.52750015 -3.39470005 -0.50580001 229 229 229 1617.000000
-6.51119995 -3.38759995 -0.50610000 237 237 237 1745.000000
-6.49550009 -3.37750006 -0.50669998 220 220 220 1473.000000
-6.48250008 -3.36610007 -0.50730002 207 207 207 1265.000000
-6.46990013 -3.35229993 -0.50819999 222 222 222 1505.000000
-6.45749998 -3.33780003 -0.50910002 219 219 219 1457.000000
-6.44789982 -3.32019997 -0.51029998 224 224 224 1537.000000
-6.43680000 -3.30369997 -0.51139998 207 207 207 1265.000000
-6.42829990 -3.28220010 -0.51289999 211 211 211 1329.000000
-6.42000008 -3.26209998 -0.51440001 216 216 216 1409.000000
-6.41820002 -3.22860003 -0.51690000 180 180 180 833.000000
-6.41669989 -3.19440007 -0.51940000 189 189 189 977.000000
-6.41179991 -3.16729999 -0.52139997 210 210 210 1313.000000
-6.40630007 -3.13989997 -0.52340001 196 196 196 1089.000000
-6.43639994 -3.04870009 -0.53070003 173 173 173 721.000000
-6.84959984 -3.35479999 -0.53200001 194 194 194 1057.000000
-6.80509996 -3.38899994 -0.52859998 195 195 195 1073.000000
-6.77379990 -3.40590000 -0.52679998 200 200 200 1153.000000
-6.74249983 -3.42079997 -0.52509999 186 186 186 929.000000
-6.71530008 -3.42939997 -0.52399999 226 226 226 1569.000000
-6.69399977 -3.43079996 -0.52350003 238 238 238 1761.000000
-6.67110014 -3.43420005 -0.52289999 220 220 220 1473.000000
-6.65100002 -3.43149996 -0.52280003 236 236 236 1729.000000
-6.63240004 -3.42849994 -0.52270001 215 215 215 1393.000000
-6.61250019 -3.42740011 -0.52249998 207 207 207 1265.000000
-6.59289980 -3.42330003 -0.52249998 225 225 225 1553.000000
-6.57490015 -3.41939998 -0.52249998 212 212 212 1345.000000
-6.55959988 -3.41179991 -0.52280003 230 230 230 1633.000000
-6.54050016 -3.40709996 -0.52289999 210 210 210 1313.000000
-6.52549982 -3.39870000 -0.52329999 218 218 218 1441.000000
-6.51100016 -3.38879991 -0.52389997 223 223 223 1521.000000
-6.49620008 -3.37730002 -0.52450001 217 217 217 1425.000000
-6.48070002 -3.36999989 -0.52490002 197 197 197 1105.000000
-6.46969986 -3.35360003 -0.52600002 214 214 214 1377.000000
-6.45559978 -3.34179997 -0.52670002 211 211 211 1329.000000
-6.44670010 -3.32310009 -0.52800000 185 185 185 913.000000
-6.43699980 -3.30410004 -0.52929997 223 223 223 1521.000000
-6.42549992 -3.28789997 -0.53039998 228 228 228 1601.000000
-6.41709995 -3.26810002 -0.53179997 203 203 203 1201.000000
-6.41300011 -3.23869991 -0.53410000 207 207 207 1265.000000
-6.41620016 -3.19630003 -0.53740001 194 194 194 1057.000000
-6.40980005 -3.17179990 -0.53920001 216 216 216 1409.000000
-6.40280008 -3.14709997 -0.54110003 206 206 206 1249.000000
-6.40990019 -3.09689999 -0.54509997 163 163 163 561.000000
-6.85650015 -3.34500003 -0.55119997 182 182 182 865.000000
-6.80700016 -3.38689995 -0.54699999 213 213 213 1361.000000
-6.77580023 -3.40370011 -0.54509997 200 200 200 1153.000000
-6.74340010 -3.42039990 -0.54320002 197 197 197 1105.000000
-6.71659994 -3.42820001 -0.54210001 224 224 224 1537.000000
-6.69500017 -3.43020010 -0.54159999 233 233 233 1681.000000
-6.67199993 -3.43359995 -0.54089999 235 235 235 1713.000000
-6.65170002 -3.43120003 -0.54070002 235 235 235 1713.000000
-6.63180017 -3.43020010 -0.54049999 202 202 202 1185.000000
-6.61269999 -3.42799997 -0.54030001 225 225 225 1553.000000
-6.59299994 -3.42389989 -0.54030001 220 220 220 1473.000000
-6.57539988 -3.41939998 -0.54040003 234 234 234 1697.000000
-6.55929995 -3.41319990 -0.54060000 236 236 236 1729.000000
-6.54349995 -3.40310001 -0.54110003 247 247 247 1905.000000
-6.52549982 -3.39969993 -0.54110003 217 217 217 1425.000000
-6.51000023 -3.39129996 -0.54149997 214 214 214 1377.000000
-6.49450016 -3.38100004 -0.54200000 210 210 210 1313.000000
-6.47989988 -3.37229991 -0.54250002 196 196 196 1089.000000
-6.46789980 -3.35750008 -0.54350001 220 220 220 1473.000000
-6.45489979 -3.34389997 -0.54439998 205 205 205 1233.000000
-6.44700003 -3.32349992 -0.54589999 187 187 187 945.000000
-6.43620014 -3.30660009 -0.54699999 229 229 229 1617.000000
-6.42479992 -3.28999996 -0.54820001 221 221 221 1489.000000
-6.41610003 -3.27069998 -0.54960001 218 218 218 1441.000000
-6.40910006 -3.24640012 -0.55140001 200 200 200 1153.000000
-6.41450024 -3.20029998 -0.55519998 223 223 223 1521.000000
-6.41020012 -3.17199993 -0.55739999 204 204 204 1217.000000
-6.40150023 -3.15019989 -0.55900002 196 196 196 1089.000000
-6.40520000 -3.10610008 -0.56260002 175 175 175 753.000000
-6.85589981 -3.34689999 -0.56940001 121 121 121 -111.000000
-6.80989981 -3.38339996 -0.56559998 214 214 214 1377.000000
-6.77689981 -3.40289998 -0.56339997 223 223 223 1521.000000
-6.74650002 -3.41630006 -0.56169999 230 230 230 1633.000000
-6.71859980 -3.42600012 -0.56040001 217 217 217 1425.000000
-6.69449997 -3.43179989 -0.55949998 222 222 222 1505.000000
-6.67299986 -3.43280005 -0.55900002 236 236 236 1729.000000
-6.65280008 -3.43039989 -0.55879998 229 229 229 1617.000000
-6.63290024 -3.42939997 -0.55849999 206 206 206 1249.000000
-6.61350012 -3.42759991 -0.55830002 238 238 238 1761.000000
-6.59340000 -3.42409992 -0.55820000 233 233 233 1681.000000
-6.57600021 -3.41919994 -0.55820000 255 255 255 2033.000000
-6.55849981 -3.41529989 -0.55820000 221 221 221 1489.000000
-6.54169989 -3.40700006 -0.55860001 206 206 206 1249.000000
-6.52540016 -3.40079999 -0.55879998 219 219 219 1457.000000
-6.51090002 -3.39080000 -0.55940002 206 206 206 1249.000000
-6.49329996 -3.38380003 -0.55960000 218 218 218 1441.000000
-6.47989988 -3.37319994 -0.56029999 206 206 206 1249.000000
-6.46680021 -3.36030006 -0.56110001 192 192 192 1025.000000
-6.45310020 -3.34789991 -0.56190002 200 200 200 1153.000000
-6.44409990 -3.32929993 -0.56320000 200 200 200 1153.000000
-6.43489981 -3.30960011 -0.56470001 227 227 227 1585.000000
-6.42399979 -3.29239988 -0.56590003 224 224 224 1537.000000
-6.41459990 -3.27419996 -0.56730002 207 207 207 1265.000000
-6.40749979 -3.25020003 -0.56910002 187 187 187 945.000000
-6.41190004 -3.20569992 -0.57279998 181 181 181 849.000000
-6.40780020 -3.17720008 -0.57510000 200 200 200 1153.000000
-6.40000010 -3.15389991 -0.57690001 194 194 194 1057.000000
-6.39480019 -3.12560010 -0.57920003 184 184 184 897.000000
-6.81209993 -3.38080001 -0.58410001 239 239 239 1777.000000
-6.77909994 -3.40030003 -0.58179998 214 214 214 1377.000000
-6.74830008 -3.41440010 -0.57999998 235 235 235 1713.000000
-6.71880007 -3.42650008 -0.57840002 193 193 193 1041.000000
-6.69610023 -3.43020010 -0.57760000 193 193 193 1041.000000
-6.67500019 -3.43059993 -0.57720000 228 228 228 1601.000000
-6.65310001 -3.43070006 -0.57669997 217 217 217 1425.000000
-6.63259983 -3.43079996 -0.57630002 206 206 206 1249.000000
-6.61289978 -3.42939997 -0.57599998 224 224 224 1537.000000
-6.59439993 -3.42350006 -0.57609999 255 255 255 2033.000000
-6.57550001 -3.42090011 -0.57599998 220 220 220 1473.000000
-6.55749989 -3.41779995 -0.57590002 235 235 235 1713.000000
-6.54040003 -3.40989995 -0.57620001 214 214 214 1377.000000
-6.52689981 -3.39910007 -0.57679999 226 226 226 1569.000000
-6.50950003 -3.39400005 -0.57690001 210 210 210 1313.000000
-6.49329996 -3.38479996 -0.57740003 216 216 216 1409.000000
-6.47949982 -3.37479997 -0.57800001 214 214 214 1377.000000
-6.46540022 -3.36360002 -0.57859999 216 216 216 1409.000000
-6.45310020 -3.34870005 -0.57969999 203 203 203 1201.000000
-6.44220018 -3.33349991 -0.58069998 223 223 223 1521.000000
-6.43310022 -3.31360006 -0.58219999 217 217 217 1425.000000
-6.42280006 -3.29539990 -0.58359998 208 208 208 1281.000000
-6.41330004 -3.27729988 -0.58499998 234 234 234 1697.000000
-6.40679979 -3.25219989 -0.58690000 195 195 195 1073.000000
-6.40670013 -3.21580005 -0.58999997 229 229 229 1617.000000
-6.40619993 -3.18109989 -0.59289998 197 197 197 1105.000000
-6.39949989 -3.15569997 -0.59500003 217 217 217 1425.000000
-6.39289999 -3.13000011 -0.59700000 199 199 199 1137.000000
-6.81370020 -3.37919998 -0.60250002 227 227 227 1585.000000
-6.77979994 -3.40009999 -0.60000002 199 199 199 1137.000000
-6.74849987 -3.41490006 -0.59810001 214 214 214 1377.000000
-6.72009993 -3.42540002 -0.59660000 199 199 199 1137.000000
-6.69659996 -3.43030000 -0.59560001 216 216 216 1409.000000
-6.67640018 -3.42930007 -0.59530002 230 230 230 1633.000000
-6.65250015 -3.43260002 -0.59450001 218 218 218 1441.000000
-6.63450003 -3.42860007 -0.59439999 233 233 233 1681.000000
-6.61530018 -3.42650008 -0.59420002 233 233 233 1681.000000
-6.59429979 -3.42449999 -0.59390002 222 222 222 1505.000000
-6.57399988 -3.42429996 -0.59350002 218 218 218 1441.000000
-6.55810022 -3.41779995 -0.59369999 227 227 227 1585.000000
-6.53940010 -3.41249990 -0.59380001 216 216 216 1409.000000
-6.52549982 -3.40229988 -0.59439999 224 224 224 1537.000000
-6.50969982 -3.39450002 -0.59469998 239 239 239 1777.000000
-6.49319983 -3.38590002 -0.59509999 222 222 222 1505.000000
-6.48019981 -3.37439990 -0.59590000 234 234 234 1697.000000
-6.46530008 -3.36459994 -0.59640002 219 219 219 1457.000000
-6.45330000 -3.34929991 -0.59750003 246 246 246 1889.000000
-6.44119978 -3.33620000 -0.59840000 205 205 205 1233.000000
-6.43219995 -3.31599998 -0.59990001 193 193 193 1041.000000
-6.42199993 -3.29760003 -0.60130000 206 206 206 1249.000000
-6.41200018 -3.28040004 -0.60259998 192 192 192 1025.000000
-6.40469980 -3.25679994 -0.60450000 221 221 221 1489.000000
-6.40080023 -3.22700000 -0.60699999 192 192 192 1025.000000
-6.40570021 -3.18289995 -0.61089998 203 203 203 1201.000000
-6.39779997 -3.15980005 -0.61280000 211 211 211 1329.000000
-6.39179993 -3.13290000 -0.61500001 203 203 203 1201.000000
-6.41669989 -3.05259991 -0.62239999 166 166 166 609.000000
-6.81500006 -3.37800002 -0.62099999 202 202 202 1185.000000
-6.78189993 -3.39770007 -0.61849999 171 171 171 689.000000
-6.74860001 -3.41569996 -0.61610001 202 202 202 1185.000000
-6.72069979 -3.42540002 -0.61460000 195 195 195 1073.000000
-6.69750023 -3.42960000 -0.61369997 216 216 216 1409.000000
-6.67799997 -3.42750001 -0.61350000 232 232 232 1665.000000
-6.65259981 -3.43330002 -0.61240000 214 214 214 1377.000000
-6.63369989 -3.43059993 -0.61220002 225 225 225 1553.000000
-6.61579990 -3.42650008 -0.61210001 222 222 222 1505.000000
-6.59350014 -3.42670012 -0.61159998 213 213 213 1361.000000
-6.57450008 -3.42429996 -0.61140001 215 215 215 1393.000000
-6.55740023 -3.41969991 -0.61140001 237 237 237 1745.000000
-6.53980017 -3.41260004 -0.61170000 200 200 200 1153.000000
-6.52500010 -3.40409994 -0.61210001 219 219 219 1457.000000
-6.50860023 -3.39720011 -0.61229998 231 231 231 1649.000000
-6.49289989 -3.38720012 -0.61290002 215 215 215 1393.000000
-6.47980022 -3.37610006 -0.61360002 208 208 208 1281.000000
-6.46360016 -3.36829996 -0.61390001 195 195 195 1073.000000
-6.45109987 -3.35400009 -0.61489999 204 204 204 1217.000000
-6.43879986 -3.34100008 -0.61580002 177 177 177 785.000000
-6.43009996 -3.32049990 -0.61739999 211 211 211 1329.000000
-6.42070007 -3.30080009 -0.61900002 195 195 195 1073.000000
-6.41209984 -3.28130007 -0.62050003 192 192 192 1025.000000
-6.40369987 -3.25959992 -0.62230003 199 199 199 1137.000000
-6.39830017 -3.23230004 -0.62459999 192 192 192 1025.000000
-6.40460014 -3.18569994 -0.62879997 196 196 196 1089.000000
-6.39690018 -3.16219997 -0.63080001 220 220 220 1473.000000
-6.38780022 -3.14100003 -0.63249999 201 201 201 1169.000000
-6.41160011 -3.06270003 -0.63990003 210 210 210 1313.000000
-6.81619978 -3.37719989 -0.63940001 199 199 199 1137.000000
-6.78389978 -3.39549994 -0.63690001 184 184 184 897.000000
-6.75070000 -3.41330004 -0.63450003 197 197 197 1105.000000
-6.72259998 -3.42330003 -0.63290000 198 198 198 1121.000000
-6.69869995 -3.42869997 -0.63190001 229 229 229 1617.000000
-6.67799997 -3.42840004 -0.63139999 231 231 231 1649.000000
-6.65280008 -3.43379998 -0.63029999 212 212 212 1345.000000
-6.63420010 -3.43070006 -0.63010001 227 227 227 1585.000000
-6.61469984 -3.42919993 -0.62980002 226 226 226 1569.000000
-6.59329987 -3.42779994 -0.62940001 235 235 235 1713.000000
-6.57490015 -3.42459989 -0.62930000 227 227 227 1585.000000
-6.55560017 -3.42359996 -0.62889999 233 233 233 1681.000000
-6.54059982 -3.41230011 -0.62959999 243 243 243 1841.000000
-6.52449989 -3.40569997 -0.62980002 215 215 215 1393.000000
-6.50839996 -3.39840007 -0.63010001 233 233 233 1681.000000
-6.49240017 -3.38890004 -0.63059998 207 207 207 1265.000000
-6.47830009 -3.37949991 -0.63110000 206 206 206 1249.000000
-6.46229982 -3.37150002 -0.63139999 195 195 195 1073.000000
-6.45160007 -3.35409999 -0.63279998 221 221 221 1489.000000
-6.43900013 -3.34170008 -0.63360000 228 228 228 1601.000000
-6.42700005 -3.32680011 -0.63470000 216 216 216 1409.000000
-6.41860008 -3.30539989 -0.63650000 211 211 211 1329.000000
-6.41069984 -3.28460002 -0.63819999 208 208 208 1281.000000
-6.40170002 -3.26390004 -0.63990003 209 209 209 1297.000000
-6.39239979 -3.24359989 -0.64150000 205 205 205 1233.000000
-6.40030003 -3.19420004 -0.64620000 190 190 190 993.000000
-6.39629984 -3.16420007 -0.64880002 213 213 213 1361.000000
-6.38509989 -3.14680004 -0.65020001 201 201 201 1169.000000
-6.38700008 -3.10770011 -0.65380001 173 173 173 721.000000
-6.82110023 -3.37050009 -0.65840000 215 215 215 1393.000000
-6.78590012 -3.39319992 -0.65539998 199 199 199 1137.000000
-6.75180006 -3.41240001 -0.65280002 204 204 204 1217.000000
-6.72249985 -3.42420006 -0.65090001 200 200 200 1153.000000
-6.69869995 -3.42960000 -0.64980000 223 223 223 1521.000000
-6.67899990 -3.42770004 -0.64950001 228 228 228 1601.000000
-6.65420008 -3.43249989 -0.64840001 214 214 214 1377.000000
-6.63490009 -3.43059993 -0.64810002 219 219 219 1457.000000
-6.61420012 -3.43079996 -0.64760000 229 229 229 1617.000000
-6.59340000 -3.42849994 -0.64730000 232 232 232 1665.000000
-6.57490015 -3.42549992 -0.64709997 212 212 212 1345.000000
-6.55660009 -3.42280006 -0.64690000 230 230 230 1633.000000
-6.54040003 -3.41339993 -0.64730000 254 254 254 2017.000000
-6.52320004 -3.40879989 -0.64730000 218 218 218 1441.000000
-6.50860023 -3.39890003 -0.64789999 239 239 239 1777.000000
-6.49209976 -3.39039993 -0.64829999 219 219 219 1457.000000
-6.47870016 -3.37969995 -0.64889997 222 222 222 1505.000000
-6.46220016 -3.37260008 -0.64920002 216 216 216 1409.000000
-6.44789982 -3.36120009 -0.64990002 206 206 206 1249.000000
-6.43790007 -3.34450006 -0.65120000 199 199 199 1137.000000
-6.42759991 -3.32660007 -0.65259999 195 195 195 1073.000000
-6.41750002 -3.30819988 -0.65410000 212 212 212 1345.000000
-6.40789986 -3.29049993 -0.65560001 210 210 210 1313.000000
-6.40040016 -3.26710010 -0.65750003 217 217 217 1425.000000
