-0.24110000 5.51940012 0.90140003 255 255 255 1553.000000
-0.22820000 5.51830006 0.90149999 255 255 255 1489.000000
-0.21470000 5.51719999 0.90160000 255 255 255 1441.000000
-0.20070000 5.51660013 0.90179998 255 255 255 1473.000000
-0.18790001 5.51639986 0.90210003 255 255 255 1441.000000
-0.17440000 5.51700020 0.90249997 255 255 255 1569.000000
-0.16090000 5.51690006 0.90280002 255 255 255 1921.000000
-0.14810000 5.51889992 0.90340000 255 255 255 1841.000000
-0.13480000 5.52400017 0.90450001 255 255 255 1841.000000
-0.12090000 5.52519989 0.90509999 255 255 255 1649.000000
-0.10810000 5.53219986 0.90649998 255 255 255 1537.000000
-0.09500000 5.53630018 0.90750003 255 255 255 1457.000000
-0.08120000 5.55100012 0.91030002 255 255 255 1857.000000
-0.06830000 5.57299995 0.91430002 255 255 255 881.000000
-0.05600000 5.67939997 0.93210000 255 255 255 993.000000
-0.39899999 5.65999985 0.90740001 255 255 255 -415.000000
-0.38060001 5.60050011 0.89810002 255 255 255 689.000000
-0.36559999 5.57959986 0.89490002 255 255 255 881.000000
-0.35100001 5.56180000 0.89230001 255 255 255 641.000000
-0.33640000 5.54790020 0.89029998 255 255 255 1377.000000
-0.32229999 5.53900003 0.88910002 255 255 255 1345.000000
-0.30880001 5.53420019 0.88859999 255 255 255 1297.000000
-0.29510000 5.52740002 0.88770002 255 255 255 1265.000000
-0.28110000 5.52120018 0.88700002 255 255 255 1489.000000
-0.26809999 5.52059984 0.88709998 255 255 255 1665.000000
-0.25450000 5.51789999 0.88700002 255 255 255 1441.000000
-0.24060000 5.51709986 0.88709998 255 255 255 1489.000000
-0.22770000 5.51709986 0.88739997 255 255 255 1393.000000
-0.21420000 5.51490021 0.88730001 255 255 255 1457.000000
-0.20029999 5.51690006 0.88789999 255 255 255 1553.000000
-0.18750000 5.51590014 0.88810003 255 255 255 1569.000000
-0.17389999 5.51550007 0.88830000 255 255 255 1889.000000
-0.16040000 5.51450014 0.88840002 255 255 255 1841.000000
-0.14770000 5.51940012 0.88950002 255 255 255 1841.000000
-0.13440000 5.52479982 0.89069998 255 255 255 1969.000000
-0.12060000 5.52640009 0.89130002 255 255 255 1521.000000
-0.10770000 5.53280020 0.89270002 255 255 255 1537.000000
-0.09470000 5.54010010 0.89420003 255 255 255 1921.000000
-0.08080000 5.55079985 0.89630002 255 255 255 1137.000000
-0.06800000 5.57959986 0.90130001 255 255 255 881.000000
-0.05560000 5.67539978 0.91710001 255 255 255 -1007.000000
-0.39739999 5.64359999 0.89050001 255 255 255 465.000000
-0.37970001 5.59259987 0.88270003 255 255 255 1153.000000
-0.36500001 5.57550001 0.88020003 255 255 255 1009.000000
-0.35040000 5.55859995 0.87779999 255 255 255 1025.000000
-0.33600000 5.54790020 0.87629998 255 255 255 897.000000
-0.32179999 5.53800011 0.87500000 255 255 255 1505.000000
-0.30829999 5.53219986 0.87430000 255 255 255 1217.000000
-0.29470000 5.52650023 0.87360001 255 255 255 1169.000000
-0.28070000 5.52089977 0.87300003 255 255 255 1473.000000
-0.26769999 5.51949978 0.87300003 255 255 255 1633.000000
-0.25409999 5.51700020 0.87290001 255 255 255 1569.000000
-0.24030000 5.51739979 0.87320000 255 255 255 1249.000000
-0.22730000 5.51660013 0.87339997 255 255 255 1457.000000
-0.21380000 5.51529980 0.87349999 255 255 255 1441.000000
-0.19980000 5.51469994 0.87370002 255 255 255 1553.000000
-0.18700001 5.51440001 0.87390000 255 255 255 1697.000000
-0.17350000 5.51359987 0.87410003 255 255 255 1057.000000
-0.16000000 5.51329994 0.87430000 255 255 255 1649.000000
-0.14730000 5.51900005 0.87550002 255 255 255 1649.000000
-0.13400000 5.52460003 0.87669998 255 255 255 1953.000000
-0.12020000 5.52810001 0.87760001 255 255 255 1345.000000
-0.10730000 5.53369999 0.87889999 255 255 255 1233.000000
-0.09430000 5.54110003 0.88040000 255 255 255 2033.000000
-0.08040000 5.55560017 0.88300002 255 255 255 1105.000000
-0.06770000 5.58869982 0.88859999 255 255 255 1329.000000
-0.39579999 5.62550020 0.87339997 255 255 255 1393.000000
-0.37900001 5.58790016 0.86780000 255 255 255 1185.000000
-0.36440000 5.57229996 0.86559999 255 255 255 1057.000000
-0.34970000 5.55350018 0.86290002 255 255 255 1089.000000
-0.33539999 5.54409981 0.86170000 255 255 255 1249.000000
-0.32130000 5.53529978 0.86059999 255 255 255 721.000000
-0.30790001 5.53119993 0.86019999 255 255 255 1089.000000
-0.29420000 5.52489996 0.85939997 255 255 255 1361.000000
-0.28040001 5.52129984 0.85909998 255 255 255 1441.000000
-0.26719999 5.51840019 0.85890001 255 255 255 1585.000000
-0.25369999 5.51819992 0.85920000 255 255 255 1665.000000
-0.23989999 5.51690006 0.85920000 255 255 255 1553.000000
-0.22690000 5.51609993 0.85939997 255 255 255 1473.000000
-0.21340001 5.51510000 0.85949999 255 255 255 1393.000000
-0.19949999 5.51560020 0.85990000 255 255 255 1521.000000
-0.18660000 5.51420021 0.86000001 255 255 255 1633.000000
-0.17309999 5.51399994 0.86019999 255 255 255 1329.000000
-0.15970001 5.51520014 0.86070001 255 255 255 1249.000000
-0.14700000 5.52120018 0.86199999 255 255 255 1697.000000
-0.13360000 5.52320004 0.86260003 255 255 255 1425.000000
-0.11980000 5.52470016 0.86320001 255 255 255 1265.000000
-0.10690000 5.53189993 0.86460000 255 255 255 1425.000000
-0.09400000 5.54570007 0.86710000 255 255 255 2033.000000
-0.08000000 5.55550003 0.86900002 255 255 255 1009.000000
-0.06730000 5.59119987 0.87489998 255 255 255 1473.000000
-0.39410001 5.60750008 0.85650003 255 255 255 593.000000
-0.37850001 5.58559990 0.85339999 255 255 255 1377.000000
-0.36390001 5.57130003 0.85140002 255 255 255 961.000000
-0.34940001 5.55380011 0.84899998 255 255 255 881.000000
-0.33489999 5.54230022 0.84740001 255 255 255 1137.000000
-0.32080001 5.53399992 0.84640002 255 255 255 913.000000
-0.30739999 5.52969980 0.84600002 255 255 255 1281.000000
-0.29370001 5.52290010 0.84520000 255 255 255 1409.000000
-0.27990001 5.51940012 0.84490001 255 255 255 1329.000000
-0.26690000 5.51849985 0.84500003 255 255 255 1537.000000
-0.25330001 5.51669979 0.84500003 255 255 255 1665.000000
-0.23940000 5.51550007 0.84509999 255 255 255 1361.000000
-0.22660001 5.51660013 0.84560001 255 255 255 1265.000000
-0.21310000 5.51510000 0.84560001 255 255 255 1665.000000
-0.19910000 5.51459980 0.84579998 255 255 255 1489.000000
-0.18619999 5.51380014 0.84600002 255 255 255 1601.000000
-0.17270000 5.51240015 0.84609997 255 255 255 1169.000000
-0.15930000 5.51690006 0.84710002 255 255 255 1425.000000
-0.14659999 5.52110004 0.84810001 255 255 255 1569.000000
-0.13330001 5.52470016 0.84890002 255 255 255 1777.000000
-0.11950000 5.53030014 0.85009998 255 255 255 1569.000000
-0.10650000 5.53359985 0.85100001 255 255 255 1393.000000
-0.09360000 5.54600000 0.85320002 255 255 255 2033.000000
-0.07970000 5.56069994 0.85579997 255 255 255 785.000000
-0.06700000 5.60010004 0.86220002 255 255 255 961.000000
-0.39350000 5.60379982 0.84179997 255 255 255 1249.000000
-0.37810001 5.58529997 0.83920002 255 255 255 1137.000000
-0.36320001 5.56540012 0.83649999 255 255 255 561.000000
-0.34889999 5.55200005 0.83469999 255 255 255 865.000000
-0.33440000 5.54069996 0.83319998 255 255 255 1409.000000
-0.32049999 5.53369999 0.83240002 255 255 255 1185.000000
-0.30700001 5.52820015 0.83179998 255 255 255 1233.000000
-0.29330000 5.52220011 0.83120000 255 255 255 1473.000000
-0.27939999 5.51709986 0.83069998 255 255 255 1729.000000
-0.26640001 5.51760006 0.83099997 255 255 255 1425.000000
-0.25290000 5.51719999 0.83120000 255 255 255 1489.000000
-0.23899999 5.51520014 0.83120000 255 255 255 1393.000000
-0.22610000 5.51350021 0.83120000 255 255 255 1329.000000
-0.21259999 5.51420021 0.83160001 255 255 255 1569.000000
-0.19870000 5.51429987 0.83190000 255 255 255 1617.000000
-0.18580000 5.51410007 0.83219999 255 255 255 1681.000000
-0.17240000 5.51539993 0.83270001 255 255 255 1665.000000
-0.15899999 5.51900005 0.83350003 255 255 255 1713.000000
-0.14620000 5.52129984 0.83420002 255 255 255 1521.000000
-0.13290000 5.52680016 0.83530003 255 255 255 1889.000000
-0.11910000 5.53179979 0.83639997 255 255 255 1505.000000
-0.10620000 5.53569984 0.83730000 255 255 255 1297.000000
-0.09320000 5.54640007 0.83929998 255 255 255 2033.000000
-0.07940000 5.56379986 0.84230000 255 255 255 785.000000
-0.06670000 5.60909986 0.84950000 255 255 255 721.000000
-0.41130000 5.67100000 0.83740002 255 255 255 -2047.000000
-0.39300001 5.60239983 0.82749999 255 255 255 1425.000000
-0.37750000 5.58139992 0.82459998 255 255 255 929.000000
-0.36240000 5.55910015 0.82150000 255 255 255 785.000000
-0.34830001 5.54829979 0.82020003 255 255 255 817.000000
-0.33390000 5.53789997 0.81889999 255 255 255 1665.000000
-0.31999999 5.53280020 0.81830001 255 255 255 1425.000000
-0.30660000 5.52810001 0.81790000 255 255 255 1089.000000
-0.29290000 5.52260017 0.81730002 255 255 255 1489.000000
-0.27910000 5.51919985 0.81709999 255 255 255 1585.000000
-0.26600000 5.51630020 0.81690001 255 255 255 1505.000000
-0.25240001 5.51510000 0.81699997 255 255 255 1409.000000
-0.23870000 5.51539993 0.81730002 255 255 255 1329.000000
-0.22570001 5.51440001 0.81750000 255 255 255 1473.000000
-0.21220000 5.51389980 0.81770003 255 255 255 1521.000000
-0.19830000 5.51429987 0.81800002 255 255 255 1633.000000
-0.18539999 5.51310015 0.81819999 255 255 255 1489.000000
-0.17190000 5.51280022 0.81840003 255 255 255 1489.000000
-0.15860000 5.51809978 0.81950003 255 255 255 1809.000000
-0.14579999 5.52269983 0.82050002 255 255 255 1489.000000
-0.13259999 5.52780008 0.82160002 255 255 255 1969.000000
-0.11870000 5.53240013 0.82260001 255 255 255 1601.000000
-0.10580000 5.53749990 0.82370001 255 255 255 1265.000000
-0.09290000 5.54949999 0.82580000 255 255 255 2033.000000
-0.07900000 5.56939983 0.82910001 255 255 255 721.000000
-0.06680000 5.65089989 0.84160000 255 255 255 529.000000
-0.40979999 5.65520000 0.82080001 255 255 255 -1055.000000
-0.39240000 5.59880018 0.81279999 255 255 255 1057.000000
-0.37700000 5.58010006 0.81029999 255 255 255 769.000000
-0.36190000 5.55639982 0.80710000 255 255 255 977.000000
-0.34770000 5.54589987 0.80580002 255 255 255 913.000000
-0.33340001 5.53620005 0.80470002 255 255 255 1441.000000
-0.31959999 5.53160000 0.80430001 255 255 255 1089.000000
-0.30610001 5.52559996 0.80360001 255 255 255 1121.000000
-0.29240000 5.52050018 0.80309999 255 255 255 1345.000000
-0.27869999 5.51739979 0.80290002 255 255 255 1585.000000
-0.26560000 5.51590014 0.80299997 255 255 255 1521.000000
-0.25200000 5.51399994 0.80299997 255 255 255 1361.000000
-0.23819999 5.51259995 0.80309999 255 255 255 1425.000000
-0.22530000 5.51259995 0.80330002 255 255 255 1361.000000
-0.21190000 5.51410007 0.80379999 255 255 255 1585.000000
-0.19790000 5.51359987 0.80409998 255 255 255 1569.000000
-0.18510000 5.51399994 0.80440003 255 255 255 1825.000000
-0.17150000 5.51289988 0.80460000 255 255 255 1265.000000
-0.15820000 5.51690006 0.80549997 255 255 255 1297.000000
-0.14550000 5.52449989 0.80690002 255 255 255 1681.000000
-0.13220000 5.52740002 0.80760002 255 255 255 1649.000000
-0.11840000 5.53259993 0.80870003 255 255 255 1425.000000
-0.10540000 5.53809977 0.80989999 255 255 255 1521.000000
-0.09250000 5.54939985 0.81180000 255 255 255 1921.000000
-0.07870000 5.57310009 0.81569999 255 255 255 865.000000
-0.06660000 5.67299986 0.83069998 255 255 255 193.000000
-0.40889999 5.64699984 0.80540001 255 255 255 193.000000
-0.39190000 5.59749985 0.79860002 255 255 255 993.000000
-0.37630001 5.57509995 0.79560000 255 255 255 769.000000
-0.36140001 5.55520010 0.79299998 255 255 255 881.000000
-0.34720001 5.54320002 0.79149997 255 255 255 1073.000000
-0.33280000 5.53319979 0.79030001 255 255 255 1089.000000
-0.31909999 5.52950001 0.79000002 255 255 255 1089.000000
-0.30570000 5.52489996 0.78960001 255 255 255 1185.000000
-0.29200000 5.51910019 0.78909999 255 255 255 1393.000000
-0.27820000 5.51669979 0.78899997 255 255 255 1601.000000
-0.26519999 5.51469994 0.78899997 255 255 255 1617.000000
-0.25160000 5.51350021 0.78909999 255 255 255 1473.000000
-0.23780000 5.51270008 0.78920001 255 255 255 1649.000000
-0.22490001 5.51240015 0.78950000 255 255 255 1441.000000
-0.21140000 5.51230001 0.78969997 255 255 255 1729.000000
-0.19740000 5.51270008 0.79009998 255 255 255 1649.000000
-0.18470000 5.51440001 0.79060000 255 255 255 1729.000000
-0.17120001 5.51310015 0.79070002 255 255 255 1217.000000
-0.15790001 5.51949978 0.79200000 255 255 255 1121.000000
-0.14510000 5.52460003 0.79299998 255 255 255 1729.000000
-0.13180000 5.52909994 0.79400003 255 255 255 1521.000000
-0.11800000 5.53380013 0.79500002 255 255 255 1457.000000
-0.10510000 5.53999996 0.79619998 255 255 255 1473.000000
-0.09220000 5.55319977 0.79850000 255 255 255 2033.000000
-0.07840000 5.58109999 0.80280000 255 255 255 1505.000000
-0.06620000 5.67159986 0.81620002 255 255 255 -2047.000000
-0.40750000 5.63409996 0.78939998 255 255 255 449.000000
-0.39140001 5.59509993 0.78410000 255 255 255 753.000000
-0.37570000 5.57180023 0.78109998 255 255 255 881.000000
-0.36090001 5.55289984 0.77869999 255 255 255 849.000000
-0.34670001 5.54129982 0.77730000 255 255 255 913.000000
-0.33250001 5.53380013 0.77649999 255 255 255 1489.000000
-0.31869999 5.52839994 0.77600002 255 255 255 1041.000000
-0.30520001 5.52260017 0.77539998 255 255 255 1201.000000
-0.29170001 5.51989985 0.77530003 255 255 255 1473.000000
-0.27779999 5.51580000 0.77499998 255 255 255 1489.000000
-0.26480001 5.51420021 0.77499998 255 255 255 1473.000000
-0.25119999 5.51210022 0.77499998 255 255 255 1553.000000
-0.23729999 5.51060009 0.77509999 255 255 255 1409.000000
-0.22450000 5.51200008 0.77550000 255 255 255 1537.000000
-0.21110000 5.51399994 0.77609998 255 255 255 1601.000000
-0.19710000 5.51350021 0.77640003 255 255 255 1681.000000
-0.18430001 5.51410007 0.77670002 255 255 255 1777.000000
-0.17080000 5.51280022 0.77689999 255 255 255 1617.000000
-0.15750000 5.51949978 0.77810001 255 255 255 1441.000000
-0.14480001 5.52619982 0.77939999 255 255 255 1729.000000
-0.13150001 5.53060007 0.78030002 255 255 255 1521.000000
-0.11760000 5.53399992 0.78109998 255 255 255 1217.000000
-0.10470000 5.54050016 0.78240001 255 255 255 1217.000000
-0.09180000 5.55310011 0.78450000 255 255 255 2033.000000
-0.07810000 5.58850002 0.78990000 255 255 255 1489.000000
-0.40640000 5.62349987 0.77380002 255 255 255 609.000000
-0.39060000 5.58970022 0.76929998 255 255 255 1137.000000
-0.37500000 5.56669998 0.76639998 255 255 255 577.000000
-0.36010000 5.54699993 0.76389998 255 255 255 1057.000000
-0.34630001 5.54029989 0.76319999 255 255 255 929.000000
-0.33199999 5.53219986 0.76239997 255 255 255 1041.000000
-0.31810001 5.52610016 0.76179999 255 255 255 1041.000000
-0.30469999 5.52139997 0.76139998 255 255 255 1169.000000
-0.29130000 5.51989985 0.76139998 255 255 255 1217.000000
-0.27730000 5.51359987 0.76080000 255 255 255 1473.000000
-0.26429999 5.51259995 0.76099998 255 255 255 1489.000000
-0.25070000 5.51100016 0.76099998 255 255 255 1377.000000
-0.23690000 5.51100016 0.76130003 255 255 255 1409.000000
-0.22409999 5.51130009 0.76160002 255 255 255 1345.000000
-0.21070001 5.51259995 0.76209998 255 255 255 1841.000000
-0.19670001 5.51259995 0.76239997 255 255 255 1665.000000
-0.18390000 5.51380014 0.76289999 255 255 255 1745.000000
-0.17039999 5.51280022 0.76300001 255 255 255 1793.000000
-0.15710001 5.52159977 0.76459998 255 255 255 1681.000000
-0.14440000 5.52570009 0.76539999 255 255 255 1777.000000
-0.13110000 5.53280020 0.76679999 255 255 255 1441.000000
-0.11730000 5.53700018 0.76770002 255 255 255 1249.000000
-0.10430000 5.54160023 0.76859999 255 255 255 1393.000000
-0.09140000 5.55340004 0.77060002 255 255 255 1729.000000
-0.07780000 5.59219980 0.77640003 255 255 255 1361.000000
-0.40529999 5.61329985 0.75830001 255 255 255 801.000000
-0.38990000 5.58459997 0.75459999 255 255 255 945.000000
-0.37439999 5.56379986 0.75199997 255 255 255 801.000000
-0.35969999 5.54570007 0.74980003 255 255 255 961.000000
-0.34580001 5.53889990 0.74910003 255 255 255 1217.000000
-0.33160001 5.53179979 0.74839997 255 255 255 1313.000000
-0.31779999 5.52640009 0.74800003 255 255 255 1041.000000
-0.30430001 5.52099991 0.74750000 255 255 255 1329.000000
-0.29080001 5.51700020 0.74720001 255 255 255 1425.000000
-0.27700001 5.51389980 0.74710000 255 255 255 1457.000000
-0.26390001 5.51140022 0.74699998 255 255 255 1569.000000
-0.25029999 5.50909996 0.74690002 255 255 255 1393.000000
-0.23660000 5.51179981 0.74760002 255 255 255 1537.000000
-0.22370000 5.51100016 0.74779999 255 255 255 1489.000000
-0.21020000 5.51170015 0.74820000 255 255 255 1665.000000
-0.19630000 5.51340008 0.74870002 255 255 255 1649.000000
-0.18350001 5.51310015 0.74900001 255 255 255 1521.000000
-0.17000000 5.51319981 0.74930000 255 255 255 1569.000000
-0.15680000 5.52159977 0.75070000 255 255 255 1537.000000
-0.14399999 5.52759981 0.75190002 255 255 255 1681.000000
-0.13070001 5.53319979 0.75290000 255 255 255 1697.000000
-0.11690000 5.53700018 0.75379997 255 255 255 1233.000000
-0.10390000 5.54239988 0.75489998 255 255 255 1489.000000
-0.09100000 5.55480003 0.75690001 255 255 255 1553.000000
-0.07750000 5.60069990 0.76349998 255 255 255 1089.000000
-0.40439999 5.60669994 0.74330002 255 255 255 769.000000
-0.38920000 5.57980013 0.74000001 255 255 255 1041.000000
-0.37369999 5.55900002 0.73740000 255 255 255 977.000000
-0.35920000 5.54390001 0.73570001 255 255 255 1073.000000
-0.34520000 5.53529978 0.73479998 255 255 255 1025.000000
-0.33109999 5.52899981 0.73420000 255 255 255 1121.000000
-0.31729999 5.52460003 0.73390001 255 255 255 1201.000000
-0.30379999 5.51879978 0.73329997 255 255 255 1537.000000
-0.29030001 5.51609993 0.73320001 255 255 255 2033.000000
-0.27649999 5.51189995 0.73299998 255 255 255 1617.000000
-0.26350001 5.51140022 0.73320001 255 255 255 1457.000000
-0.24990000 5.50979996 0.73320001 255 255 255 1601.000000
-0.23610000 5.50969982 0.73350000 255 255 255 1521.000000
-0.22319999 5.50950003 0.73369998 255 255 255 1649.000000
-0.20990001 5.51170015 0.73430002 255 255 255 1505.000000
-0.19589999 5.51210022 0.73470002 255 255 255 1665.000000
-0.18310000 5.51170015 0.73490000 255 255 255 1665.000000
-0.16970000 5.51450014 0.73559999 255 255 255 1953.000000
-0.15640000 5.52299976 0.73710001 255 255 255 1409.000000
-0.14370000 5.52920008 0.73820001 255 255 255 1505.000000
-0.13040000 5.53459978 0.73930001 255 255 255 1505.000000
-0.11650000 5.53830004 0.74010003 255 255 255 1217.000000
-0.10360000 5.54549980 0.74140000 255 255 255 1665.000000
-0.09060000 5.55770016 0.74339998 255 255 255 1393.000000
-0.07720000 5.60979986 0.75070000 255 255 255 785.000000
-0.42170000 5.65689993 0.73549998 255 255 255 -2047.000000
-0.40369999 5.60220003 0.72869998 255 255 255 801.000000
-0.38870001 5.57770014 0.72570002 255 255 255 993.000000
-0.37300000 5.55329990 0.72280002 255 255 255 961.000000
-0.35859999 5.54110003 0.72140002 255 255 255 1265.000000
-0.34490001 5.53590012 0.72100002 255 255 255 1249.000000
-0.33070001 5.52850008 0.72030002 255 255 255 1281.000000
-0.31680000 5.52220011 0.71969998 255 255 255 1297.000000
-0.30340001 5.51719999 0.71929997 255 255 255 1473.000000
-0.28979999 5.51389980 0.71910000 255 255 255 1569.000000
-0.27610001 5.51130009 0.71910000 255 255 255 1393.000000
-0.26310000 5.51000023 0.71920002 255 255 255 1473.000000
-0.24950001 5.50769997 0.71920002 255 255 255 1441.000000
-0.23570000 5.50769997 0.71939999 255 255 255 1473.000000
-0.22280000 5.50939989 0.71990001 255 255 255 1633.000000
-0.20940000 5.51020002 0.72030002 255 255 255 1537.000000
-0.19550000 5.51270008 0.72100002 255 255 255 1697.000000
-0.18269999 5.51340008 0.72140002 255 255 255 1441.000000
-0.16920000 5.51359987 0.72170001 255 255 255 1761.000000
-0.15600000 5.52260017 0.72320002 255 255 255 1201.000000
-0.14320000 5.52799988 0.72420001 255 255 255 1569.000000
-0.13000000 5.53439999 0.72539997 255 255 255 1521.000000
-0.11610000 5.53889990 0.72630000 255 255 255 1121.000000
-0.10330000 5.55200005 0.72839999 255 255 255 2033.000000
-0.09030000 5.56199980 0.73000002 255 255 255 897.000000
-0.07710000 5.63280010 0.73970002 255 255 255 641.000000
-0.42070001 5.64860010 0.72030002 255 255 255 -239.000000
-0.40290001 5.59619999 0.71380001 255 255 255 801.000000
-0.38810000 5.57520008 0.71139997 255 255 255 705.000000
-0.37259999 5.55289984 0.70880002 255 255 255 1105.000000
-0.35830000 5.54120016 0.70749998 255 255 255 1297.000000
-0.34430000 5.53219986 0.70660001 255 255 255 1137.000000
-0.33019999 5.52650023 0.70620000 255 255 255 1377.000000
-0.31650001 5.52390003 0.70609999 255 255 255 1377.000000
-0.30280000 5.51420021 0.70510000 255 255 255 1409.000000
-0.28940001 5.51329994 0.70529997 255 255 255 1473.000000
-0.27559999 5.50969982 0.70510000 255 255 255 1473.000000
-0.26269999 5.50990009 0.70539999 255 255 255 1361.000000
-0.24910000 5.50719976 0.70529997 255 255 255 1569.000000
-0.23530000 5.50860023 0.70580000 255 255 255 1601.000000
-0.22250000 5.50969982 0.70620000 255 255 255 1521.000000
-0.20900001 5.50899982 0.70639998 255 255 255 1713.000000
-0.19509999 5.51240015 0.70719999 255 255 255 1553.000000
-0.18240000 5.51310015 0.70749998 255 255 255 1825.000000
-0.16890000 5.51399994 0.70800000 255 255 255 2033.000000
-0.15560000 5.52059984 0.70910001 255 255 255 977.000000
-0.14290000 5.53060007 0.71069998 255 255 255 1377.000000
-0.12960000 5.53520012 0.71170002 255 255 255 1313.000000
-0.11580000 5.53999996 0.71259999 255 255 255 1121.000000
-0.10280000 5.54689980 0.71380001 255 255 255 1905.000000
-0.09000000 5.56850004 0.71700001 255 255 255 913.000000
-0.07710000 5.66300011 0.72950000 255 255 255 -719.000000
-0.41970000 5.63940001 0.70499998 255 255 255 481.000000
-0.40220001 5.59130001 0.69919997 255 255 255 961.000000
-0.38749999 5.57149982 0.69700003 255 255 255 929.000000
-0.37189999 5.54829979 0.69430000 255 255 255 929.000000
-0.35769999 5.53760004 0.69319999 255 255 255 1409.000000
-0.34390000 5.53270006 0.69279999 255 255 255 1185.000000
-0.32980001 5.52610016 0.69230002 255 255 255 1345.000000
-0.31590000 5.51959991 0.69169998 255 255 255 1329.000000
-0.30250001 5.51429987 0.69129997 255 255 255 1441.000000
-0.28900000 5.51189995 0.69129997 255 255 255 1393.000000
-0.27530000 5.50990009 0.69129997 255 255 255 1633.000000
-0.26220000 5.50780010 0.69129997 255 255 255 1537.000000
-0.24869999 5.50710011 0.69150001 255 255 255 1489.000000
-0.23490000 5.50750017 0.69190001 255 255 255 1601.000000
-0.22200000 5.50869989 0.69230002 255 255 255 1665.000000
-0.20870000 5.51009989 0.69279999 255 255 255 1713.000000
-0.19470000 5.51200008 0.69330001 255 255 255 1777.000000
-0.18200000 5.51399994 0.69389999 255 255 255 1921.000000
-0.16850001 5.51569986 0.69440001 255 255 255 1505.000000
-0.15520000 5.52139997 0.69540000 255 255 255 1073.000000
-0.14250000 5.52930021 0.69669998 255 255 255 1345.000000
-0.12920000 5.53590012 0.69790000 255 255 255 1233.000000
-0.11540000 5.54120016 0.69889998 255 255 255 1505.000000
-0.10250000 5.54930019 0.70029998 255 255 255 1169.000000
-0.08970000 5.57460022 0.70380002 255 255 255 1377.000000
-0.07690000 5.67780018 0.71719998 255 255 255 -2031.000000
-0.41810000 5.62400007 0.68900001 255 255 255 593.000000
-0.40160000 5.58820009 0.68480003 255 255 255 929.000000
-0.38690001 5.56820011 0.68260002 255 255 255 865.000000
-0.37140000 5.54689980 0.68030000 255 255 255 897.000000
-0.35710001 5.53550005 0.67909998 255 255 255 1169.000000
-0.34340000 5.53030014 0.67869997 255 255 255 1409.000000
-0.32949999 5.52729988 0.67860001 255 255 255 1441.000000
-0.31549999 5.51970005 0.67790002 255 255 255 1345.000000
-0.30190000 5.51170015 0.67720002 255 255 255 1489.000000
-0.28850001 5.51070023 0.67739999 255 255 255 1393.000000
-0.27480000 5.50860023 0.67739999 255 255 255 1569.000000
-0.26179999 5.50780010 0.67750001 255 255 255 1489.000000
-0.24830000 5.50659990 0.67769998 255 255 255 1681.000000
-0.23450001 5.50769997 0.67809999 255 255 255 1585.000000
-0.22170000 5.50890017 0.67850000 255 255 255 1761.000000
-0.20829999 5.51109982 0.67909998 255 255 255 2001.000000
-0.19440000 5.51230001 0.67960000 255 255 255 1905.000000
-0.18160000 5.51270008 0.67989999 255 255 255 1681.000000
-0.16810000 5.51310015 0.68030000 255 255 255 1617.000000
-0.15490000 5.52479982 0.68210000 255 255 255 945.000000
-0.14219999 5.53119993 0.68320000 255 255 255 1313.000000
-0.12880000 5.53569984 0.68409997 255 255 255 1313.000000
-0.11500000 5.54220009 0.68519998 255 255 255 1297.000000
-0.10210000 5.55130005 0.68669999 255 255 255 1169.000000
-0.08940000 5.57929993 0.69050002 255 255 255 1281.000000
-0.07630000 5.66160011 0.70099998 255 255 255 -2047.000000
-0.41720000 5.61639977 0.67400002 255 255 255 721.000000
-0.40090001 5.58370018 0.67030001 255 255 255 737.000000
-0.38630000 5.56400013 0.66820002 255 255 255 817.000000
-0.37079999 5.54269981 0.66589999 255 255 255 1265.000000
-0.35679999 5.53579998 0.66530001 255 255 255 1057.000000
-0.34299999 5.52930021 0.66479999 255 255 255 1265.000000
-0.32900000 5.52449989 0.66439998 255 255 255 1393.000000
-0.31510001 5.51789999 0.66390002 255 255 255 1329.000000
-0.30170000 5.51370001 0.66369998 255 255 255 1649.000000
-0.28799999 5.50829983 0.66329998 255 255 255 1425.000000
-0.27440000 5.50750017 0.66350001 255 255 255 1473.000000
-0.26140001 5.50740004 0.66369998 255 255 255 1457.000000
-0.24789999 5.50640011 0.66390002 255 255 255 1649.000000
-0.23410000 5.50579977 0.66409999 255 255 255 1553.000000
-0.22130001 5.50880003 0.66479999 255 255 255 1729.000000
-0.20790000 5.51060009 0.66530001 255 255 255 1777.000000
-0.19400001 5.51189995 0.66579998 255 255 255 1841.000000
-0.18120000 5.51389980 0.66630000 255 255 255 1729.000000
-0.16779999 5.51719999 0.66700000 255 255 255 1873.000000
-0.15449999 5.52299976 0.66799998 255 255 255 913.000000
-0.14180000 5.53249979 0.66949999 255 255 255 1393.000000
-0.12850000 5.53709984 0.67040002 255 255 255 1521.000000
-0.11470000 5.54409981 0.67159998 255 255 255 1009.000000
-0.10180000 5.55420017 0.67320001 255 255 255 1297.000000
-0.08900000 5.58120012 0.67680001 255 255 255 865.000000
-0.41630000 5.60900021 0.65910000 255 255 255 721.000000
-0.40009999 5.57789993 0.65570003 255 255 255 961.000000
-0.38560000 5.55929995 0.65369999 255 255 255 577.000000
-0.37040001 5.54250002 0.65200001 255 255 255 1553.000000
-0.35630000 5.53399992 0.65120000 255 255 255 1313.000000
-0.34259999 5.52860022 0.65090001 255 255 255 1425.000000
-0.32839999 5.52150011 0.65030003 255 255 255 1329.000000
-0.31459999 5.51580000 0.64990002 255 255 255 1281.000000
-0.30120000 5.51100016 0.64960003 255 255 255 1713.000000
-0.28770000 5.50810003 0.64950001 255 255 255 1393.000000
-0.27399999 5.50729990 0.64969999 255 255 255 1537.000000
-0.26100001 5.50589991 0.64980000 255 255 255 1569.000000
-0.24750000 5.50549984 0.64999998 255 255 255 1521.000000
-0.23370001 5.50689983 0.65050000 255 255 255 1569.000000
-0.22090000 5.50860023 0.65100002 255 255 255 1601.000000
-0.20750000 5.51030016 0.65149999 255 255 255 1601.000000
-0.19360000 5.51189995 0.65200001 255 255 255 1889.000000
-0.18080001 5.51270008 0.65240002 255 255 255 1313.000000
-0.16740000 5.51529980 0.65300000 255 255 255 1057.000000
-0.15410000 5.52470016 0.65450001 255 255 255 1121.000000
-0.14139999 5.53160000 0.65560001 255 255 255 1425.000000
-0.12809999 5.53840017 0.65670002 255 255 255 1473.000000
-0.11440000 5.54750013 0.65820003 255 255 255 1089.000000
-0.10150000 5.56110001 0.66009998 255 255 255 1777.000000
-0.08880000 5.58809996 0.66369998 255 255 255 689.000000
-0.43329999 5.65430021 0.64999998 255 255 255 -2047.000000
-0.41530001 5.60050011 0.64410001 255 255 255 721.000000
-0.39950001 5.57380009 0.64130002 255 255 255 913.000000
-0.38510001 5.55760002 0.63959998 255 255 255 897.000000
-0.36980000 5.53879976 0.63770002 255 255 255 1217.000000
-0.35589999 5.53270006 0.63730001 255 255 255 1281.000000
-0.34220001 5.52820015 0.63700002 255 255 255 1233.000000
-0.32800001 5.52110004 0.63639998 255 255 255 1201.000000
-0.31420001 5.51569986 0.63609999 255 255 255 1249.000000
-0.30070001 5.50979996 0.63569999 255 255 255 1457.000000
-0.28729999 5.50750017 0.63569999 255 255 255 1425.000000
-0.27350000 5.50549984 0.63569999 255 255 255 1569.000000
-0.26060000 5.50649977 0.63609999 255 255 255 1537.000000
-0.24710000 5.50519991 0.63630003 255 255 255 1425.000000
-0.23330000 5.50579977 0.63660002 255 255 255 1489.000000
-0.22050001 5.50699997 0.63709998 255 255 255 1713.000000
-0.20720001 5.51109982 0.63779998 255 255 255 1745.000000
-0.19329999 5.51380014 0.63849998 255 255 255 1809.000000
-0.18040000 5.51189995 0.63859999 255 255 255 1489.000000
-0.16710000 5.51770020 0.63959998 255 255 255 1153.000000
-0.15380000 5.52510023 0.64069998 255 255 255 1281.000000
-0.14110000 5.53469992 0.64219999 255 255 255 1377.000000
-0.12780000 5.54190016 0.64330000 255 255 255 1393.000000
-0.11400000 5.54759979 0.64440000 255 255 255 1425.000000
-0.10120000 5.56400013 0.64660001 255 255 255 2001.000000
-0.08860000 5.60470009 0.65170002 255 255 255 977.000000
-0.43250000 5.64860010 0.63529998 255 255 255 -159.000000
-0.41420001 5.59140015 0.62910002 255 255 255 737.000000
-0.39879999 5.56939983 0.62680000 255 255 255 913.000000
-0.38440001 5.55299997 0.62519997 255 255 255 817.000000
-0.36930001 5.53730011 0.62370002 255 255 255 785.000000
-0.35540000 5.53079987 0.62320000 255 255 255 1201.000000
-0.34160000 5.52549982 0.62290001 255 255 255 1137.000000
-0.32760000 5.51999998 0.62250000 255 255 255 1329.000000
-0.31369999 5.51429987 0.62220001 255 255 255 1313.000000
-0.30030000 5.50850010 0.62180001 255 255 255 1377.000000
-0.28680000 5.50689983 0.62190002 255 255 255 1281.000000
-0.27320001 5.50559998 0.62199998 255 255 255 1713.000000
-0.26019999 5.50570011 0.62230003 255 255 255 1425.000000
-0.24670000 5.50579977 0.62260002 255 255 255 1489.000000
-0.23289999 5.50579977 0.62290001 255 255 255 1809.000000
-0.22010000 5.50820017 0.62349999 255 255 255 1697.000000
-0.20680000 5.51049995 0.62400001 255 255 255 1729.000000
-0.19290000 5.51350021 0.62470001 255 255 255 1873.000000
-0.18000001 5.51060009 0.62470001 255 255 255 1537.000000
-0.16670001 5.51789999 0.62580001 255 255 255 1217.000000
-0.15340000 5.52670002 0.62709999 255 255 255 1281.000000
-0.14070000 5.53499985 0.62840003 255 255 255 1361.000000
-0.12740000 5.54220009 0.62959999 255 255 255 993.000000
-0.11360000 5.54839993 0.63059998 255 255 255 1489.000000
-0.10080000 5.56349993 0.63270003 255 255 255 1489.000000
-0.08840000 5.61630011 0.63900000 255 255 255 817.000000
-0.43110001 5.63520002 0.61970001 255 255 255 625.000000
-0.41380000 5.59030008 0.61500001 255 255 255 545.000000
-0.39820001 5.56650019 0.61260003 255 255 255 961.000000
-0.38389999 5.55070019 0.61110002 255 255 255 769.000000
-0.36890000 5.53620005 0.60979998 255 255 255 993.000000
-0.35499999 5.53049994 0.60939997 255 255 255 1377.000000
-0.34119999 5.52409983 0.60900003 255 255 255 1281.000000
-0.32710001 5.51770020 0.60850000 255 255 255 1441.000000
-0.31320000 5.51119995 0.60810000 255 255 255 1121.000000
-0.29990000 5.50769997 0.60799998 255 255 255 1249.000000
-0.28639999 5.50589991 0.60799998 255 255 255 1425.000000
-0.27280000 5.50479984 0.60820001 255 255 255 1569.000000
-0.25979999 5.50549984 0.60860002 255 255 255 1521.000000
-0.24630000 5.50369978 0.60860002 255 255 255 1441.000000
-0.23260000 5.50589991 0.60920000 255 255 255 1905.000000
-0.21969999 5.50810003 0.60970002 255 255 255 1649.000000
-0.20640001 5.51130009 0.61040002 255 255 255 1745.000000
-0.19250000 5.51329994 0.61089998 255 255 255 1697.000000
-0.17960000 5.51230001 0.61110002 255 255 255 1473.000000
-0.16640000 5.51970005 0.61229998 255 255 255 1217.000000
-0.15310000 5.52890015 0.61360002 255 255 255 1185.000000
-0.14040001 5.53719997 0.61489999 255 255 255 1313.000000
-0.12710001 5.54430008 0.61600000 255 255 255 977.000000
-0.11330000 5.55109978 0.61710000 255 255 255 1249.000000
-0.10040000 5.56559992 0.61900002 255 255 255 1393.000000
-0.08830000 5.63409996 0.62699997 255 255 255 689.000000
-0.42980000 5.62319994 0.60430002 255 255 255 593.000000
-0.41290000 5.58400011 0.60039997 255 255 255 1137.000000
-0.39780000 5.56519985 0.59859997 255 255 255 849.000000
-0.38330001 5.54769993 0.59700000 255 255 255 673.000000
-0.36840001 5.53450012 0.59579998 255 255 255 1041.000000
-0.35450000 5.52869987 0.59539998 255 255 255 1217.000000
-0.34070000 5.52190018 0.59500003 255 255 255 1217.000000
-0.32659999 5.51510000 0.59450001 255 255 255 1617.000000
-0.31279999 5.51070023 0.59429997 255 255 255 1377.000000
-0.29960001 5.50869989 0.59429997 255 255 255 1425.000000
-0.28600001 5.50489998 0.59420002 255 255 255 1393.000000
-0.27230000 5.50320005 0.59429997 255 255 255 1505.000000
-0.25940001 5.50489998 0.59480000 255 255 255 1569.000000
-0.24590001 5.50409985 0.59500003 255 255 255 1553.000000
-0.23210000 5.50470018 0.59539998 255 255 255 1857.000000
-0.21940000 5.50790024 0.59600002 255 255 255 1649.000000
-0.20600000 5.51049995 0.59660000 255 255 255 1633.000000
-0.19210000 5.51210022 0.59710002 255 255 255 1713.000000
-0.17919999 5.51160002 0.59729999 255 255 255 1489.000000
-0.16599999 5.51929998 0.59850001 255 255 255 1297.000000
-0.15270001 5.52689981 0.59960002 255 255 255 1217.000000
-0.14000000 5.53709984 0.60110003 255 255 255 1553.000000
-0.12670000 5.54400015 0.60210001 255 255 255 945.000000
-0.11290000 5.55170012 0.60329998 255 255 255 1729.000000
-0.10010000 5.57119989 0.60579997 255 255 255 961.000000
-0.08800000 5.64289999 0.61390001 255 255 255 17.000000
-0.42879999 5.61490011 0.58939999 255 255 255 545.000000
-0.41240001 5.58129978 0.58620000 255 255 255 913.000000
-0.39710000 5.56059980 0.58420002 255 255 255 689.000000
-0.38260001 5.54370022 0.58270001 255 255 255 977.000000
-0.36780000 5.53149986 0.58170003 255 255 255 1313.000000
-0.35389999 5.52510023 0.58130002 255 255 255 1281.000000
-0.34020001 5.51970005 0.58099997 255 255 255 1137.000000
-0.32620001 5.51520014 0.58080000 255 255 255 1185.000000
-0.31220001 5.50729990 0.58020002 255 255 255 1441.000000
-0.29899999 5.50579977 0.58029997 255 255 255 1377.000000
-0.28560001 5.50460005 0.58050001 255 255 255 1553.000000
-0.27190000 5.50339985 0.58060002 255 255 255 1441.000000
-0.25900000 5.50479984 0.58099997 255 255 255 1521.000000
-0.24550000 5.50430012 0.58130002 255 255 255 1713.000000
-0.23180000 5.50589991 0.58179998 255 255 255 1713.000000
-0.21900000 5.50899982 0.58240002 255 255 255 1729.000000
-0.20559999 5.51020002 0.58279997 255 255 255 1537.000000
-0.19170000 5.51259995 0.58340001 255 255 255 1889.000000
-0.17890000 5.51380014 0.58380002 255 255 255 1729.000000
-0.16560000 5.51989985 0.58480000 255 255 255 1569.000000
-0.15230000 5.52969980 0.58620000 255 255 255 1073.000000
-0.13959999 5.53730011 0.58730000 255 255 255 1793.000000
-0.12630001 5.54540014 0.58850002 255 255 255 1233.000000
-0.11260000 5.55649996 0.58999997 255 255 255 2033.000000
-0.09980000 5.57620001 0.59249997 255 255 255 897.000000
-0.08810000 5.67379999 0.60320002 255 255 255 -1727.000000
-0.42770001 5.60540009 0.57450002 255 255 255 737.000000
-0.41139999 5.57350016 0.57139999 255 255 255 1169.000000
-0.39669999 5.56010008 0.57029998 255 255 255 737.000000
-0.38190001 5.53900003 0.56840003 255 255 255 1457.000000
-0.36739999 5.53109980 0.56790000 255 255 255 1233.000000
-0.35339999 5.52370024 0.56739998 255 255 255 1249.000000
-0.33980000 5.51910019 0.56720001 255 255 255 1169.000000
-0.32570001 5.51289988 0.56680000 255 255 255 1313.000000
-0.31189999 5.50769997 0.56650001 255 255 255 1313.000000
-0.29859999 5.50530005 0.56650001 255 255 255 1345.000000
-0.28529999 5.50530005 0.56680000 255 255 255 1665.000000
-0.27160001 5.50369978 0.56699997 255 255 255 1601.000000
-0.25860000 5.50409985 0.56730002 255 255 255 1713.000000
-0.24510001 5.50349998 0.56750000 255 255 255 1697.000000
-0.23150000 5.50670004 0.56819999 255 255 255 1681.000000
-0.21860000 5.50759983 0.56849998 255 255 255 1601.000000
-0.20530000 5.51230001 0.56930000 255 255 255 1713.000000
-0.19140001 5.51329994 0.56980002 255 255 255 1665.000000
-0.17860000 5.51429987 0.57020003 255 255 255 1921.000000
-0.16530000 5.52309990 0.57139999 255 255 255 1409.000000
-0.15189999 5.52810001 0.57230002 255 255 255 1089.000000
-0.13930000 5.53940010 0.57380003 255 255 255 1601.000000
-0.12600000 5.54580021 0.57470000 255 255 255 1313.000000
-0.11220000 5.55740023 0.57630002 255 255 255 2033.000000
-0.09960000 5.58620024 0.57959998 255 255 255 1633.000000
-0.44450000 5.65439987 0.56510001 255 255 255 -1391.000000
-0.42670000 5.59630013 0.55960000 255 255 255 1041.000000
-0.41100001 5.57210016 0.55739999 255 255 255 849.000000
-0.39579999 5.55319977 0.55580002 255 255 255 577.000000
-0.38150001 5.53719997 0.55440003 255 255 255 1441.000000
-0.36690000 5.52810001 0.55379999 255 255 255 1233.000000
-0.35299999 5.52290010 0.55350000 255 255 255 1137.000000
-0.33919999 5.51630020 0.55309999 255 255 255 993.000000
-0.32519999 5.51100016 0.55290002 255 255 255 1297.000000
-0.31150001 5.50759983 0.55280000 255 255 255 1201.000000
-0.29809999 5.50260019 0.55260003 255 255 255 1441.000000
-0.28490001 5.50470018 0.55309999 255 255 255 1441.000000
-0.27120000 5.50299978 0.55320001 255 255 255 1633.000000
-0.25819999 5.50320005 0.55350000 255 255 255 1601.000000
-0.24480000 5.50390005 0.55390000 255 255 255 2001.000000
-0.23109999 5.50600004 0.55440003 255 255 255 1729.000000
-0.21830000 5.50930023 0.55500001 255 255 255 1745.000000
-0.20479999 5.50869989 0.55530000 255 255 255 1473.000000
-0.19090000 5.51219988 0.55599999 255 255 255 1281.000000
-0.17820001 5.51459980 0.55650002 255 255 255 1041.000000
-0.16490000 5.52150011 0.55750000 255 255 255 1393.000000
-0.15160000 5.53070021 0.55879998 255 255 255 1297.000000
-0.13890000 5.53999996 0.56000000 255 255 255 1681.000000
-0.12560000 5.54850006 0.56120002 255 255 255 1441.000000
-0.11190000 5.56129980 0.56290001 255 255 255 2033.000000
-0.09930000 5.58879995 0.56599998 255 255 255 1313.000000
-0.44270000 5.63579988 0.54930001 255 255 255 481.000000
-0.42600000 5.59229994 0.54519999 255 255 255 625.000000
-0.41020000 5.56629992 0.54299998 255 255 255 721.000000
-0.39530000 5.55170012 0.54180002 255 255 255 721.000000
-0.38100001 5.53630018 0.54060000 255 255 255 897.000000
-0.36640000 5.52689981 0.53990000 255 255 255 1169.000000
-0.35270000 5.52370024 0.53990000 255 255 255 1137.000000
-0.33880001 5.51590014 0.53939998 255 255 255 1121.000000
-0.32470000 5.50909996 0.53899997 255 255 255 1249.000000
-0.31099999 5.50489998 0.53880000 255 255 255 1185.000000
-0.29769999 5.50269985 0.53890002 255 255 255 1153.000000
-0.28439999 5.50220013 0.53909999 255 255 255 1425.000000
-0.27079999 5.50279999 0.53950000 255 255 255 1393.000000
-0.25780001 5.50239992 0.53969997 255 255 255 1633.000000
-0.24439999 5.50419998 0.54020000 255 255 255 1681.000000
-0.23070000 5.50629997 0.54070002 255 255 255 1873.000000
-0.21780001 5.50790024 0.54119998 255 255 255 1745.000000
-0.20450000 5.51109982 0.54180002 255 255 255 1761.000000
-0.19059999 5.51410007 0.54240000 255 255 255 1441.000000
-0.17790000 5.51639986 0.54299998 255 255 255 1217.000000
-0.16450000 5.52139997 0.54380000 255 255 255 1105.000000
-0.15130000 5.53179979 0.54519999 255 255 255 1297.000000
-0.13860001 5.54260015 0.54650003 255 255 255 1361.000000
-0.12530001 5.54949999 0.54759997 255 255 255 1505.000000
-0.11150000 5.56050014 0.54900002 255 255 255 993.000000
-0.09900000 5.59520006 0.55280000 255 255 255 1121.000000
-0.44090000 5.61859989 0.53359997 255 255 255 321.000000
-0.42510000 5.58580017 0.53070003 255 255 255 481.000000
-0.40959999 5.56409979 0.52890003 255 255 255 1089.000000
-0.39480001 5.54949999 0.52780002 255 255 255 497.000000
-0.38049999 5.53439999 0.52660000 255 255 255 721.000000
-0.36590001 5.52489996 0.52600002 255 255 255 1121.000000
-0.35220000 5.52180004 0.52590001 255 255 255 1393.000000
-0.33840001 5.51499987 0.52560002 255 255 255 1105.000000
-0.32420000 5.50719976 0.52509999 255 255 255 1153.000000
-0.31060001 5.50489998 0.52520001 255 255 255 1825.000000
-0.29740000 5.50260019 0.52520001 255 255 255 1393.000000
-0.28400001 5.50269985 0.52550000 255 255 255 1409.000000
-0.27039999 5.50290012 0.52579999 255 255 255 1489.000000
-0.25749999 5.50279999 0.52609998 255 255 255 1489.000000
-0.24400000 5.50400019 0.52649999 255 255 255 1681.000000
-0.23040000 5.50790024 0.52719998 255 255 255 1825.000000
-0.21750000 5.50850010 0.52759999 255 255 255 1681.000000
-0.20420000 5.51249981 0.52829999 255 255 255 1873.000000
-0.19020000 5.51420021 0.52880001 255 255 255 1633.000000
-0.17749999 5.51730013 0.52939999 255 255 255 1569.000000
-0.16419999 5.52370024 0.53030002 255 255 255 1265.000000
-0.15080000 5.53009987 0.53119999 255 255 255 1393.000000
-0.13820000 5.54390001 0.53289998 255 255 255 1441.000000
-0.12490000 5.55229998 0.53399998 255 255 255 2033.000000
-0.11120000 5.56580019 0.53570002 255 255 255 1185.000000
-0.09900000 5.62090015 0.54130000 255 255 255 1217.000000
-0.43939999 5.60410023 0.51830000 255 255 255 897.000000
-0.42420000 5.57849979 0.51609999 255 255 255 881.000000
-0.40889999 5.55919981 0.51459998 255 255 255 993.000000
-0.39410001 5.54479980 0.51349998 255 255 255 545.000000
-0.37990001 5.53109980 0.51249999 255 255 255 961.000000
-0.36539999 5.52349997 0.51209998 255 255 255 1025.000000
-0.35159999 5.51840019 0.51190001 255 255 255 1329.000000
-0.33790001 5.51289988 0.51169997 255 255 255 1121.000000
-0.32380000 5.50680017 0.51139998 255 255 255 897.000000
-0.31020001 5.50360012 0.51139998 255 255 255 1297.000000
-0.29690000 5.50080013 0.51139998 255 255 255 1361.000000
-0.28360000 5.50099993 0.51169997 255 255 255 1569.000000
-0.26989999 5.50040007 0.51190001 255 255 255 1681.000000
-0.25700000 5.50129986 0.51230001 255 255 255 1569.000000
-0.24370000 5.50489998 0.51289999 255 255 255 1745.000000
-0.23000000 5.50759983 0.51349998 255 255 255 1729.000000
-0.21720000 5.51049995 0.51410002 255 255 255 1681.000000
-0.20379999 5.51270008 0.51459998 255 255 255 1761.000000
-0.18990000 5.51440001 0.51510000 255 255 255 1345.000000
-0.17720000 5.51919985 0.51580000 255 255 255 1425.000000
-0.16380000 5.52419996 0.51660001 255 255 255 1121.000000
-0.15050000 5.53319979 0.51779997 255 255 255 1313.000000
-0.13789999 5.54540014 0.51929998 255 255 255 1281.000000
-0.12450000 5.55159998 0.52020001 255 255 255 1649.000000
-0.11090000 5.56850004 0.52209997 255 255 255 1009.000000
-0.09880000 5.63229990 0.52850002 255 255 255 1169.000000
-0.43840000 5.59600019 0.50360000 255 255 255 993.000000
-0.42330000 5.57189989 0.50169998 255 255 255 1025.000000
-0.40830001 5.55530024 0.50040001 255 255 255 689.000000
-0.39340001 5.53980017 0.49930000 255 255 255 641.000000
-0.37950000 5.52939987 0.49860001 255 255 255 993.000000
-0.36500001 5.52169991 0.49820000 255 255 255 1361.000000
-0.35120001 5.51779985 0.49810001 255 255 255 1217.000000
-0.33750001 5.51249981 0.49790001 255 255 255 1089.000000
-0.32330000 5.50330019 0.49739999 255 255 255 1137.000000
-0.30960000 5.50029993 0.49739999 255 255 255 1073.000000
-0.29650000 5.49949980 0.49759999 255 255 255 1233.000000
-0.28320000 5.50040007 0.49800000 255 255 255 1521.000000
-0.26949999 5.49949980 0.49820000 255 255 255 1505.000000
-0.25659999 5.50120020 0.49860001 255 255 255 1873.000000
-0.24330001 5.50439978 0.49919999 255 255 255 1777.000000
-0.22950000 5.50600004 0.49970001 255 255 255 1841.000000
-0.21680000 5.50920010 0.50029999 255 255 255 1713.000000
-0.20350000 5.51389980 0.50099999 255 255 255 1969.000000
-0.18960001 5.51789999 0.50169998 255 255 255 1953.000000
-0.17680000 5.51849985 0.50209999 255 255 255 1121.000000
-0.16339999 5.52510023 0.50300002 255 255 255 1137.000000
-0.15019999 5.53399992 0.50410002 255 255 255 1441.000000
-0.13750000 5.54559994 0.50550002 255 255 255 1265.000000
-0.12420000 5.55429983 0.50669998 255 255 255 1521.000000
-0.11060000 5.57410002 0.50880003 255 255 255 769.000000
-0.09850000 5.63640022 0.51490003 255 255 255 209.000000
-0.45210001 5.59689999 0.48949999 255 255 255 -2047.000000
-0.43730000 5.58559990 0.48879999 255 255 255 561.000000
-0.42280000 5.57019997 0.48769999 255 255 255 1105.000000
-0.40759999 5.55119991 0.48629999 255 255 255 641.000000
-0.39280000 5.53730011 0.48530000 255 255 255 769.000000
-0.37889999 5.52699995 0.48469999 255 255 255 929.000000
-0.36440000 5.51919985 0.48429999 255 255 255 1297.000000
-0.35089999 5.51779985 0.48440000 255 255 255 1265.000000
-0.33700001 5.51079988 0.48410001 255 255 255 1121.000000
-0.32260001 5.49860001 0.48330000 255 255 255 1377.000000
-0.30880001 5.49329996 0.48310000 255 255 255 753.000000
-0.29570001 5.49300003 0.48339999 255 255 255 1201.000000
-0.28259999 5.49739981 0.48400000 255 255 255 865.000000
-0.26920000 5.50000000 0.48460001 255 255 255 1617.000000
-0.25630000 5.50110006 0.48500001 255 255 255 1441.000000
-0.24300000 5.50559998 0.48570001 255 255 255 1649.000000
-0.22920001 5.50680017 0.48609999 255 255 255 1793.000000
-0.21650000 5.51109982 0.48679999 255 255 255 1825.000000
-0.20310000 5.51350021 0.48730001 255 255 255 1905.000000
-0.18920000 5.51660013 0.48789999 255 255 255 1889.000000
-0.17649999 5.52110004 0.48859999 255 255 255 1217.000000
-0.16320001 5.52810001 0.48960000 255 255 255 1345.000000
-0.14980000 5.53539991 0.49050000 255 255 255 1361.000000
-0.13720000 5.54820013 0.49200001 255 255 255 1361.000000
-0.12390000 5.55819988 0.49320000 255 255 255 2033.000000
-0.11030000 5.57779980 0.49529999 255 255 255 849.000000
-0.45159999 5.59520006 0.47540000 255 255 255 929.000000
-0.43579999 5.57130003 0.47369999 255 255 255 897.000000
-0.42140001 5.55550003 0.47260001 255 255 255 913.000000
-0.40650001 5.54139996 0.47160000 255 255 255 961.000000
-0.39199999 5.53100014 0.47099999 255 255 255 913.000000
-0.37840000 5.52440023 0.47070000 255 255 255 641.000000
-0.36390001 5.51639986 0.47029999 255 255 255 785.000000
-0.35010001 5.51119995 0.47020000 255 255 255 593.000000
-0.33660001 5.50909996 0.47029999 255 255 255 1185.000000
-0.32240000 5.50080013 0.46980000 255 255 255 1553.000000
-0.30870000 5.49630022 0.46970001 255 255 255 1153.000000
-0.29539999 5.49300003 0.46970001 255 255 255 1265.000000
-0.28230000 5.49709988 0.47040001 255 255 255 1249.000000
-0.26879999 5.49949980 0.47090000 255 255 255 1617.000000
-0.25600001 5.50269985 0.47150001 255 255 255 1713.000000
-0.24250001 5.50419998 0.47189999 255 255 255 1681.000000
-0.22890000 5.50740004 0.47250000 255 255 255 1665.000000
-0.21600001 5.50930023 0.47290000 255 255 255 1809.000000
-0.20280001 5.51529980 0.47380000 255 255 255 2033.000000
-0.18880001 5.51730013 0.47430000 255 255 255 1745.000000
-0.17600000 5.51859999 0.47470000 255 255 255 1105.000000
-0.16280000 5.52759981 0.47580001 255 255 255 1425.000000
-0.14950000 5.53669977 0.47690001 255 255 255 833.000000
-0.13680001 5.54879999 0.47830001 255 255 255 1345.000000
-0.12350000 5.55889988 0.47950000 255 255 255 1793.000000
-0.11010000 5.58760023 0.48240000 255 255 255 1345.000000
-0.45210001 5.60650015 0.46250001 255 255 255 1073.000000
-0.43610001 5.57999992 0.46050000 255 255 255 705.000000
-0.42129999 5.56020021 0.45919999 255 255 255 785.000000
-0.40650001 5.54659986 0.45829999 255 255 255 897.000000
-0.39170000 5.53140020 0.45730001 255 255 255 1537.000000
-0.37799999 5.52349997 0.45690000 255 255 255 1073.000000
-0.36340001 5.51389980 0.45640001 255 255 255 929.000000
-0.34959999 5.51009989 0.45640001 255 255 255 1249.000000
-0.33620000 5.50869989 0.45649999 255 255 255 1313.000000
-0.32200000 5.50089979 0.45620000 255 255 255 1441.000000
-0.30809999 5.49389982 0.45590001 255 255 255 961.000000
-0.29490000 5.49060011 0.45590001 255 255 255 993.000000
-0.28180000 5.49520016 0.45660001 255 255 255 865.000000
-0.26830000 5.49669981 0.45699999 255 255 255 897.000000
-0.25540000 5.49779987 0.45739999 255 255 255 1009.000000
-0.24210000 5.50360012 0.45820001 255 255 255 1745.000000
-0.22840001 5.50619984 0.45870000 255 255 255 1649.000000
-0.21570000 5.51060009 0.45940000 255 255 255 1873.000000
-0.20230000 5.51359987 0.46000001 255 255 255 2033.000000
-0.18840000 5.51510000 0.46039999 255 255 255 1393.000000
