6.55140018 -1.09959996 12.72439957 75 75 75
6.64010000 -1.11409998 12.48050022 53 53 53
6.64400005 -1.10380006 12.47550011 105 105 105
6.60220003 -1.07860005 12.60000038 80 80 80
6.54790020 -1.04879999 12.76010036 121 121 121
6.55560017 -1.03939998 12.74460030 121 121 121
6.54860020 -1.02479994 12.77099991 88 88 88
6.54290009 -1.00999999 12.79409981 75 75 75
6.53819990 -0.99659997 12.81429958 41 41 41
6.86560011 -1.07920003 11.90050030 109 109 109
6.86770010 -1.06889999 11.90079975 81 81 81
6.43249989 -0.87199998 13.16580009 0 0 0
6.44950008 -0.66949999 13.25290012 64 64 64
6.47819996 -0.54860002 13.26720047 60 60 60
6.16870022 -0.21789999 14.32460022 60 60 60
6.17630005 -0.20680000 14.31470013 87 87 87
6.18209982 -0.19470000 14.31029987 99 99 99
6.18330002 -0.18070000 14.31919956 103 103 103
6.18359995 -0.16650000 14.33090019 111 111 111
6.17449999 -0.14749999 14.37040043 70 70 70
6.11380005 -0.10360000 14.56200027 54 54 54
6.10349989 -0.08410000 14.60540009 47 47 47
6.08879995 -0.06190000 14.66199970 53 53 53
6.08029985 -0.04280000 14.70059967 33 33 33
6.06920004 -0.02280000 14.74639988 55 55 55
5.55039978 0.64550000 16.68199921 43 43 43
5.30900002 0.82010001 17.45280075 0 0 0
5.80970001 0.81150001 16.23940086 105 105 105
5.81470013 0.82650000 16.24480057 160 160 160
5.53639984 1.09599996 17.21629906 84 84 84
6.32390022 -3.90639997 13.91849995 152 152 152
6.32140017 -3.89330006 13.91170025 58 58 58
7.27969980 -3.47250009 10.97480011 0 0 0
7.27570009 -3.46289992 10.97640038 130 130 130
4.88990021 -3.99810004 17.79700089 131 131 131
5.48269987 -3.78730011 16.03400040 179 179 179
5.15430021 -3.54710007 16.72400093 76 76 76
4.61619997 -3.25200009 17.98970032 60 60 60
4.99240017 -3.10969996 16.88699913 6 6 6
4.81050014 -2.93300009 17.29610062 170 170 170
5.13670015 -2.83089995 16.36020088 142 142 142
5.13880014 -2.81570005 16.34819984 172 172 172
5.14589977 -2.80019999 16.32250023 87 87 87
5.24060011 -2.59940004 15.99059963 79 79 79
5.25040007 -2.58410001 15.95899963 141 141 141
5.26020002 -2.56929994 15.92770004 162 162 162
5.26359987 -2.55399990 15.91370010 127 127 127
5.26630020 -2.53920007 15.90200043 105 105 105
5.27190018 -2.52469993 15.88249969 0 0 0
4.99480009 -2.29500008 16.58749962 0 0 0
5.03539991 -2.25009990 16.46850014 64 64 64
6.05709982 -2.04279995 13.65340042 94 94 94
6.07040024 -2.03049994 13.61660004 128 128 128
6.07429981 -2.01859999 13.60569954 153 153 153
6.08830023 -2.00710011 13.56719971 154 154 154
6.11929989 -1.97130001 13.48229980 36 36 36
6.32749987 -1.88230002 12.91839981 149 149 149
6.36030006 -1.88720000 12.92249966 68 68 68
6.20959997 -1.84410000 13.33810043 119 119 119
4.48829985 -1.48850000 18.08069992 138 138 138
6.53499985 -1.70840001 12.46599960 79 79 79
6.54829979 -1.67509997 12.43579960 125 125 125
6.54909992 -1.66340005 12.43599987 97 97 97
6.54710007 -1.65139997 12.44390011 94 94 94
4.83470011 -1.29489994 17.17130089 133 133 133
4.85559988 -1.28250003 17.11770058 40 40 40
5.17240000 -1.25080001 16.26740074 136 136 136
5.71910000 -1.16659999 14.82030010 98 98 98
5.73909998 -1.15690005 14.77009964 99 99 99
5.75509977 -1.14660001 14.73110008 119 119 119
5.76130009 -1.13469994 14.71889973 92 92 92
5.76560020 -1.12129998 14.71269989 97 97 97
5.76370001 -1.10650003 14.72340012 79 79 79
5.75640011 -1.09099996 14.74909973 61 61 61
6.42290020 -1.08910000 12.97469997 53 53 53
6.49800014 -1.09949994 12.77079964 58 58 58
6.51259995 -1.09119999 12.73620033 97 97 97
6.52129984 -1.08109999 12.71809959 101 101 101
6.56599998 -1.08309996 12.59889984 0 0 0
6.61630011 -1.08630002 12.46459961 47 47 47
6.61829996 -1.07420003 12.46539974 124 124 124
6.53490019 -1.03620005 12.70569992 108 108 108
6.52839994 -1.02180004 12.73069954 95 95 95
6.52549982 -1.00779998 12.74580002 70 70 70
6.50360012 -0.98879999 12.81389999 34 34 34
6.83659983 -1.08500004 11.88479996 128 128 128
6.83900023 -1.07360005 11.88490009 138 138 138
6.84149981 -1.06330001 11.88420010 0 0 0
6.41179991 -0.65840000 13.25949955 171 171 171
6.43889999 -0.54920000 13.26900005 138 138 138
6.15500021 -0.23019999 14.24269962 89 89 89
6.16440010 -0.22000000 14.22760010 73 73 73
6.16879988 -0.20739999 14.22719955 164 164 164
6.17110014 -0.19370000 14.23299980 148 148 148
6.16879988 -0.17790000 14.25230026 112 112 112
6.16139984 -0.16020000 14.28600025 73 73 73
6.08129978 -0.10740000 14.53250027 33 33 33
6.06099987 -0.08260000 14.60490036 0 0 0
5.49660015 0.65380001 16.69820023 103 103 103
5.15799999 0.97670001 17.85339928 123 123 123
5.15619993 0.99760002 17.88019943 0 0 0
5.77379990 0.86530000 16.26639938 78 78 78
5.77979994 0.87910002 16.26829910 162 162 162
5.31500006 1.25489998 17.79380035 65 65 65
5.98769999 -5.01119995 16.01169968 145 145 145
5.98929977 -4.74739981 15.64750004 108 108 108
6.30170012 -3.90190005 13.86499977 137 137 137
6.29949999 -3.88940001 13.85830021 133 133 133
7.24790001 -3.47250009 10.97449970 131 131 131
5.42759991 -3.86630011 16.12529945 88 88 88
5.44479990 -3.79959989 16.02190018 32 32 32
4.86959982 -3.90440011 17.63380051 110 110 110
5.09630013 -3.56130004 16.76180077 82 82 82
7.07530022 -3.16109991 11.18050003 128 128 128
4.60340023 -3.27489996 17.90029907 0 0 0
4.93139982 -3.10439992 16.92090034 0 0 0
4.82590008 -2.98440003 17.14679909 24 24 24
4.77699995 -2.93939996 17.25860023 0 0 0
5.07789993 -2.88529992 16.41909981 122 122 122
5.08069992 -2.86940002 16.40449905 169 169 169
5.07910013 -2.85470009 16.40270042 128 128 128
5.24440002 -2.54310012 15.84270000 125 125 125
5.25299978 -2.52859998 15.81509972 135 135 135
5.25750017 -2.51329994 15.79860020 146 146 146
5.26389980 -2.49860001 15.77700043 149 149 149
5.27169991 -2.48399997 15.75189972 129 129 129
5.27839994 -2.46910000 15.72980022 133 133 133
5.28679991 -2.43959999 15.69979954 107 107 107
4.51599979 -2.30259991 17.76490021 157 157 157
4.99809980 -2.25270009 16.44630051 96 96 96
6.04659986 -2.01950002 13.57859993 99 99 99
6.05359983 -2.00729990 13.55949974 133 133 133
6.05870008 -1.99430001 13.54559994 134 134 134
6.32530022 -1.87409997 12.92099953 158 158 158
6.18620014 -1.84430003 13.30119991 74 74 74
4.43639994 -1.48520005 18.08550072 184 184 184
6.52159977 -1.67340004 12.41489983 132 132 132
6.52299976 -1.66180003 12.41339970 99 99 99
6.52519989 -1.65059996 12.40970039 72 72 72
6.52659988 -1.63859999 12.40849972 54 54 54
4.78420019 -1.28970003 17.17970085 160 160 160
5.08300018 -1.29890001 16.37339973 111 111 111
5.09560013 -1.28610003 16.34250069 135 135 135
5.10360003 -1.27180004 16.32480049 162 162 162
5.11350012 -1.24269998 16.30579948 82 82 82
5.74900007 -1.14890003 14.63640022 171 171 171
5.75930023 -1.13800001 14.61310005 172 172 172
5.76249981 -1.12430000 14.60999966 164 164 164
5.76319981 -1.11010003 14.61340046 186 186 186
5.76389980 -1.09669995 14.61690044 190 190 190
5.74940014 -1.07840002 14.66269970 60 60 60
6.30800009 -1.12329996 13.16499996 74 74 74
6.31909990 -1.11350000 13.14009953 100 100 100
6.45779991 -1.10280001 12.77989960 0 0 0
6.48309994 -1.09840000 12.71549988 77 77 77
6.49480009 -1.08920002 12.68920040 87 87 87
6.50260019 -1.07879996 12.67399979 99 99 99
6.54120016 -1.07879996 12.57279968 25 25 25
6.58669996 -1.08039999 12.45250034 44 44 44
6.58290005 -1.06640005 12.46990013 79 79 79
6.51319981 -1.03269994 12.67000008 100 100 100
6.51009989 -1.01929998 12.68540001 84 84 84
6.50400019 -1.00430000 12.70930004 65 65 65
6.80719995 -1.09039998 11.87049961 113 113 113
6.80950022 -1.07939994 11.87030029 124 124 124
6.79949999 -1.06379998 11.90509987 0 0 0
6.18039989 -0.65530002 13.75790024 0 0 0
6.38549995 -0.63880002 13.24240017 169 169 169
6.24119997 -0.54079998 13.68039989 0 0 0
6.13280010 -0.25319999 14.17479992 11 11 11
6.14529991 -0.24450000 14.15040016 79 79 79
6.15549994 -0.21990000 14.14540005 172 172 172
6.15570021 -0.20540000 14.15690041 170 170 170
6.15150023 -0.18870001 14.18140030 114 114 114
6.14559984 -0.17110001 14.21119976 45 45 45
4.80410004 0.60650003 18.21920013 158 158 158
4.70539999 0.73240000 18.57670021 103 103 103
5.43580008 0.66360003 16.73220062 42 42 42
5.73899984 0.91890001 16.29050064 121 121 121
5.74739981 0.93199998 16.28610039 183 183 183
5.74819994 0.94889998 16.30380058 117 117 117
5.74490023 1.23230004 16.65130043 112 112 112
5.76440001 1.33389997 16.73460007 0 0 0
5.98420000 -5.03179979 15.92590046 93 93 93
5.95720005 -5.02920008 15.98760033 127 127 127
5.94939995 -5.01609993 15.98820019 69 69 69
5.91979980 -4.81379986 15.78590012 110 110 110
5.94990015 -4.75120020 15.62969971 62 62 62
5.94189978 -4.73939991 15.63430023 76 76 76
5.80509996 -4.60470009 15.80539989 12 12 12
6.28240013 -3.89720011 13.80459976 129 129 129
5.39029980 -3.87879992 16.11120033 112 112 112
5.40759993 -3.81170011 16.00799942 116 116 116
4.81920004 -3.91980004 17.64509964 129 129 129
7.05210018 -3.17759991 11.16919994 69 69 69
4.58430004 -3.28119993 17.81970024 104 104 104
5.00960016 -2.92510009 16.49659920 133 133 133
5.01340008 -2.90980005 16.47949982 140 140 140
4.80359983 -2.87689996 17.02969933 109 109 109
5.21000004 -2.56209993 15.82199955 62 62 62
5.21019983 -2.54730010 15.81709957 178 178 178
5.20979977 -2.53279996 15.81410027 161 161 161
5.23540020 -2.51710010 15.74059963 0 0 0
5.20520020 -2.47289991 15.81019974 56 56 56
5.25950003 -2.44320011 15.65660000 107 107 107
5.28310013 -2.41300011 15.58570004 133 133 133
5.29010010 -2.39890003 15.56379986 133 133 133
5.29960012 -2.38369989 15.53479958 125 125 125
4.58059978 -2.02839994 17.42149925 34 34 34
6.04400015 -2.00970006 13.48449993 114 114 114
6.03950024 -1.99580002 13.49629974 121 121 121
6.03359985 -1.98280001 13.51200008 144 144 144
6.16289997 -1.86880004 13.16829967 0 0 0
6.25930023 -1.86780000 12.91009998 3 3 3
6.26550007 -1.85660005 12.89439964 0 0 0
4.63679981 -1.61810005 17.27219963 91 91 91
4.67420006 -1.60759997 17.29680061 104 104 104
6.16410017 -1.35870004 13.35649967 104 104 104
5.71859980 -1.15939999 14.60429955 176 176 176
5.74329996 -1.12320006 14.55249977 108 108 108
5.77829981 -1.11769998 14.46240044 134 134 134
6.60529995 -1.16219997 12.27169991 106 106 106
6.46320009 -1.10769999 12.66880035 0 0 0
6.46990013 -1.09770000 12.65620041 36 36 36
6.48339987 -1.08899999 12.62530041 87 87 87
6.49300003 -1.07910001 12.60529995 64 64 64
6.55480003 -1.08620000 12.44079971 15 15 15
6.55929995 -1.07519996 12.43470001 41 41 41
6.50729990 -1.04610002 12.58489990 85 85 85
6.49849987 -1.03139997 12.61540031 87 87 87
6.49310017 -1.01719999 12.63689995 74 74 74
6.77759981 -1.09519994 11.85709953 106 106 106
6.77829981 -1.08420002 11.86110020 130 130 130
6.79239988 -1.07690001 11.82849979 82 82 82
6.46549988 -0.95730001 12.74090004 0 0 0
6.32159996 -0.89749998 13.14680004 66 66 66
6.31419992 -0.88200003 13.17459965 0 0 0
6.31409979 -0.86830002 13.18260002 28 28 28
6.35699987 -0.61739999 13.23250008 88 88 88
6.19159985 -0.52480000 13.71679974 70 70 70
6.18660021 -0.50840002 13.74110031 0 0 0
6.37010002 -0.56870002 13.23390007 92 92 92
6.12680006 -0.26920000 14.07289982 119 119 119
6.13579988 -0.25850001 14.05910015 172 172 172
6.14010000 -0.24620000 14.05850029 183 183 183
6.14179993 -0.23220000 14.06560040 147 147 147
6.13859987 -0.21619999 14.08689976 119 119 119
6.13199997 -0.19850001 14.11800003 81 81 81
4.67259979 0.74349999 18.53109932 175 175 175
5.70170021 0.95620000 16.30139923 122 122 122
5.70650005 0.97079998 16.30699921 193 193 193
5.71920013 0.98229998 16.29089928 66 66 66
5.72790003 0.99470001 16.28549957 74 74 74
5.72149992 1.35940003 16.74180031 0 0 0
5.70669985 1.52919996 16.99209976 33 33 33
6.09520006 1.42780006 16.01009941 2 2 2
5.94290018 -5.03900003 15.91349983 58 58 58
5.88579988 -4.81629992 15.75189972 0 0 0
5.89659977 -4.76230001 15.65550041 0 0 0
6.25930023 -3.87899995 13.74149990 147 147 147
5.36189985 -3.82579994 16.01790047 120 120 120
7.02710009 -3.19549990 11.16359997 0 0 0
7.02379990 -3.18499994 11.16489983 0 0 0
4.84530020 -3.46560001 17.10639954 71 71 71
4.56479979 -3.28740001 17.74110031 134 134 134
4.95060015 -2.98099995 16.55550003 187 187 187
4.95039988 -2.96580005 16.54910088 175 175 175
4.77029991 -2.89849997 17.00029945 0 0 0
5.08769989 -2.46129990 16.00399971 133 133 133
5.29379988 -2.38720012 15.43529987 34 34 34
5.29689980 -2.35820007 15.42109966 134 134 134
5.30530024 -2.34299994 15.39560032 140 140 140
5.31239986 -2.32859993 15.37380028 138 138 138
5.32110023 -2.31459999 15.34799957 148 148 148
5.32579994 -2.29959989 15.33259964 152 152 152
5.32989979 -2.28520012 15.31929970 145 145 145
5.33540010 -2.27130008 15.30239964 122 122 122
5.33710003 -2.25699997 15.29549980 98 98 98
4.52829981 -2.02900004 17.43190002 0 0 0
6.01669979 -1.98450005 13.45699978 88 88 88
6.02510023 -1.97189999 13.43459988 119 119 119
6.03429985 -1.95949996 13.41030025 101 101 101
6.03760004 -1.94749999 13.40159988 100 100 100
6.22910023 -1.85520005 12.89589977 164 164 164
4.64529991 -1.62500000 17.24360085 89 89 89
4.32649994 -1.49500000 18.10880089 113 113 113
4.90640020 -1.41770005 16.57439995 129 129 129
4.92010021 -1.40349996 16.54059982 148 148 148
4.93009996 -1.38909996 16.51689911 156 156 156
5.73729992 -1.13979995 14.45470047 88 88 88
5.74660015 -1.12759995 14.43480015 85 85 85
5.76389980 -1.08959997 14.40439987 105 105 105
6.22480011 -1.09350002 13.20119953 0 0 0
6.57889986 -1.15760005 12.25199986 0 0 0
6.44329977 -1.10510004 12.62870026 26 26 26
6.46400023 -1.09920001 12.57769966 63 63 63
6.47389984 -1.08940005 12.55700016 85 85 85
6.50699997 -1.08669996 12.47270012 0 0 0
6.52640009 -1.08080006 12.42539978 3 3 3
6.52059984 -1.06649995 12.44760036 16 16 16
6.48939991 -1.04380000 12.53979969 101 101 101
6.46600008 -1.02450001 12.61009979 42 42 42
6.74550009 -1.10039997 11.85000038 111 111 111
6.74709988 -1.08850002 11.85219955 173 173 173
6.74809980 -1.07749999 11.85529995 151 151 151
6.46700001 -0.97439998 12.63420010 53 53 53
6.46210003 -0.95950001 12.65499973 51 51 51
6.46059990 -0.94690001 12.66600037 70 70 70
6.45400000 -0.93199998 12.69110012 130 130 130
6.31230021 -0.87110001 13.08909988 66 66 66
6.36460018 -0.66420001 13.08460045 0 0 0
6.34759998 -0.61729997 13.15960026 90 90 90
6.34289980 -0.60210001 13.18200016 117 117 117
6.34320021 -0.58890003 13.19060040 94 94 94
6.34549999 -0.57590002 13.19379997 80 80 80
6.34210014 -0.56099999 13.21300030 64 64 64
6.33729982 -0.54560000 13.23600006 34 34 34
6.11810017 -0.28400001 13.98029995 71 71 71
6.12360001 -0.27169999 13.97640038 87 87 87
6.12610006 -0.25810000 13.98120022 104 104 104
6.12620020 -0.24380000 13.99240017 102 102 102
6.12379980 -0.22800000 14.01109982 76 76 76
6.11380005 -0.20880000 14.05160046 41 41 41
5.67019987 1.00890005 16.31620026 186 186 186
5.67430019 1.02450001 16.32489967 155 155 155
5.71129990 1.03820002 16.25629997 149 149 149
5.72840023 1.04519999 16.22559929 21 21 21
6.13579988 1.64489996 16.10770035 103 103 103
5.89109993 -5.05049992 15.93210030 129 129 129
5.91160011 -4.98939991 15.79940033 47 47 47
5.86119986 -4.83020020 15.71010017 153 153 153
5.87230015 -4.79150009 15.63329983 130 130 130
5.64379978 -4.14319992 15.46420002 97 97 97
6.24240017 -3.88660002 13.68830013 44 44 44
6.24700022 -3.87199998 13.66269970 136 136 136
7.15590000 -3.48149991 10.97239971 188 188 188
5.30849981 -3.90569997 16.10320091 70 70 70
5.29939985 -3.84400010 16.07439995 120 120 120
6.99949980 -3.20280004 11.15740013 141 141 141
4.54199982 -3.29410005 17.67230034 57 57 57
4.89569998 -2.98930001 16.58130074 114 114 114
4.89510012 -2.97399998 16.57589912 182 182 182
4.74440002 -2.95309997 16.96579933 0 0 0
4.71859980 -2.90580010 17.01370049 3 3 3
5.11609983 -2.63260007 15.85779953 0 0 0
5.02619982 -2.46499991 16.04969978 137 137 137
5.32649994 -2.20120001 15.20269966 142 142 142
5.33120012 -2.18779993 15.18840027 142 142 142
5.33970022 -2.15820003 15.16250038 106 106 106
5.34480000 -2.14450002 15.14750004 92 92 92
5.99440002 -1.97220004 13.41699982 0 0 0
6.00670004 -1.96000004 13.38449955 93 93 93
6.01919985 -1.94879997 13.35140038 106 106 106
6.02979994 -1.93659997 13.32369995 98 98 98
6.03550005 -1.92410004 13.30910015 105 105 105
6.05810022 -1.91410005 13.24960041 130 130 130
4.78970003 -1.50090003 16.74729919 0 0 0
4.83729982 -1.45920002 16.62750053 146 146 146
4.84320021 -1.44330001 16.61440086 155 155 155
4.84840012 -1.42809999 16.60339928 150 150 150
4.85139990 -1.41240001 16.59810066 0 0 0
6.45569992 -1.55120003 12.34150028 96 96 96
6.45690012 -1.53950000 12.34140015 166 166 166
6.19700003 -1.08899999 13.17819977 0 0 0
6.54180002 -1.14999998 12.26159954 84 84 84
6.45160007 -1.11080003 12.51220036 42 42 42
6.46999979 -1.10420001 12.46819973 52 52 52
6.48600006 -1.09630001 12.43089962 81 81 81
6.49760008 -1.08700001 12.40569973 27 27 27
6.50089979 -1.07620001 12.40250015 20 20 20
6.48780012 -1.05970001 12.44419956 94 94 94
6.49399996 -1.04849994 12.43420029 116 116 116
6.72279978 -1.10810006 11.81770039 0 0 0
6.71390009 -1.09350002 11.84799957 157 157 157
6.71659994 -1.08190000 11.84720039 70 70 70
6.45749998 -0.98729998 12.55939960 56 56 56
6.45370007 -0.97329998 12.57670021 82 82 82
6.44719982 -0.95789999 12.60169983 75 75 75
6.44619989 -0.94540000 12.61120033 81 81 81
6.44250011 -0.93150002 12.62839985 88 88 88
6.43839979 -0.91680002 12.64710045 116 116 116
6.43590021 -0.90359998 12.66069984 124 124 124
6.43179989 -0.88900000 12.67969990 131 131 131
6.42840004 -0.87459999 12.69670010 134 134 134
6.42490005 -0.86100000 12.71360016 109 109 109
6.42070007 -0.84640002 12.73279953 107 107 107
6.41540003 -0.83139998 12.75520039 101 101 101
6.41039991 -0.81680000 12.77680016 114 114 114
6.40520000 -0.80150002 12.79940033 131 131 131
6.39729977 -0.78570002 12.82890034 138 138 138
6.39279985 -0.77120000 12.84939957 135 135 135
6.39039993 -0.75700003 12.86419964 125 125 125
6.38730001 -0.74260002 12.88129997 123 123 123
6.38000011 -0.72689998 12.90989971 117 117 117
6.37559986 -0.71190000 12.93050003 108 108 108
6.37099981 -0.69679999 12.95199966 106 106 106
6.36630011 -0.68220001 12.97329998 102 102 102
6.36189985 -0.66670001 12.99460030 144 144 144
6.35769987 -0.65179998 13.01529980 128 128 128
6.35400009 -0.63720000 13.03429985 151 151 151
6.34859991 -0.62129998 13.05879974 120 120 120
6.34280014 -0.60560000 13.08409977 117 117 117
6.33720016 -0.59009999 13.10869980 131 131 131
6.33150005 -0.57380003 13.13449955 116 116 116
6.32709980 -0.55849999 13.15629959 104 104 104
6.31949997 -0.52789998 13.19699955 124 124 124
6.31540012 -0.51270002 13.21809959 84 84 84
6.25799990 -0.46090001 13.39869976 61 61 61
6.11499977 -0.34400001 13.84020042 57 57 57
6.11740017 -0.33070001 13.84440041 99 99 99
6.12200022 -0.31810001 13.84280014 123 123 123
6.12249994 -0.30399999 13.85249996 167 167 167
6.11959982 -0.28850001 13.87189960 105 105 105
6.11980009 -0.27390000 13.88280010 108 108 108
6.11429977 -0.25670001 13.90999985 119 119 119
6.11369991 -0.24210000 13.92329979 159 159 159
6.09569979 -0.21910000 13.98569965 0 0 0
4.74739981 0.61870003 17.97240067 24 24 24
4.70200014 0.67879999 18.13509941 151 151 151
5.62960005 1.04859996 16.33670044 0 0 0
5.63509989 1.06350005 16.34129906 175 175 175
5.63269997 1.08480000 16.37129974 11 11 11
6.02299976 1.45529997 15.97340012 163 163 163
6.10879993 1.64129996 16.04470062 103 103 103
5.85349989 -5.05459976 15.90639973 47 47 47
5.87020016 -5.01240015 15.80970001 153 153 153
5.83349991 -4.84539986 15.67780018 157 157 157
5.82490015 -4.79969978 15.64050007 0 0 0
5.69789982 -4.59140015 15.69670010 153 153 153
5.75070000 -4.25159979 15.18959999 34 34 34
5.61770010 -4.20149994 15.47200012 47 47 47
6.23799992 -3.86319995 13.57489967 140 140 140
6.97249985 -3.21000004 11.14949989 155 155 155
4.58729982 -3.15590000 17.34840012 48 48 48
4.84219980 -2.98200011 16.59569931 181 181 181
4.83650017 -2.96630001 16.60359955 66 66 66
4.69329977 -2.92790008 16.96369934 155 155 155
5.06979990 -2.72989988 15.89519978 119 119 119
5.07089996 -2.71420002 15.88679981 181 181 181
4.29780006 -2.57369995 17.88089943 64 64 64
4.97259998 -2.45359993 16.06999969 126 126 126
5.30319977 -2.15980005 15.14739990 32 32 32
5.30560017 -2.14590001 15.13949966 115 115 115
5.32299995 -2.11689997 15.09109974 130 130 130
5.32900000 -2.10339999 15.07409954 133 133 133
5.34649992 -2.07450008 15.02569962 162 162 162
5.35109997 -2.06080008 15.01270008 170 170 170
5.40799999 -1.94840002 14.85890007 115 115 115
5.41349983 -1.93480003 14.84430027 117 117 117
5.41909981 -1.92040002 14.82950020 103 103 103
6.00029993 -1.93680000 13.30370045 70 70 70
6.02829981 -1.92649996 13.23029995 120 120 120
6.03679991 -1.91489995 13.20860004 119 119 119
6.04220009 -1.90260005 13.19480038 105 105 105
6.04869986 -1.89010000 13.17819977 106 106 106
6.05950022 -1.91789997 13.24129963 123 123 123
6.06580019 -1.90590000 13.22509956 111 111 111
6.06769991 -1.89279997 13.22060013 105 105 105
4.76249981 -1.50070000 16.69560051 163 163 163
4.76760006 -1.48500001 16.68420029 173 173 173
6.42899990 -1.52479994 12.32759953 8 8 8
6.43130016 -1.51289999 12.32479954 110 110 110
6.43760014 -1.47800004 12.31789970 0 0 0
6.03809977 -1.35319996 13.39290047 24 24 24
5.71210003 -1.12619996 14.31379986 80 80 80
5.72940016 -1.11609995 14.27299976 101 101 101
5.74249983 -1.10580003 14.24330044 104 104 104
6.44859982 -1.12600005 12.42179966 77 77 77
6.46680021 -1.11839998 12.37899971 85 85 85
6.49499989 -1.11479998 12.30860043 147 147 147
6.47559977 -1.09640002 12.36690044 102 102 102
6.47970009 -1.08480000 12.36219978 108 108 108
6.47749996 -1.07229996 12.37380028 132 132 132
6.47770023 -1.05970001 12.37959957 138 138 138
6.47819996 -1.04680002 12.38500023 116 116 116
6.68230009 -1.09850001 11.83959961 65 65 65
6.68359995 -1.08700001 11.84239960 5 5 5
6.44899988 -0.99989998 12.48320007 51 51 51
6.43930006 -0.98470002 12.51599979 59 59 59
6.43669987 -0.97109997 12.52960014 95 95 95
6.42899990 -0.95529997 12.55790043 105 105 105
6.42479992 -0.94169998 12.57579994 116 116 116
6.41800022 -0.92659998 12.60140038 108 108 108
6.41359997 -0.91180003 12.62080002 113 113 113
6.40899992 -0.89780003 12.64029980 110 110 110
6.40560007 -0.88340002 12.65709972 146 146 146
6.40189981 -0.86879998 12.67490005 129 129 129
6.39779997 -0.85500002 12.69309998 119 119 119
6.39550018 -0.84100002 12.70709991 115 115 115
6.39090014 -0.82609999 12.72770023 114 114 114
6.38570023 -0.81140000 12.74960041 105 105 105
6.37960005 -0.79570001 12.77449989 118 118 118
6.37309980 -0.78039998 12.80010033 112 112 112
6.36780024 -0.76560003 12.82229996 122 122 122
6.36259985 -0.75029999 12.84500027 114 114 114
6.36000013 -0.73600000 12.86069965 107 107 107
6.35279989 -0.72030002 12.88860035 104 104 104
6.34499979 -0.70389998 12.91870022 101 101 101
6.34009981 -0.68860000 12.94060040 106 106 106
6.33580017 -0.67409998 12.96100044 107 107 107
6.33010006 -0.65799999 12.98579979 101 101 101
6.32530022 -0.64279997 13.00790024 94 94 94
6.31790018 -0.62669998 13.03689957 76 76 76
6.31139994 -0.61019999 13.06429958 84 84 84
6.30609989 -0.59460002 13.08819962 94 94 94
6.29990005 -0.57880002 13.11439991 83 83 83
6.29519987 -0.56290001 13.13710022 106 106 106
6.29190016 -0.54790002 13.15569973 124 124 124
6.28849983 -0.53289998 13.17490005 107 107 107
6.28459978 -0.51730001 13.19559956 102 102 102
6.27759981 -0.50070000 13.22459984 53 53 53
6.26179981 -0.48040000 13.27830029 34 34 34
6.21409988 -0.44620001 13.42090034 0 0 0
6.15859985 -0.39520001 13.59490013 53 53 53
6.14300013 -0.37369999 13.64939976 60 60 60
6.13129997 -0.35470000 13.69229984 79 79 79
6.12270021 -0.33680001 13.72690010 88 88 88
6.11660004 -0.31950000 13.75510025 125 125 125
6.10710001 -0.30109999 13.79259968 94 94 94
6.09910011 -0.28330001 13.82600021 88 88 88
6.09159994 -0.26510000 13.85859966 68 68 68
6.08109999 -0.24570000 13.89929962 71 71 71
4.69280005 0.46869999 17.84790039 145 145 145
4.59670019 0.59030002 18.18129921 125 125 125
4.60129976 0.60699999 18.18429947 120 120 120
4.71360016 0.63020003 17.93429947 127 127 127
4.66690016 0.71090001 18.11689949 177 177 177
4.79239988 0.66780001 17.77879906 50 50 50
5.59320021 1.10570002 16.36730003 172 172 172
5.59439993 1.12360001 16.38520050 133 133 133
5.51620007 1.49059999 16.99589920 42 42 42
5.46010017 1.73940003 17.43040085 0 0 0
5.97889996 -5.02810001 15.45619965 0 0 0
5.81890011 -5.07450008 15.89540005 167 167 167
5.80690002 -4.86019993 15.64280033 140 140 140
5.71920013 -4.24900007 15.15180016 91 91 91
5.71829987 -4.04860020 14.95580006 71 71 71
6.23850012 -3.86560011 13.47490025 128 128 128
6.23280001 -3.85349989 13.47780037 123 123 123
4.86250019 -3.97390008 17.05579948 83 83 83
4.85720015 -3.95770001 17.05559921 91 91 91
6.94350004 -3.21770000 11.14710045 149 149 149
4.79040003 -3.41899991 16.84020042 155 155 155
4.78560019 -3.40240002 16.84239960 67 67 67
4.79370022 -3.30110002 16.76160049 92 92 92
4.47529984 -3.18849993 17.52849960 44 44 44
4.61219978 -3.02130008 17.09099960 155 155 155
4.78630018 -2.99040008 16.62299919 0 0 0
4.78900003 -2.97370005 16.60840034 188 188 188
4.66480017 -2.95090008 16.92270088 158 158 158
5.02489996 -2.82870007 15.93229961 64 64 64
5.02349997 -2.81310010 15.92980003 169 169 169
5.34630013 -1.99020004 14.91240025 116 116 116
5.34899998 -1.97640002 14.90509987 119 119 119
5.35540009 -1.96249998 14.88799953 120 120 120
5.97060013 -1.91100001 13.28479958 74 74 74
6.02309990 -1.90359998 13.14850044 102 102 102
6.03439999 -1.89170003 13.11950016 112 112 112
6.04370022 -1.88030005 13.09589958 109 109 109
6.05760002 -1.86889994 13.06050014 113 113 113
6.05840015 -1.85590005 13.05910015 94 94 94
6.03399992 -1.91810000 13.21129990 119 119 119
6.04600000 -1.90670002 13.18010044 103 103 103
6.05700016 -1.89460003 13.15190029 120 120 120
6.06339979 -1.88259995 13.13560009 107 107 107
6.08419991 -1.87230003 13.08180046 137 137 137
6.27860022 -1.59679997 12.61089993 169 169 169
4.52780008 -1.22909999 17.23399925 143 143 143
6.40980005 -1.47500002 12.30099964 0 0 0
6.41160011 -1.46350002 12.29979992 17 17 17
6.41349983 -1.45140004 12.29829979 51 51 51
5.74669981 -1.09590006 14.13300037 97 97 97
5.75740004 -1.08449996 14.11019993 112 112 112
5.76380014 -1.07270002 14.09840012 111 111 111
5.76819992 -1.05949998 14.09249973 95 95 95
6.43489981 -1.13769996 12.36149979 112 112 112
6.44150019 -1.12709999 12.34969997 97 97 97
6.44770002 -1.11600006 12.33899975 109 109 109
6.45149994 -1.10510004 12.33450031 106 106 106
6.45970011 -1.09480000 12.31849957 126 126 126
6.47049999 -1.08519995 12.29590034 158 158 158
6.45909977 -1.06990004 12.33209991 135 135 135
6.45849991 -1.05700004 12.34000015 118 118 118
6.65119982 -1.10339999 11.83010006 77 77 77
6.65509987 -1.09300005 11.82559967 78 78 78
6.44089985 -1.00049996 12.41329956 60 60 60
6.42040014 -0.98189998 12.47449970 87 87 87
6.41370010 -0.96689999 12.49930000 103 103 103
6.40509987 -0.95069999 12.52960014 84 84 84
6.39429998 -0.93489999 12.56540012 91 91 91
6.37540007 -0.90230000 12.63090038 74 74 74
6.36630011 -0.88669997 12.66240025 77 77 77
6.36210012 -0.87190002 12.68120003 73 73 73
6.35820007 -0.85720003 12.69960022 66 66 66
6.35300016 -0.84289998 12.72080040 69 69 69
6.35209990 -0.82920003 12.73089981 66 66 66
6.34779978 -0.81430000 12.75039959 45 45 45
6.32480001 -0.77950001 12.82859993 0 0 0
6.32329988 -0.76590002 12.84070015 0 0 0
6.31339979 -0.74930000 12.87549973 0 0 0
6.23549986 -0.55680001 13.19359970 0 0 0
6.23420000 -0.54200000 13.20709991 56 56 56
6.23820019 -0.52990001 13.20580006 95 95 95
6.23939991 -0.51660001 13.21220016 105 105 105
6.23839998 -0.50199997 13.22490025 109 109 109
6.23710012 -0.48760000 13.23840046 100 100 100
6.23239994 -0.47180000 13.26130009 99 99 99
6.22100019 -0.45269999 13.30300045 98 98 98
6.21509981 -0.43630001 13.32940006 111 111 111
6.18690014 -0.41080001 13.41699982 86 86 86
6.16529989 -0.38690001 13.48740005 125 125 125
6.13140011 -0.35850000 13.59109974 67 67 67
6.10239983 -0.33180001 13.68169975 75 75 75
4.75960016 0.37670001 17.48489952 172 172 172
4.65950012 0.49829999 17.82419968 106 106 106
4.72679996 0.69559997 17.83189964 116 116 116
4.66450024 0.74559999 18.02389908 146 146 146
5.54850006 1.14880002 16.40010071 150 150 150
5.55170012 1.16579998 16.41239929 101 101 101
5.43349981 1.54439998 17.12100029 115 115 115
6.24669981 1.19729996 14.94120026 105 105 105
5.94680023 1.48459995 15.94760036 22 22 22
6.02059984 1.64310002 16.00410080 122 122 122
5.90380001 -5.06869984 15.57069969 0 0 0
5.92810011 -5.03919983 15.47420025 85 85 85
5.87500000 -5.04879999 15.61110020 66 66 66
5.80459976 -5.06750011 15.80080032 115 115 115
5.78060007 -4.87489986 15.60719967 0 0 0
5.65649986 -4.64550018 15.62609959 83 83 83
5.68709993 -4.06069994 14.93420029 2 2 2
6.22240019 -3.85899997 13.40909958 110 110 110
6.22329998 -3.84540009 13.39449978 147 147 147
6.21920013 -3.83249998 13.39299965 93 93 93
6.91699982 -3.22480011 11.13780022 119 119 119
4.58650017 -3.04399991 17.04260063 0 0 0
4.72779989 -2.98239994 16.64920044 55 55 55
4.96910000 -2.86660004 15.97509956 159 159 159
4.97860003 -2.85050011 15.94429970 152 152 152
5.33020020 -2.68030000 14.97010040 47 47 47
6.02519989 -1.88129997 13.04889965 103 103 103
6.03520012 -1.86940002 13.02379990 107 107 107
6.04510021 -1.85749996 12.99899960 117 117 117
6.05089998 -1.84570003 12.98460007 117 117 117
6.05630016 -1.83340001 12.97159958 118 118 118
6.05900002 -1.82070005 12.96570015 83 83 83
6.04549980 -1.88349998 13.08650017 104 104 104
6.05880022 -1.87230003 13.05239964 86 86 86
6.06829977 -1.86080003 13.02859974 116 116 116
6.07170010 -1.84840000 13.02040005 105 105 105
6.07359982 -1.83570004 13.01640034 101 101 101
6.11969995 -1.79069996 12.90079975 100 100 100
6.24790001 -1.59430003 12.59899998 148 148 148
4.48080015 -1.20739996 17.23469925 143 143 143
6.38189983 -1.44749999 12.29150009 0 0 0
6.39109993 -1.43719995 12.27099991 115 115 115
6.39249992 -1.42550004 12.27089977 112 112 112
6.39279985 -1.41299999 12.27420044 105 105 105
6.57410002 -1.37119997 11.82549953 76 76 76
6.57380009 -1.35979998 11.83030033 88 88 88
5.72940016 -1.09500003 14.07520008 80 80 80
5.74520016 -1.08490002 14.03919983 97 97 97
5.75600004 -1.07410002 14.01609993 94 94 94
5.76709986 -1.06270003 13.99230003 72 72 72
5.77850008 -1.03779995 13.97360039 57 57 57
5.77570009 -1.02310002 13.98690033 63 63 63
6.41279984 -1.14639997 12.32439995 56 56 56
6.42210007 -1.13720000 12.30490017 91 91 91
6.42939997 -1.12670004 12.29129982 102 102 102
6.43450022 -1.11520004 12.28390026 128 128 128
6.43800020 -1.10420001 12.28020000 127 127 127
6.44070005 -1.09220004 12.27919960 133 133 133
6.44570017 -1.08080006 12.27190018 164 164 164
6.44409990 -1.06840003 12.28190041 123 123 123
6.46640015 -1.06260002 12.22900009 58 58 58
6.62570000 -1.09850001 11.81149960 120 120 120
6.62559986 -1.08690000 11.81760025 76 76 76
6.43480015 -1.01499999 12.33180046 93 93 93
6.42379999 -0.99830002 12.36800003 51 51 51
6.39470005 -0.97689998 12.45180035 80 80 80
4.76889992 -0.03460000 17.03770065 43 43 43
6.16590023 -0.47600001 13.32520008 0 0 0
6.17159986 -0.46439999 13.31949997 50 50 50
6.16839981 -0.44900000 13.33839989 75 75 75
6.16429996 -0.43270001 13.35990047 67 67 67
6.15199995 -0.41350001 13.40380001 78 78 78
6.13350010 -0.39199999 13.46430016 94 94 94
4.73050022 0.42250001 17.46629906 147 147 147
4.63119984 0.52520001 17.78680038 134 134 134
4.63009977 0.75779998 17.98749924 163 163 163
5.49149990 1.20070004 16.46929932 0 0 0
5.49910021 1.21550000 16.46940041 166 166 166
5.32830000 1.69850004 17.41539955 94 94 94
5.91260004 1.50600004 15.93509960 40 40 40
5.75089979 -4.90730000 15.60190010 38 38 38
5.69630003 -4.56659985 15.32479954 0 0 0
5.69089985 -4.55280018 15.32219982 141 141 141
5.68050003 -4.29860020 15.07390022 75 75 75
5.65850019 -4.29110003 15.11999989 83 83 83
6.20639992 -3.85279989 13.34469986 137 137 137
6.20480013 -3.83909988 13.33609962 147 147 147
6.20020008 -3.82680011 13.33660030 92 92 92
6.88980007 -3.23210001 11.13039970 150 150 150
4.69850016 -3.59159994 16.93709946 142 142 142
4.91319990 -2.92199993 16.02519989 0 0 0
4.90539980 -2.90650010 16.03899956 155 155 155
5.29139996 -2.65520000 14.95330048 43 43 43
4.79780006 -2.43179989 16.16710091 46 46 46
4.06389999 -1.85860002 17.99160004 48 48 48
4.05859995 -1.83930004 18.00499916 0 0 0
6.01840019 -1.85739994 12.97389984 83 83 83
6.02750015 -1.84590006 12.95129967 111 111 111
6.04129982 -1.83459997 12.91679955 105 105 105
6.05280018 -1.82299995 12.88819981 83 83 83
6.04330015 -1.87349999 12.99800014 67 67 67
6.03760004 -1.86010003 13.01350021 96 96 96
6.05350018 -1.84920001 12.97299957 112 112 112
6.06069994 -1.83700001 12.95549965 114 114 114
6.07070017 -1.82589996 12.93039989 102 102 102
6.07679987 -1.81330001 12.91580009 100 100 100
6.08839989 -1.80209994 12.88689995 84 84 84
6.09520006 -1.79040003 12.87049961 108 108 108
6.21579981 -1.59140003 12.59109974 7 7 7
4.42689991 -1.21840000 17.24570084 40 40 40
4.42759991 -1.18439996 17.25160027 154 154 154
6.35970020 -1.43330002 12.26379967 75 75 75
6.36369991 -1.42209995 12.25710011 50 50 50
6.36709976 -1.41020000 12.25209999 101 101 101
6.36990023 -1.39839995 12.24849987 58 58 58
6.55100012 -1.33270001 11.81280041 6 6 6
5.77500010 -1.06819999 13.86999989 175 175 175
5.78690004 -1.04349995 13.85009956 167 167 167
5.78809977 -1.02989995 13.85280037 185 185 185
6.39890003 -1.14559996 12.27130032 66 66 66
6.40759993 -1.13610005 12.25370026 108 108 108
6.41300011 -1.12510002 12.24520016 118 118 118
6.41750002 -1.11339998 12.23919964 126 126 126
6.41979980 -1.10200000 12.23869991 125 125 125
6.42360020 -1.09019995 12.23490047 121 121 121
6.42449999 -1.07760000 12.23869991 127 127 127
6.42640018 -1.06620002 12.23929977 134 134 134
6.59259987 -1.10409999 11.80690002 110 110 110
6.59910011 -1.09329998 11.79609966 141 141 141
6.43429995 -1.03050005 12.23729992 61 61 61
6.41900015 -1.01320004 12.28400040 87 87 87
6.40040016 -0.99400002 12.34010029 0 0 0
4.72940016 -0.04150000 17.00799942 147 147 147
4.44000006 0.14470001 17.83489990 87 87 87
4.69409990 0.45350000 17.45369911 0 0 0
4.69700003 0.47119999 17.46100044 42 42 42
4.59779978 0.55519998 17.76409912 109 109 109
4.67570019 0.69150001 17.69580078 126 126 126
4.59980011 0.74890000 17.92300034 124 124 124
4.60050011 0.76760000 17.93790054 96 96 96
5.43219995 1.29419994 16.59000015 0 0 0
5.44339991 1.30659997 16.57990074 146 146 146
5.43680000 1.33099997 16.62220001 165 165 165
5.41809988 1.38339996 16.72380066 48 48 48
6.17910004 1.22000003 14.90340042 63 63 63
5.87720013 1.52830005 15.92650032 86 86 86
5.76719999 -5.09110022 15.68490028 133 133 133
5.87809992 -4.98479986 15.28999996 50 50 50
5.82760000 -4.90819979 15.30930042 78 78 78
5.80910015 -4.89979982 15.34189987 75 75 75
5.63829994 -4.72529984 15.53190041 138 138 138
5.64200020 -4.33109999 15.08990002 132 132 132
5.65089989 -4.12319994 14.86320019 86 86 86
6.17999983 -3.83500004 13.29629993 0 0 0
6.18240023 -3.82069993 13.27760029 123 123 123
6.17910004 -3.80760002 13.27410030 66 66 66
6.99989986 -3.46539998 10.94769955 103 103 103
6.86030006 -3.23979998 11.12899971 142 142 142
4.67689991 -3.61610007 16.88430023 69 69 69
4.62270021 -3.48850012 16.93959999 108 108 108
4.86549997 -2.96099997 16.04730034 103 103 103
4.85790014 -2.94619989 16.06049919 160 160 160
4.85370016 -2.92989993 16.06430054 25 25 25
5.25769997 -2.64499998 14.92850018 24 24 24
5.77349997 -2.57360005 13.58699989 90 90 90
5.21829987 -2.39210010 14.96549988 152 152 152
5.21570015 -2.37759995 14.96930027 189 189 189
6.03270006 -1.82350004 12.84729958 86 86 86
5.98180008 -1.83019996 13.06480026 1 1 1
6.05299997 -1.82650006 12.88269997 76 76 76
6.07089996 -1.81550002 12.83769989 92 92 92
6.07989979 -1.80390000 12.81579971 100 100 100
6.08680010 -1.79219997 12.79940033 93 93 93
6.09619999 -1.78020000 12.77639961 109 109 109
6.10129976 -1.76769996 12.76469994 114 114 114
6.10570002 -1.75569999 12.75479984 87 87 87
6.11240005 -1.74370003 12.73929977 84 84 84
6.12120008 -1.73249996 12.71809959 80 80 80
6.12639999 -1.72070003 12.70639992 69 69 69
6.13749981 -1.70940006 12.67980003 65 65 65
6.14219999 -1.69719994 12.66950035 94 94 94
6.14799976 -1.68529999 12.65649986 74 74 74
6.15409994 -1.67309999 12.64290047 66 66 66
6.16099977 -1.66149998 12.62730026 63 63 63
6.16569996 -1.64950001 12.61730003 49 49 49
6.17019987 -1.63720000 12.60789967 53 53 53
6.17399979 -1.62510002 12.60060024 50 50 50
6.17369986 -1.61249995 12.60359955 0 0 0
6.18109989 -1.60070002 12.58720016 20 20 20
6.34410000 -1.37080002 12.23490047 21 21 21
6.34759998 -1.35950005 12.22970009 0 0 0
6.35270023 -1.34870005 12.22049999 0 0 0
6.38560009 -1.14489996 12.21739960 85 85 85
6.39419985 -1.13530004 12.20020008 82 82 82
6.40000010 -1.12440002 12.19069958 114 114 114
6.40469980 -1.11269999 12.18439960 125 125 125
6.40509987 -1.10070002 12.18879986 129 129 129
6.40789986 -1.08870006 12.18739986 141 141 141
6.40889978 -1.07599998 12.19089985 143 143 143
6.40950012 -1.06420004 12.19499969 131 131 131
6.56990004 -1.10020006 11.78100014 114 114 114
6.57359982 -1.08850002 11.77750015 137 137 137
6.40859985 -1.02569997 12.21609974 89 89 89
6.40220022 -1.01100004 12.23939991 84 84 84
4.68809986 0.48899999 17.37310028 0 0 0
4.65920019 0.52170002 17.46759987 46 46 46
4.63770008 0.72509998 17.68840027 0 0 0
4.58750010 0.76910001 17.84309959 79 79 79
4.59259987 0.78719997 17.84720039 120 120 120
5.39799976 1.39209998 16.66069984 160 160 160
5.35129976 1.44369996 16.82080078 78 78 78
5.34940004 1.46510005 16.85000038 112 112 112
5.30889988 1.53439999 17.01779938 63 63 63
6.14820004 1.23880005 14.88799953 139 139 139
5.63409996 -4.33640003 15.00419998 135 135 135
5.62820005 -4.14890003 14.83419991 147 147 147
4.95289993 -3.71580005 16.14069939 175 175 175
6.83440018 -3.25850010 11.12580013 35 35 35
6.82999992 -3.24769998 11.12959957 0 0 0
4.61390018 -3.63089991 16.92930031 181 181 181
4.57250023 -3.51789999 16.96100044 0 0 0
4.45790005 -3.15260005 17.04990005 92 92 92
4.81029987 -2.93659997 16.06130028 159 159 159
5.21950006 -2.63420010 14.91510010 120 120 120
4.68179989 -2.40610003 16.22509956 94 94 94
6.02729988 -1.81280005 12.85700035 46 46 46
6.04750013 -1.80260003 12.80659962 88 88 88
6.05660009 -1.79100001 12.78460026 87 87 87
6.06610012 -1.77900004 12.76169968 100 100 100
6.07359982 -1.76680005 12.74390030 107 107 107
6.08150005 -1.75520003 12.72519970 110 110 110
6.08839989 -1.74319994 12.70899963 110 110 110
6.09639978 -1.73169994 12.69019985 117 117 117
6.10379982 -1.72019994 12.67310047 107 107 107
6.11219978 -1.70850003 12.65340042 112 112 112
6.11800003 -1.69640005 12.64029980 113 113 113
6.12470007 -1.68460000 12.62510014 108 108 108
6.13170004 -1.67240000 12.60929966 111 111 111
6.13770008 -1.66069996 12.59599972 115 115 115
6.14519978 -1.64909995 12.57900047 115 115 115
6.15119982 -1.63689995 12.56610012 107 107 107
6.15799999 -1.62530005 12.55090046 126 126 126
6.16160011 -1.61339998 12.54399967 106 106 106
6.16569996 -1.60090005 12.53619957 90 90 90
6.17159986 -1.58940005 12.52350044 82 82 82
6.17609978 -1.57760000 12.51449966 79 79 79
6.18160009 -1.56579995 12.50319958 86 86 86
6.18529987 -1.55390000 12.49650002 85 85 85
6.19059992 -1.54240000 12.48579979 75 75 75
6.19610023 -1.53100002 12.47449970 70 70 70
6.20200014 -1.51929998 12.46240044 85 85 85
6.20720005 -1.50769997 12.45219994 79 79 79
6.21140003 -1.49590003 12.44439983 80 80 80
6.21659994 -1.48399997 12.43439960 77 77 77
6.21630001 -1.47179997 12.43830013 69 69 69
6.22609997 -1.46070004 12.41679955 104 104 104
6.22739983 -1.44840002 12.41670036 52 52 52
6.23159981 -1.43690002 12.40950012 69 69 69
6.26340008 -1.38020003 12.34659958 16 16 16
6.26959991 -1.36940002 12.33440018 23 23 23
6.30429983 -1.34019995 12.25730038 0 0 0
6.31909990 -1.33080006 12.22360039 38 38 38
6.32609987 -1.31980002 12.20989990 73 73 73
6.32889986 -1.30859995 12.20680046 140 140 140
6.32889986 -1.29569995 12.21129990 134 134 134
6.32969999 -1.28320003 12.21409988 74 74 74
5.77209997 -1.08850002 13.67249966 78 78 78
5.79160023 -1.07930005 13.62779999 70 70 70
6.52330017 -1.21169996 11.76179981 115 115 115
6.52220011 -1.19900000 11.77009964 98 98 98
6.45200014 -1.16659999 11.95740032 41 41 41
6.38320017 -1.13520002 12.14089966 92 92 92
6.38590002 -1.12329996 12.13969994 116 116 116
6.38719988 -1.11059999 12.14220047 115 115 115
6.38990021 -1.09930003 12.14060020 126 126 126
6.39080000 -1.08659995 12.14439964 130 130 130
6.39120007 -1.07379997 12.14929962 134 134 134
6.39279985 -1.06219995 12.15089989 129 129 129
6.54220009 -1.09469998 11.76819992 100 100 100
6.54750013 -1.08340001 11.76080036 166 166 166
5.61819983 -0.40500000 14.40159988 95 95 95
4.68380022 0.62010002 17.36890030 92 92 92
4.61250019 0.73269999 17.62919998 141 141 141
4.58169985 0.76709998 17.72979927 104 104 104
4.59130001 0.78289998 17.72139931 155 155 155
5.38019991 1.41880000 16.61400032 129 129 129
5.37699986 1.44099998 16.64660072 102 102 102
5.28469992 1.52569997 16.94109917 153 153 153
5.28599977 1.54519999 16.96109962 48 48 48
5.85710001 1.63339996 15.88230038 0 0 0
5.95650005 -5.13630009 15.08810043 112 112 112
5.94960022 -5.12260008 15.08520031 37 37 37
5.66750002 -5.10979986 15.70699978 155 155 155
5.69080019 -4.97749996 15.48639965 19 19 19
5.68039989 -4.82919979 15.32960033 91 91 91
5.68480015 -4.80999994 15.29689980 70 70 70
5.69059992 -4.64179993 15.08839989 108 108 108
5.68690014 -4.62750006 15.08090019 135 135 135
5.68949986 -4.61030006 15.05550003 138 138 138
5.39039993 -4.47480011 15.61839962 98 98 98
6.98430014 -3.61059999 10.95020008 6 6 6
6.15460014 -3.79150009 13.12829971 155 155 155
6.15329981 -3.77789998 13.11989975 147 147 147
6.92980003 -3.45330000 10.95240021 0 0 0
4.93510008 -3.88750005 16.19510078 141 141 141
4.89480019 -3.73090005 16.17880058 0 0 0
6.80550003 -3.26609993 11.12259960 51 51 51
6.80459976 -3.25460005 11.11730003 0 0 0
4.57070017 -3.65840006 16.93269920 0 0 0
4.51639986 -3.53049994 16.98640060 83 83 83
4.61749983 -2.39269996 16.26899910 0 0 0
5.85580015 -2.04749990 13.10459995 137 137 137
4.22900009 -1.74389994 17.19490051 64 64 64
4.30000019 -1.73389995 17.01689911 137 137 137
4.17299986 -1.70220006 17.33690071 76 76 76
4.17539978 -1.68540001 17.33180046 162 162 162
5.93349981 -1.83039999 12.91370010 47 47 47
5.95310020 -1.81959999 12.86540031 47 47 47
4.22049999 -1.68970001 17.33449936 171 171 171
5.95930004 -1.82060003 12.93640041 0 0 0
6.00129986 -1.81239998 12.83100033 0 0 0
6.00509977 -1.79999995 12.82240009 78 78 78
6.01490021 -1.78840005 12.79899979 68 68 68
6.02120018 -1.77579999 12.78419971 82 82 82
6.02619982 -1.76310003 12.77299976 106 106 106
6.03060007 -1.75090003 12.76340008 87 87 87
6.02990007 -1.73759997 12.76650047 16 16 16
6.08290005 -1.68089998 12.64109993 0 0 0
6.09180021 -1.66890001 12.62069988 26 26 26
6.09429979 -1.65649998 12.61629963 51 51 51
6.10389996 -1.64520001 12.59399986 0 0 0
6.12430000 -1.62240005 12.54699993 99 99 99
6.12919998 -1.61070001 12.53670025 117 117 117
6.13560009 -1.59850001 12.52299976 114 114 114
6.14139986 -1.58700001 12.51080036 133 133 133
6.14699984 -1.57519996 12.49919987 120 120 120
6.15360022 -1.56359994 12.48499966 128 128 128
6.15850019 -1.55190003 12.47550011 142 142 142
6.16289997 -1.54009998 12.46710014 136 136 136
6.16960001 -1.52880001 12.45289993 162 162 162
6.17619991 -1.51719999 12.43900013 142 142 142
6.18020010 -1.50539994 12.43179989 129 129 129
6.18620014 -1.49380004 12.41979980 134 134 134
6.19099998 -1.48179996 12.41079998 158 158 158
6.19640017 -1.47070003 12.40019989 153 153 153
6.20240021 -1.45879996 12.38840008 156 156 156
6.20860004 -1.44739997 12.37590027 150 150 150
6.21439981 -1.43620002 12.36460018 153 153 153
6.22060013 -1.42449999 12.35249996 131 131 131
6.22679996 -1.41310000 12.34039974 131 131 131
6.23369980 -1.40230000 12.32649994 107 107 107
6.24009991 -1.39069998 12.31389999 136 136 136
6.24599981 -1.37930000 12.30270004 115 115 115
6.25040007 -1.36800003 12.29529953 114 114 114
6.25759983 -1.35669994 12.28100014 94 94 94
6.26319981 -1.34570003 12.27070045 88 88 88
6.26929998 -1.33490002 12.25920010 91 91 91
6.28219986 -1.32490003 12.23060036 65 65 65
6.29180002 -1.31449997 12.21039963 93 93 93
6.29850006 -1.30410004 12.19729996 106 106 106
6.30299997 -1.29229999 12.19050026 116 116 116
6.30789995 -1.28069997 12.18249989 122 122 122
6.31180000 -1.26960003 12.17689991 123 123 123
6.31510019 -1.25740004 12.17319965 128 128 128
6.31809998 -1.24559999 12.17039967 102 102 102
6.32100010 -1.23430002 12.16759968 106 106 106
6.32429981 -1.22230005 12.16409969 100 100 100
6.33920002 -1.18889999 12.14070034 87 87 87
6.34250021 -1.17700005 12.13739967 101 101 101
6.34969997 -1.16670001 12.12409973 103 103 103
6.35850000 -1.15639997 12.10700035 64 64 64
6.39499998 -1.15349996 12.01860046 59 59 59
6.48390007 -1.16670001 11.79510021 89 89 89
6.50659990 -1.16090000 11.74209976 127 127 127
6.43610001 -1.12779999 11.92930031 63 63 63
6.37779999 -1.09879994 12.08489990 146 146 146
6.37580013 -1.08519995 12.09609985 137 137 137
6.37750006 -1.07270002 12.09780025 120 120 120
6.37849998 -1.06089997 12.10079956 120 120 120
6.51389980 -1.08899999 11.75739956 73 73 73
6.51800013 -1.07729995 11.75290012 65 65 65
5.57730007 -0.39330000 14.40569973 158 158 158
6.19829988 -0.37650001 12.94820023 129 129 129
4.63009977 0.62140000 17.37240028 146 146 146
4.64249992 0.63529998 17.35530090 154 154 154
4.57499981 0.74650002 17.60400009 0 0 0
4.57439995 0.76590002 17.62199974 150 150 150
4.53459978 0.80650002 17.74790001 58 58 58
4.73890018 0.72350001 17.20949936 123 123 123
5.35419989 1.47259998 16.61630058 185 185 185
5.23869991 1.57299995 16.97629929 93 93 93
5.24399996 1.59000003 16.98500061 138 138 138
5.17570019 1.72340000 17.28499985 138 138 138
5.11409998 1.81019998 17.51689911 153 153 153
5.80070019 1.63269997 15.88669968 144 144 144
6.06489992 -5.48360014 15.22469997 68 68 68
5.68599987 -5.10300016 15.54269981 163 163 163
5.68470001 -5.08690023 15.52509975 138 138 138
5.63339996 -4.65170002 15.12339973 173 173 173
5.64090014 -4.50059986 14.94139957 98 98 98
5.64219999 -4.48409986 14.92070007 145 145 145
5.64239979 -4.46710014 14.90229988 152 152 152
5.63640022 -4.42049980 14.86789989 140 140 140
5.63940001 -4.40409994 14.84399986 53 53 53
5.61940002 -4.37830019 14.86489964 103 103 103
5.59219980 -4.19649982 14.75160027 139 139 139
4.84359980 -3.76060009 16.20940018 0 0 0
6.76560020 -3.26410007 11.14009953 41 41 41
4.52710009 -3.66980004 16.92620087 177 177 177
6.73509979 -3.23550010 11.19670010 133 133 133
4.45190001 -3.54439998 17.03260040 0 0 0
5.54780006 -3.21659994 14.12639999 0 0 0
4.63460016 -3.02430010 16.30809975 78 78 78
5.66610003 -2.55789995 13.56309986 95 95 95
4.58269978 -2.39590001 16.24130058 23 23 23
5.73420000 -2.23180008 13.32999992 0 0 0
5.74529982 -2.21860003 13.30080032 28 28 28
5.82270002 -2.04789996 13.09490013 111 111 111
5.89340019 -1.86829996 12.92039967 73 73 73
5.90730000 -1.84360003 12.88720036 114 114 114
5.91160011 -1.83080006 12.87740040 117 117 117
5.91680002 -1.81809998 12.86540031 128 128 128
5.93809986 -1.83360004 12.89690018 113 113 113
5.94850016 -1.82210004 12.87160015 116 116 116
5.95669985 -1.80949998 12.85210037 124 124 124
5.96089983 -1.79709995 12.84270000 102 102 102
5.96350002 -1.78439999 12.83740044 103 103 103
5.96750021 -1.77139997 12.82849979 0 0 0
6.14620018 -1.48880005 12.43249989 60 60 60
6.15450001 -1.46500003 12.41790009 55 55 55
6.16849995 -1.44190001 12.38930035 90 90 90
6.17899990 -1.43159997 12.36639977 100 100 100
6.18720007 -1.42030001 12.34920025 134 134 134
6.19379997 -1.40890002 12.33619976 107 107 107
6.20130014 -1.39810002 12.32089996 128 128 128
6.20629978 -1.38610005 12.31200027 137 137 137
6.21379995 -1.37489998 12.29689980 105 105 105
6.21939993 -1.36389995 12.28660011 119 119 119
6.22609997 -1.35239995 12.27369976 114 114 114
6.23150015 -1.34119999 12.26399994 105 105 105
6.23929977 -1.33080006 12.24810028 110 110 110
6.24580002 -1.31920004 12.23600006 104 104 104
6.25390005 -1.30830002 12.21959972 116 116 116
6.26100016 -1.29789996 12.20590019 105 105 105
6.26919985 -1.28690004 12.18970013 100 100 100
6.27640009 -1.27579999 12.17580032 105 105 105
6.28299999 -1.26520002 12.16370010 100 100 100
6.28910017 -1.25380003 12.15279961 129 129 129
6.29409981 -1.24240005 12.14480019 98 98 98
