6.40329981 -0.28819999 0.36500001 175 175 175
6.42959976 -0.30570000 0.36660001 172 172 172
6.46659994 -0.32280001 0.36870000 161 161 161
6.53230000 0.04300000 0.36829999 154 154 154
6.44710016 0.02710000 0.36340001 161 161 161
6.41160011 0.01120000 0.36140001 171 171 171
6.38749981 -0.00480000 0.36010000 199 199 199
6.37080002 -0.02020000 0.35910001 175 175 175
6.36129999 -0.03590000 0.35859999 198 198 198
6.35099983 -0.05190000 0.35800001 180 180 180
6.34859991 -0.06690000 0.35789999 189 189 189
6.34170008 -0.08250000 0.35749999 186 186 186
6.33780003 -0.09840000 0.35730001 197 197 197
6.33629990 -0.11350000 0.35730001 201 201 201
6.37090015 -0.02020000 0.34709999 168 168 168
6.36159992 -0.03600000 0.34660000 203 203 203
6.35080004 -0.05130000 0.34599999 186 186 186
6.34889984 -0.06710000 0.34590000 210 210 210
6.34250021 -0.08240000 0.34560001 190 190 190
6.33900023 -0.09820000 0.34540001 200 200 200
6.33629990 -0.11410000 0.34529999 201 201 201
6.33599997 -0.12960000 0.34529999 207 207 207
6.33330011 -0.14510000 0.34509999 182 182 182
6.33519983 -0.16069999 0.34529999 167 167 167
6.33739996 -0.17600000 0.34540001 188 188 188
6.34219980 -0.19180000 0.34570000 172 172 172
6.34800005 -0.20790000 0.34599999 204 204 204
6.35360003 -0.22350000 0.34639999 180 180 180
6.36380005 -0.23960000 0.34700000 169 169 169
6.37849998 -0.25600001 0.34779999 159 159 159
6.38940001 -0.27200001 0.34840000 209 209 209
6.40959978 -0.28850001 0.34959999 179 179 179
6.43090010 -0.30570000 0.35080001 171 171 171
6.47399998 -0.32319999 0.35319999 181 181 181
6.52239990 0.04300000 0.35170001 144 144 144
6.44540024 0.02710000 0.34750000 163 163 163
6.40840006 0.01120000 0.34549999 167 167 167
6.38719988 -0.00470000 0.34439999 202 202 202
6.36789989 -0.02020000 0.34330001 161 161 161
6.36229992 -0.03590000 0.34299999 193 193 193
6.34980011 -0.05190000 0.34240001 180 180 180
6.34800005 -0.06690000 0.34230000 204 204 204
6.34130001 -0.08250000 0.34189999 189 189 189
6.33879995 -0.09840000 0.34180000 204 204 204
6.33729982 -0.11350000 0.34169999 200 200 200
6.37060022 -0.02030000 0.33140001 173 173 173
6.36199999 -0.03600000 0.33090001 179 179 179
6.35300016 -0.05140000 0.33050001 182 182 182
6.34849977 -0.06710000 0.33019999 204 204 204
6.34289980 -0.08240000 0.32990000 193 193 193
6.34089994 -0.09820000 0.32990000 207 207 207
6.33780003 -0.11420000 0.32969999 207 207 207
6.33620024 -0.12970001 0.32960001 199 199 199
6.33389997 -0.14510000 0.32949999 178 178 178
6.33599997 -0.16069999 0.32969999 173 173 173
6.33860016 -0.17600000 0.32980001 174 174 174
6.34210014 -0.19180000 0.33000001 167 167 167
6.34759998 -0.20790000 0.33030000 196 196 196
6.35360003 -0.22350000 0.33070001 189 189 189
6.36569977 -0.23970000 0.33129999 173 173 173
6.37949991 -0.25610000 0.33210000 167 167 167
6.39069986 -0.27210000 0.33270001 173 173 173
6.40250015 -0.28819999 0.33340001 175 175 175
6.43580008 -0.30599999 0.33510000 166 166 166
6.47539997 -0.32330000 0.33719999 171 171 171
6.50470018 0.04290000 0.33480000 149 149 149
6.44140005 0.02710000 0.33149999 176 176 176
6.40819979 0.01120000 0.32980001 173 173 173
6.38479996 -0.00470000 0.32859999 192 192 192
6.37139988 -0.02020000 0.32789999 170 170 170
6.35869980 -0.03590000 0.32720000 178 178 178
6.35220003 -0.05190000 0.32690001 196 196 196
6.34810019 -0.06690000 0.32670000 194 194 194
6.34359980 -0.08250000 0.32650000 192 192 192
6.34149981 -0.09840000 0.32640001 207 207 207
6.33780003 -0.11350000 0.32620001 201 201 201
6.36929989 -0.02030000 0.31560001 172 172 172
6.36000013 -0.03600000 0.31510001 172 172 172
6.35360003 -0.05140000 0.31479999 191 191 191
6.34619999 -0.06710000 0.31450000 177 177 177
6.34200001 -0.08240000 0.31430000 195 195 195
6.34170008 -0.09830000 0.31430000 206 206 206
6.33620024 -0.11410000 0.31400001 188 188 188
6.33669996 -0.12970001 0.31400001 202 202 202
6.33610010 -0.14520000 0.31400001 199 199 199
6.33669996 -0.16069999 0.31410000 194 194 194
6.33820009 -0.17600000 0.31420001 177 177 177
6.34310007 -0.19180000 0.31439999 176 176 176
6.34849977 -0.20790000 0.31470001 184 184 184
6.35510015 -0.22360000 0.31510001 203 203 203
6.36509991 -0.23970000 0.31560001 174 174 174
6.37709999 -0.25600001 0.31619999 154 154 154
6.38950014 -0.27210000 0.31690001 160 160 160
6.40999985 -0.28850001 0.31790000 172 172 172
6.43400002 -0.30590001 0.31909999 164 164 164
6.47300005 -0.32319999 0.32110000 161 161 161
6.49030018 0.04280000 0.31810001 153 153 153
6.43769979 0.02710000 0.31549999 176 176 176
6.40749979 0.01120000 0.31400001 171 171 171
6.38339996 -0.00470000 0.31279999 172 172 172
6.36770010 -0.02020000 0.31209999 174 174 174
6.35960007 -0.03580000 0.31169999 177 177 177
6.35349989 -0.05190000 0.31140000 205 205 205
6.34709978 -0.06690000 0.31110001 176 176 176
6.34240007 -0.08250000 0.31090000 192 192 192
6.34000015 -0.09840000 0.31070000 202 202 202
6.33620024 -0.11350000 0.31060001 184 184 184
6.36850023 -0.02030000 0.29980001 181 181 181
6.36180019 -0.03610000 0.29949999 196 196 196
6.35340023 -0.05140000 0.29910001 205 205 205
6.34670019 -0.06720000 0.29879999 183 183 183
6.34350014 -0.08250000 0.29870000 186 186 186
6.34140015 -0.09830000 0.29859999 196 196 196
6.33869982 -0.11420000 0.29850000 208 208 208
6.33640003 -0.12970001 0.29840001 201 201 201
6.33729982 -0.14520000 0.29840001 205 205 205
6.33760023 -0.16080000 0.29850000 183 183 183
6.33850002 -0.17600000 0.29850000 178 178 178
6.34350014 -0.19180000 0.29879999 202 202 202
6.34849977 -0.20790000 0.29910001 182 182 182
6.35669994 -0.22370000 0.29949999 196 196 196
6.36219978 -0.23960000 0.29980001 156 156 156
6.38059998 -0.25619999 0.30070001 195 195 195
6.38850021 -0.27200001 0.30109999 154 154 154
6.40840006 -0.28850001 0.30199999 157 157 157
6.43219995 -0.30579999 0.30320001 153 153 153
6.47060013 -0.32310000 0.30500001 160 160 160
6.49139977 0.04280000 0.30219999 149 149 149
6.43499994 0.02710000 0.29960001 176 176 176
6.40439987 0.01120000 0.29820001 175 175 175
6.38329983 -0.00470000 0.29719999 167 167 167
6.36770010 -0.02020000 0.29640001 178 178 178
6.35930014 -0.03580000 0.29609999 189 189 189
6.35209990 -0.05190000 0.29570001 192 192 192
6.34429979 -0.06680000 0.29539999 179 179 179
6.34189987 -0.08250000 0.29530001 183 183 183
6.34219980 -0.09840000 0.29530001 197 197 197
6.33909988 -0.11350000 0.29519999 209 209 209
6.36929989 -0.02030000 0.28420001 173 173 173
6.35939980 -0.03610000 0.28369999 197 197 197
6.35279989 -0.05140000 0.28340000 200 200 200
6.34730005 -0.06720000 0.28320000 180 180 180
6.34289980 -0.08250000 0.28299999 190 190 190
6.33970022 -0.09830000 0.28290001 200 200 200
6.34149981 -0.11430000 0.28299999 208 208 208
6.33739996 -0.12970001 0.28279999 195 195 195
6.33549976 -0.14520000 0.28270000 192 192 192
6.33650017 -0.16069999 0.28279999 185 185 185
6.33869982 -0.17610000 0.28290001 190 190 190
6.34499979 -0.19190000 0.28320000 196 196 196
6.34639978 -0.20790000 0.28330001 175 175 175
6.35480022 -0.22360000 0.28369999 173 173 173
6.36870003 -0.23989999 0.28430000 166 166 166
6.38129997 -0.25619999 0.28490001 199 199 199
6.39519978 -0.27230000 0.28560001 184 184 184
6.41099977 -0.28860000 0.28630000 162 162 162
6.43419981 -0.30590001 0.28740001 163 163 163
6.47219992 -0.32319999 0.28909999 156 156 156
6.48260021 0.04280000 0.28590000 152 152 152
6.43330002 0.02710000 0.28369999 175 175 175
6.40369987 0.01120000 0.28240001 180 180 180
6.38119984 -0.00470000 0.28140000 162 162 162
6.36850023 -0.02020000 0.28090000 173 173 173
6.35879993 -0.03580000 0.28040001 206 206 206
6.35010004 -0.05180000 0.28009999 179 179 179
6.34719992 -0.06690000 0.27990001 179 179 179
6.34359980 -0.08250000 0.27980000 187 187 187
6.33979988 -0.09830000 0.27959999 195 195 195
6.33900023 -0.11350000 0.27959999 205 205 205
6.36759996 -0.02030000 0.26840001 184 184 184
6.35970020 -0.03610000 0.26809999 176 176 176
6.35239983 -0.05140000 0.26780000 183 183 183
6.34709978 -0.06720000 0.26760000 191 191 191
6.34219980 -0.08250000 0.26740000 186 186 186
6.33939981 -0.09830000 0.26719999 195 195 195
6.33809996 -0.11420000 0.26719999 198 198 198
6.33360004 -0.12970001 0.26699999 171 171 171
6.33419991 -0.14520000 0.26710001 167 167 167
6.33900023 -0.16080000 0.26730001 185 185 185
6.34019995 -0.17610000 0.26730001 174 174 174
6.34369993 -0.19190000 0.26750001 176 176 176
6.35080004 -0.20800000 0.26780000 177 177 177
6.35780001 -0.22370000 0.26820001 174 174 174
6.36940002 -0.23989999 0.26870000 168 168 168
6.38439989 -0.25630000 0.26930001 180 180 180
6.39349985 -0.27230000 0.26969999 163 163 163
6.41289997 -0.28870001 0.27059999 167 167 167
6.44019985 -0.30630001 0.27180001 163 163 163
6.48589993 -0.32390001 0.27370000 176 176 176
6.48729992 0.04280000 0.27020001 153 153 153
6.43069983 0.02720000 0.26780000 168 168 168
6.40299988 0.01130000 0.26670000 173 173 173
6.38250017 -0.00470000 0.26580000 171 171 171
6.36780024 -0.02010000 0.26519999 182 182 182
6.35960007 -0.03580000 0.26490000 181 181 181
6.35059977 -0.05180000 0.26449999 182 182 182
6.34770012 -0.06680000 0.26440001 196 196 196
6.34110022 -0.08250000 0.26409999 185 185 185
6.34030008 -0.09830000 0.26409999 189 189 189
6.33760023 -0.11350000 0.26400000 186 186 186
6.36980009 -0.02030000 0.25279999 190 190 190
6.35949993 -0.03610000 0.25240001 169 169 169
6.35169983 -0.05140000 0.25209999 188 188 188
6.35059977 -0.06720000 0.25200000 208 208 208
6.34210014 -0.08250000 0.25170001 187 187 187
6.33909988 -0.09830000 0.25160000 177 177 177
6.33799982 -0.11420000 0.25160000 187 187 187
6.33479977 -0.12970001 0.25150001 176 176 176
6.33570004 -0.14520000 0.25150001 176 176 176
6.34040022 -0.16090000 0.25170001 181 181 181
6.34170008 -0.17620000 0.25180000 175 175 175
6.34709978 -0.19200000 0.25200000 179 179 179
6.35039997 -0.20800000 0.25220001 163 163 163
6.35489988 -0.22360000 0.25240001 172 172 172
6.37060022 -0.23999999 0.25299999 158 158 158
6.38430023 -0.25630000 0.25360000 162 162 162
6.39429998 -0.27230000 0.25400001 169 169 169
6.41800022 -0.28900000 0.25500000 173 173 173
6.43989992 -0.30630001 0.25590000 162 162 162
6.48519993 -0.32380000 0.25770000 162 162 162
6.48500013 0.04280000 0.25420001 153 153 153
6.42880011 0.02720000 0.25200000 169 169 169
6.40299988 0.01130000 0.25099999 167 167 167
6.38170004 -0.00460000 0.25009999 180 180 180
6.36920023 -0.02010000 0.24959999 188 188 188
6.35869980 -0.03580000 0.24920000 173 173 173
6.35290003 -0.05180000 0.24900000 193 193 193
6.34840012 -0.06680000 0.24879999 203 203 203
6.34420013 -0.08250000 0.24869999 189 189 189
6.33970022 -0.09830000 0.24850000 179 179 179
6.34019995 -0.11350000 0.24850000 189 189 189
6.36829996 -0.02030000 0.23700000 190 190 190
6.36019993 -0.03610000 0.23670000 176 176 176
6.35319996 -0.05140000 0.23649999 182 182 182
6.34819984 -0.06720000 0.23630001 186 186 186
6.34320021 -0.08250000 0.23610000 185 185 185
6.34130001 -0.09830000 0.23610000 191 191 191
6.34019995 -0.11430000 0.23600000 190 190 190
6.33809996 -0.12980001 0.23600000 194 194 194
6.33760023 -0.14530000 0.23600000 183 183 183
6.33949995 -0.16090000 0.23610000 176 176 176
6.34130001 -0.17620000 0.23610000 173 173 173
6.34549999 -0.19190000 0.23630001 173 173 173
6.34989977 -0.20800000 0.23649999 161 161 161
6.36049986 -0.22380000 0.23690000 172 172 172
6.36959982 -0.23999999 0.23729999 154 154 154
6.38539982 -0.25639999 0.23790000 162 162 162
6.39839983 -0.27250001 0.23840000 196 196 196
6.41760015 -0.28900000 0.23909999 168 168 168
6.43800020 -0.30620000 0.23989999 164 164 164
6.49730015 -0.32449999 0.24220000 168 168 168
6.48140001 0.04280000 0.23819999 150 150 150
6.42880011 0.02720000 0.23620000 179 179 179
6.39909983 0.01130000 0.23510000 174 174 174
6.38149977 -0.00460000 0.23450001 170 170 170
6.36859989 -0.02010000 0.23400000 180 180 180
6.36030006 -0.03580000 0.23370001 185 185 185
6.35150003 -0.05180000 0.23340000 180 180 180
6.34789991 -0.06680000 0.23330000 182 182 182
6.34280014 -0.08250000 0.23310000 188 188 188
6.34270000 -0.09830000 0.23310000 195 195 195
6.34070015 -0.11350000 0.23300000 193 193 193
6.36810017 -0.02030000 0.22139999 196 196 196
6.35920000 -0.03610000 0.22100000 175 175 175
6.35169983 -0.05140000 0.22080000 174 174 174
6.34789991 -0.06720000 0.22070000 191 191 191
6.34229994 -0.08250000 0.22050001 186 186 186
6.34119987 -0.09830000 0.22040001 191 191 191
6.34149981 -0.11430000 0.22050001 200 200 200
6.33690023 -0.12980001 0.22030000 197 197 197
6.33939981 -0.14530000 0.22040001 198 198 198
6.34019995 -0.16090000 0.22050001 183 183 183
6.34530020 -0.17630000 0.22059999 178 178 178
6.34590006 -0.19200000 0.22070000 183 183 183
6.35200024 -0.20810001 0.22090000 171 171 171
6.36110020 -0.22390001 0.22120000 179 179 179
6.36990023 -0.23999999 0.22160000 161 161 161
6.38590002 -0.25639999 0.22210000 181 181 181
6.39750004 -0.27250001 0.22260000 180 180 180
6.41979980 -0.28909999 0.22340000 186 186 186
6.44750023 -0.30660000 0.22440000 160 160 160
6.50409985 -0.32480001 0.22640000 158 158 158
6.47629976 0.04280000 0.22210000 152 152 152
6.42869997 0.02720000 0.22050001 175 175 175
6.39919996 0.01130000 0.21940000 180 180 180
6.38189983 -0.00460000 0.21879999 167 167 167
6.36740017 -0.02010000 0.21840000 195 195 195
6.35909986 -0.03580000 0.21810000 178 178 178
6.35270023 -0.05180000 0.21789999 171 171 171
6.34800005 -0.06680000 0.21770000 182 182 182
6.34289980 -0.08240000 0.21750000 189 189 189
6.34289980 -0.09830000 0.21750000 195 195 195
6.34170008 -0.11350000 0.21750000 201 201 201
6.36929989 -0.02040000 0.20570000 202 202 202
6.36000013 -0.03610000 0.20540000 182 182 182
6.35279989 -0.05150000 0.20520000 172 172 172
6.34619999 -0.06720000 0.20500000 176 176 176
6.34180021 -0.08250000 0.20479999 195 195 195
6.34420013 -0.09840000 0.20490000 191 191 191
6.34270000 -0.11440000 0.20490000 206 206 206
6.33879995 -0.12980001 0.20479999 194 194 194
6.33920002 -0.14540000 0.20479999 201 201 201
6.34009981 -0.16090000 0.20479999 179 179 179
6.34499979 -0.17630000 0.20500000 208 208 208
6.34819984 -0.19210000 0.20510000 183 183 183
6.35270023 -0.20819999 0.20530000 181 181 181
6.36119986 -0.22390001 0.20559999 179 179 179
6.37039995 -0.23999999 0.20590000 192 192 192
6.38670015 -0.25650001 0.20640001 182 182 182
6.39720011 -0.27250001 0.20680000 169 169 169
6.41890001 -0.28909999 0.20750000 185 185 185
6.44810009 -0.30669999 0.20850000 170 170 170
6.50790024 -0.32499999 0.21040000 161 161 161
6.47329998 0.04280000 0.20610000 156 156 156
6.42889977 0.02720000 0.20469999 163 163 163
6.39779997 0.01130000 0.20370001 181 181 181
6.38219976 -0.00460000 0.20320000 177 177 177
6.37010002 -0.02010000 0.20280001 193 193 193
6.35890007 -0.03570000 0.20250000 190 190 190
6.35139990 -0.05180000 0.20220000 191 191 191
6.34569979 -0.06680000 0.20209999 177 177 177
6.34229994 -0.08240000 0.20200001 192 192 192
6.34170008 -0.09830000 0.20190001 192 192 192
6.34250021 -0.11350000 0.20200001 205 205 205
6.36819983 -0.02040000 0.19000000 185 185 185
6.35890007 -0.03610000 0.18970001 190 190 190
6.35220003 -0.05150000 0.18950000 199 199 199
6.34639978 -0.06720000 0.18930000 181 181 181
6.34399986 -0.08260000 0.18930000 199 199 199
6.34189987 -0.09840000 0.18920000 196 196 196
6.34119987 -0.11430000 0.18920000 202 202 202
6.34100008 -0.12989999 0.18920000 206 206 206
6.34009981 -0.14540000 0.18920000 198 198 198
6.34289980 -0.16100000 0.18930000 186 186 186
6.34619999 -0.17640001 0.18940000 203 203 203
6.34819984 -0.19210000 0.18950000 192 192 192
6.35200024 -0.20819999 0.18960001 181 181 181
6.36199999 -0.22390001 0.18990000 184 184 184
6.37120008 -0.24010000 0.19020000 188 188 188
6.38730001 -0.25650001 0.19069999 183 183 183
6.39779997 -0.27250001 0.19100000 174 174 174
6.42100000 -0.28920001 0.19180000 182 182 182
6.45079994 -0.30680001 0.19270000 173 173 173
6.50899982 -0.32510000 0.19440000 140 140 140
6.47170019 0.04280000 0.19020000 160 160 160
6.42420006 0.02720000 0.18880001 163 163 163
6.39820004 0.01130000 0.18799999 189 189 189
6.37939978 -0.00460000 0.18750000 167 167 167
6.36880016 -0.02010000 0.18719999 187 187 187
6.35760021 -0.03570000 0.18690000 183 183 183
6.35290003 -0.05180000 0.18670000 205 205 205
6.34569979 -0.06680000 0.18650000 176 176 176
6.34420013 -0.08240000 0.18650000 210 210 210
6.34140015 -0.09830000 0.18640000 197 197 197
6.34329987 -0.11350000 0.18650000 196 196 196
6.36990023 -0.02040000 0.17440000 197 197 197
6.35860014 -0.03610000 0.17399999 182 182 182
6.35279989 -0.05150000 0.17389999 182 182 182
6.34590006 -0.06730000 0.17370000 183 183 183
6.34490013 -0.08260000 0.17370000 200 200 200
6.34100008 -0.09840000 0.17360000 196 196 196
6.34310007 -0.11440000 0.17360000 205 205 205
6.33960009 -0.12989999 0.17360000 198 198 198
6.34200001 -0.14540000 0.17360000 217 217 217
6.34100008 -0.16100000 0.17360000 182 182 182
6.34619999 -0.17640001 0.17380001 202 202 202
6.34819984 -0.19210000 0.17380001 175 175 175
6.35370016 -0.20819999 0.17399999 173 173 173
6.36289978 -0.22400001 0.17430000 180 180 180
6.37239981 -0.24010000 0.17450000 177 177 177
6.38679981 -0.25650001 0.17500000 180 180 180
6.39890003 -0.27260000 0.17530000 175 175 175
6.42199993 -0.28920001 0.17600000 185 185 185
6.45249987 -0.30689999 0.17680000 172 172 172
6.51280022 -0.32530001 0.17850000 139 139 139
6.46890020 0.04280000 0.17430000 157 157 157
6.42010021 0.02720000 0.17299999 155 155 155
6.39330006 0.01130000 0.17219999 167 167 167
6.37750006 -0.00460000 0.17180000 198 198 198
6.36740017 -0.02010000 0.17150000 203 203 203
6.35720015 -0.03570000 0.17129999 177 177 177
6.35459995 -0.05180000 0.17120001 187 187 187
6.34840012 -0.06680000 0.17100000 181 181 181
6.34420013 -0.08240000 0.17090000 208 208 208
6.34320021 -0.09830000 0.17090000 190 190 190
6.34180021 -0.11350000 0.17090000 204 204 204
6.36889982 -0.02040000 0.15860000 199 199 199
6.35799980 -0.03620000 0.15840000 176 176 176
6.35179996 -0.05150000 0.15820000 183 183 183
6.34520006 -0.06730000 0.15809999 190 190 190
6.34509993 -0.08260000 0.15809999 188 188 188
6.33830023 -0.09840000 0.15790001 177 177 177
6.34219980 -0.11440000 0.15800001 201 201 201
6.33799982 -0.12980001 0.15790001 179 179 179
6.34089994 -0.14540000 0.15800001 211 211 211
6.34100008 -0.16100000 0.15800001 174 174 174
6.34590006 -0.17640001 0.15809999 201 201 201
6.34859991 -0.19210000 0.15820000 178 178 178
6.35430002 -0.20829999 0.15840000 165 165 165
6.36390018 -0.22400001 0.15860000 186 186 186
6.37400007 -0.24020000 0.15889999 175 175 175
6.38800001 -0.25659999 0.15930000 183 183 183
6.40250015 -0.27270001 0.15960000 171 171 171
6.42210007 -0.28920001 0.16010000 188 188 188
6.45190001 -0.30689999 0.16090000 173 173 173
6.52299976 -0.32580000 0.16270000 143 143 143
6.46250010 0.04270000 0.15830000 159 159 159
6.42150021 0.02720000 0.15730000 175 175 175
6.39260006 0.01130000 0.15660000 166 166 166
6.37900019 -0.00460000 0.15620001 182 182 182
6.36649990 -0.02000000 0.15590000 194 194 194
6.35669994 -0.03570000 0.15570000 172 172 172
6.35050011 -0.05170000 0.15549999 176 176 176
6.34549999 -0.06670000 0.15539999 188 188 188
6.34369993 -0.08240000 0.15539999 197 197 197
6.34040022 -0.09820000 0.15530001 180 180 180
6.34079981 -0.11340000 0.15530001 197 197 197
6.36840010 -0.02040000 0.14300001 205 205 205
6.35909986 -0.03620000 0.14280000 183 183 183
6.35129976 -0.05150000 0.14260000 181 181 181
6.34609985 -0.06730000 0.14250000 186 186 186
6.34429979 -0.08260000 0.14240000 206 206 206
6.34240007 -0.09840000 0.14240000 181 181 181
6.34089994 -0.11440000 0.14240000 190 190 190
6.34250021 -0.13000000 0.14240000 207 207 207
6.34259987 -0.14550000 0.14240000 211 211 211
6.34329987 -0.16100000 0.14240000 186 186 186
6.34660006 -0.17640001 0.14250000 194 194 194
6.34989977 -0.19220001 0.14260000 190 190 190
6.35650015 -0.20829999 0.14280000 164 164 164
6.36499977 -0.22409999 0.14300001 182 182 182
6.37459993 -0.24020000 0.14320000 197 197 197
6.38640022 -0.25650001 0.14350000 179 179 179
6.40310001 -0.27280000 0.14390001 180 180 180
6.42320013 -0.28929999 0.14430000 187 187 187
6.45359993 -0.30700001 0.14500000 173 173 173
6.45480013 0.04270000 0.14229999 174 174 174
6.42040014 0.02720000 0.14150000 182 182 182
6.39209986 0.01140000 0.14090000 171 171 171
6.37639999 -0.00450000 0.14049999 175 175 175
6.36730003 -0.02000000 0.14030001 202 202 202
6.35900021 -0.03570000 0.14020000 173 173 173
6.34929991 -0.05170000 0.13990000 180 180 180
6.34649992 -0.06670000 0.13990000 188 188 188
6.34490013 -0.08240000 0.13990000 214 214 214
6.34280014 -0.09830000 0.13980000 185 185 185
6.34159994 -0.11340000 0.13980000 189 189 189
6.36689997 -0.02040000 0.12729999 192 192 192
6.35760021 -0.03620000 0.12710001 167 167 167
6.35109997 -0.05150000 0.12690000 189 189 189
6.34649992 -0.06730000 0.12690000 185 185 185
6.34119987 -0.08260000 0.12670000 186 186 186
6.34539986 -0.09850000 0.12680000 207 207 207
6.34159994 -0.11440000 0.12680000 201 201 201
6.34229994 -0.13000000 0.12680000 200 200 200
6.33900023 -0.14540000 0.12670000 187 187 187
6.34509993 -0.16110000 0.12690000 194 194 194
6.34709978 -0.17640001 0.12690000 209 209 209
6.34980011 -0.19220001 0.12700000 191 191 191
6.35449982 -0.20829999 0.12710001 171 171 171
6.36460018 -0.22409999 0.12729999 178 178 178
6.37449980 -0.24030000 0.12750000 176 176 176
6.38579988 -0.25650001 0.12770000 174 174 174
6.40339994 -0.27280000 0.12809999 176 176 176
6.42399979 -0.28929999 0.12850000 183 183 183
6.45699978 -0.30720001 0.12920000 168 168 168
6.45030022 0.04270000 0.12639999 171 171 171
6.42000008 0.02720000 0.12580000 178 178 178
6.39099979 0.01140000 0.12520000 172 172 172
6.37720013 -0.00450000 0.12490000 177 177 177
6.36740017 -0.02000000 0.12470000 185 185 185
6.35699987 -0.03570000 0.12450000 165 165 165
6.35029984 -0.05170000 0.12440000 184 184 184
6.34639978 -0.06670000 0.12430000 183 183 183
6.34340000 -0.08240000 0.12430000 189 189 189
6.34329987 -0.09820000 0.12430000 204 204 204
6.34170008 -0.11340000 0.12430000 199 199 199
6.36630011 -0.02040000 0.11160000 182 182 182
6.35690022 -0.03620000 0.11140000 177 177 177
6.35059977 -0.05150000 0.11130000 178 178 178
6.34619999 -0.06730000 0.11120000 180 180 180
6.34340000 -0.08260000 0.11120000 184 184 184
6.34380007 -0.09850000 0.11120000 206 206 206
6.33990002 -0.11440000 0.11110000 186 186 186
6.34009981 -0.12989999 0.11110000 192 192 192
6.34200001 -0.14550000 0.11120000 202 202 202
6.34289980 -0.16110000 0.11120000 189 189 189
6.34859991 -0.17649999 0.11130000 211 211 211
6.34940004 -0.19220001 0.11130000 184 184 184
6.35669994 -0.20840000 0.11150000 177 177 177
6.36240005 -0.22400001 0.11160000 174 174 174
6.37340021 -0.24020000 0.11180000 160 160 160
6.38810015 -0.25659999 0.11200000 176 176 176
6.40189981 -0.27280000 0.11230000 167 167 167
6.42519999 -0.28940001 0.11270000 175 175 175
6.45669985 -0.30720001 0.11330000 168 168 168
6.44729996 0.04270000 0.11050000 158 158 158
6.41830015 0.02720000 0.11000000 187 187 187
6.38990021 0.01140000 0.10950000 168 168 168
6.37589979 -0.00450000 0.10930000 173 173 173
6.36490011 -0.02000000 0.10910000 174 174 174
6.35750008 -0.03560000 0.10900000 175 175 175
6.34950018 -0.05170000 0.10880000 184 184 184
6.34740019 -0.06670000 0.10880000 183 183 183
6.34140015 -0.08230000 0.10870000 187 187 187
6.34270000 -0.09820000 0.10870000 205 205 205
6.34060001 -0.11340000 0.10870000 184 184 184
6.36740017 -0.02050000 0.09590000 191 191 191
6.35690022 -0.03620000 0.09580000 173 173 173
6.35039997 -0.05150000 0.09570000 180 180 180
6.34530020 -0.06730000 0.09560000 197 197 197
6.34280014 -0.08270000 0.09560000 186 186 186
6.34100008 -0.09850000 0.09550000 186 186 186
6.33890009 -0.11440000 0.09550000 185 185 185
6.33920002 -0.12989999 0.09550000 183 183 183
6.34229994 -0.14550000 0.09560000 205 205 205
6.34280014 -0.16110000 0.09560000 183 183 183
6.34609985 -0.17640001 0.09560000 181 181 181
6.34789991 -0.19210000 0.09570000 167 167 167
6.35419989 -0.20829999 0.09580000 170 170 170
6.36269999 -0.22400001 0.09590000 169 169 169
6.37699986 -0.24040000 0.09610000 183 183 183
6.38829994 -0.25659999 0.09630000 174 174 174
6.40339994 -0.27280000 0.09660000 165 165 165
6.42770004 -0.28950000 0.09690000 172 172 172
6.45699978 -0.30720001 0.09740000 177 177 177
6.44780016 0.04270000 0.09470000 162 162 162
6.41599989 0.02720000 0.09430000 178 178 178
6.39150000 0.01140000 0.09390000 176 176 176
6.37349987 -0.00450000 0.09360000 162 162 162
6.36630011 -0.02000000 0.09350000 183 183 183
6.35540009 -0.03560000 0.09340000 177 177 177
6.34910011 -0.05170000 0.09330000 170 170 170
6.34590006 -0.06670000 0.09320000 200 200 200
6.34079981 -0.08230000 0.09320000 186 186 186
6.34119987 -0.09820000 0.09320000 195 195 195
6.33939981 -0.11340000 0.09320000 182 182 182
6.36579990 -0.02050000 0.08020000 202 202 202
6.35739994 -0.03620000 0.08010000 170 170 170
6.34889984 -0.05150000 0.08000000 174 174 174
6.34549999 -0.06730000 0.08000000 189 189 189
6.34019995 -0.08260000 0.07990000 174 174 174
6.33680010 -0.09840000 0.07990000 166 166 166
6.33809996 -0.11440000 0.07990000 170 170 170
6.34140015 -0.14550000 0.07990000 187 187 187
6.34320021 -0.16110000 0.08000000 175 175 175
6.34549999 -0.17640001 0.08000000 168 168 168
6.35129976 -0.19230001 0.08010000 175 175 175
6.35550022 -0.20840000 0.08010000 159 159 159
6.36289978 -0.22409999 0.08020000 172 172 172
6.37690020 -0.24040000 0.08040000 174 174 174
6.38859987 -0.25670001 0.08060000 174 174 174
6.40460014 -0.27289999 0.08080000 165 165 165
6.42630005 -0.28950000 0.08110000 166 166 166
6.45769978 -0.30730000 0.08150000 173 173 173
6.53090000 0.06010000 0.08000000 118 118 118
6.44759989 0.04270000 0.07890000 160 160 160
6.41379976 0.02720000 0.07850000 172 172 172
6.38980007 0.01140000 0.07820000 179 179 179
6.36560011 -0.02000000 0.07790000 207 207 207
6.35589981 -0.03560000 0.07780000 169 169 169
6.34919977 -0.05160000 0.07770000 178 178 178
6.34569979 -0.06670000 0.07770000 194 194 194
6.34089994 -0.08230000 0.07760000 176 176 176
6.33850002 -0.09810000 0.07760000 167 167 167
6.33820009 -0.11330000 0.07760000 171 171 171
6.36600018 -0.02050000 0.06460000 199 199 199
6.35419989 -0.03620000 0.06450000 165 165 165
6.34999990 -0.05160000 0.06440000 188 188 188
6.34469986 -0.06730000 0.06440000 188 188 188
6.34170008 -0.08270000 0.06430000 181 181 181
6.34110022 -0.09850000 0.06430000 181 181 181
6.33920002 -0.11440000 0.06430000 199 199 199
6.33890009 -0.13000000 0.06430000 188 188 188
6.34210014 -0.14550000 0.06430000 179 179 179
6.34619999 -0.16120000 0.06440000 201 201 201
6.34469986 -0.17640001 0.06440000 178 178 178
6.35029984 -0.19230001 0.06440000 186 186 186
6.35489988 -0.20840000 0.06450000 165 165 165
6.36049986 -0.22400001 0.06460000 159 159 159
6.37790012 -0.24040000 0.06470000 180 180 180
6.38759995 -0.25670001 0.06480000 162 162 162
6.40339994 -0.27289999 0.06500000 163 163 163
6.42729998 -0.28960001 0.06530000 170 170 170
6.45870018 -0.30730000 0.06560000 179 179 179
6.55100012 0.06030000 0.06420000 149 149 149
6.44519997 0.04270000 0.06310000 162 162 162
6.41219997 0.02730000 0.06280000 177 177 177
6.38859987 0.01140000 0.06260000 186 186 186
6.37430000 -0.00450000 0.06240000 166 166 166
6.36730003 -0.02000000 0.06240000 205 205 205
6.35360003 -0.03560000 0.06220000 163 163 163
6.35090017 -0.05160000 0.06220000 174 174 174
6.34740019 -0.06670000 0.06220000 181 181 181
6.33960009 -0.08230000 0.06210000 177 177 177
6.34079981 -0.09820000 0.06210000 180 180 180
6.33920002 -0.11330000 0.06210000 197 197 197
6.36530018 -0.02050000 0.04890000 191 191 191
6.35640001 -0.03620000 0.04880000 190 190 190
6.35179996 -0.05160000 0.04880000 184 184 184
6.34639978 -0.06740000 0.04880000 188 188 188
6.34180021 -0.08270000 0.04870000 201 201 201
6.34060001 -0.09850000 0.04870000 182 182 182
6.33979988 -0.11440000 0.04870000 182 182 182
6.34019995 -0.13000000 0.04870000 206 206 206
6.34100008 -0.14550000 0.04870000 166 166 166
6.34380007 -0.16110000 0.04880000 177 177 177
6.34619999 -0.17649999 0.04880000 165 165 165
6.35069990 -0.19230001 0.04880000 166 166 166
6.35459995 -0.20840000 0.04880000 161 161 161
6.36369991 -0.22409999 0.04890000 160 160 160
6.37830019 -0.24050000 0.04900000 184 184 184
6.38969994 -0.25680000 0.04910000 170 170 170
6.40539980 -0.27300000 0.04930000 170 170 170
6.43090010 -0.28970000 0.04950000 166 166 166
6.45940018 -0.30739999 0.04970000 168 168 168
6.53669977 0.06020000 0.04800000 130 130 130
6.44439983 0.04270000 0.04730000 156 156 156
6.41330004 0.02730000 0.04710000 163 163 163
6.38719988 0.01140000 0.04690000 196 196 196
6.37440014 -0.00450000 0.04680000 194 194 194
6.36469984 -0.01990000 0.04680000 194 194 194
6.35790014 -0.03560000 0.04670000 186 186 186
6.35059977 -0.05160000 0.04670000 181 181 181
6.34730005 -0.06660000 0.04660000 184 184 184
6.34119987 -0.08230000 0.04660000 203 203 203
6.34009981 -0.09810000 0.04660000 181 181 181
6.34089994 -0.11330000 0.04660000 180 180 180
6.36670017 -0.02050000 0.03320000 204 204 204
6.35769987 -0.03630000 0.03320000 181 181 181
6.35010004 -0.05160000 0.03320000 191 191 191
6.34569979 -0.06740000 0.03310000 192 192 192
6.34320021 -0.08270000 0.03310000 197 197 197
6.34240007 -0.09850000 0.03310000 202 202 202
6.34170008 -0.11450000 0.03310000 202 202 202
6.34070015 -0.13000000 0.03310000 201 201 201
6.34000015 -0.14550000 0.03310000 175 175 175
6.34499979 -0.16120000 0.03310000 184 184 184
6.34829998 -0.17659999 0.03320000 183 183 183
6.35050011 -0.19230001 0.03320000 169 169 169
6.35550022 -0.20840000 0.03320000 182 182 182
6.36579990 -0.22420000 0.03330000 171 171 171
6.37830019 -0.24050000 0.03330000 198 198 198
6.39130020 -0.25680000 0.03340000 173 173 173
6.40679979 -0.27300000 0.03350000 159 159 159
6.42980003 -0.28970000 0.03360000 166 166 166
6.46089983 -0.30750000 0.03380000 168 168 168
6.52390003 0.06010000 0.03200000 156 156 156
6.44199991 0.04270000 0.03160000 158 158 158
6.41120005 0.02730000 0.03140000 165 165 165
6.38899994 0.01150000 0.03130000 195 195 195
6.37419987 -0.00440000 0.03120000 204 204 204
6.36649990 -0.01990000 0.03120000 205 205 205
6.35839987 -0.03560000 0.03110000 179 179 179
6.35139990 -0.05160000 0.03110000 185 185 185
6.34560013 -0.06660000 0.03110000 192 192 192
6.34320021 -0.08230000 0.03110000 197 197 197
6.34270000 -0.09820000 0.03110000 203 203 203
6.34219980 -0.11340000 0.03110000 201 201 201
6.36579990 -0.02050000 0.01760000 189 189 189
6.35589981 -0.03630000 0.01760000 186 186 186
6.35120010 -0.05160000 0.01750000 192 192 192
6.34719992 -0.06740000 0.01750000 190 190 190
6.34499979 -0.08280000 0.01750000 191 191 191
6.34140015 -0.09850000 0.01750000 195 195 195
6.34289980 -0.11450000 0.01750000 208 208 208
6.34229994 -0.13010000 0.01750000 211 211 211
6.34000015 -0.14550000 0.01750000 184 184 184
6.34420013 -0.16120000 0.01750000 194 194 194
6.34740019 -0.17649999 0.01750000 189 189 189
6.35349989 -0.19239999 0.01760000 173 173 173
6.35720015 -0.20850000 0.01760000 181 181 181
6.36399984 -0.22420000 0.01760000 161 161 161
6.37809992 -0.24050000 0.01760000 186 186 186
6.39300013 -0.25690001 0.01770000 159 159 159
6.40509987 -0.27300000 0.01770000 163 163 163
6.42810011 -0.28960001 0.01780000 164 164 164
6.46330023 -0.30759999 0.01790000 165 165 165
6.50659990 0.06000000 0.01590000 156 156 156
6.43870020 0.04270000 0.01580000 177 177 177
6.40910006 0.02730000 0.01570000 166 166 166
6.38539982 0.01150000 0.01560000 178 178 178
6.37550020 -0.00440000 0.01560000 208 208 208
6.36590004 -0.01990000 0.01560000 184 184 184
6.35510015 -0.03550000 0.01560000 184 184 184
6.35090017 -0.05160000 0.01560000 188 188 188
6.34679985 -0.06660000 0.01550000 189 189 189
6.34320021 -0.08230000 0.01550000 191 191 191
6.34180021 -0.09810000 0.01550000 195 195 195
6.34140015 -0.11330000 0.01550000 206 206 206
6.36269999 -0.02050000 0.00190000 173 173 173
6.35540009 -0.03630000 0.00190000 182 182 182
6.35129976 -0.05160000 0.00190000 185 185 185
6.34679985 -0.06740000 0.00190000 197 197 197
6.34259987 -0.08270000 0.00190000 195 195 195
6.34259987 -0.09860000 0.00190000 194 194 194
6.34280014 -0.11450000 0.00190000 200 200 200
6.34009981 -0.13000000 0.00190000 206 206 206
6.34250021 -0.14560001 0.00190000 197 197 197
6.34619999 -0.16120000 0.00190000 203 203 203
6.34859991 -0.17659999 0.00190000 194 194 194
6.35239983 -0.19239999 0.00190000 184 184 184
6.35690022 -0.20850000 0.00190000 186 186 186
6.36689997 -0.22430000 0.00190000 168 168 168
6.37930012 -0.24050000 0.00190000 187 187 187
6.39209986 -0.25690001 0.00190000 186 186 186
6.40789986 -0.27309999 0.00190000 173 173 173
6.42819977 -0.28970000 0.00190000 172 172 172
6.47020006 -0.30790001 0.00200000 168 168 168
6.49459982 0.05990000 0.00000000 153 153 153
6.43599987 0.04270000 0.00000000 175 175 175
6.40889978 0.02730000 0.00000000 163 163 163
6.38479996 0.01150000 0.00000000 172 172 172
6.37500000 -0.00440000 0.00000000 203 203 203
6.36229992 -0.01990000 0.00000000 175 175 175
6.35389996 -0.03550000 0.00000000 182 182 182
6.34849977 -0.05160000 0.00000000 185 185 185
6.34660006 -0.06660000 0.00000000 199 199 199
6.34280014 -0.08220000 0.00000000 193 193 193
6.34040022 -0.09810000 0.00000000 194 194 194
6.34049988 -0.11330000 0.00000000 200 200 200
6.36469984 -0.02050000 -0.01370000 195 195 195
6.35510015 -0.03630000 -0.01370000 180 180 180
6.35039997 -0.05160000 -0.01370000 191 191 191
6.34800005 -0.06750000 -0.01370000 207 207 207
6.34469986 -0.08280000 -0.01370000 196 196 196
6.34450006 -0.09860000 -0.01370000 209 209 209
6.34200001 -0.11450000 -0.01370000 195 195 195
6.34200001 -0.13010000 -0.01370000 205 205 205
6.34270000 -0.14560001 -0.01370000 203 203 203
6.34399986 -0.16120000 -0.01370000 184 184 184
6.34910011 -0.17659999 -0.01370000 186 186 186
6.35440016 -0.19239999 -0.01370000 185 185 185
6.35860014 -0.20860000 -0.01370000 183 183 183
6.36549997 -0.22420000 -0.01370000 173 173 173
6.37960005 -0.24060000 -0.01380000 174 174 174
6.39130020 -0.25690001 -0.01380000 182 182 182
6.40939999 -0.27320001 -0.01380000 171 171 171
6.43020010 -0.28979999 -0.01390000 171 171 171
6.46899986 -0.30790001 -0.01400000 171 171 171
6.48850012 0.05980000 -0.01590000 154 154 154
6.43499994 0.04270000 -0.01570000 165 165 165
6.40670013 0.02730000 -0.01570000 166 166 166
6.38479996 0.01150000 -0.01560000 172 172 172
6.37190008 -0.00440000 -0.01560000 193 193 193
6.36310005 -0.01990000 -0.01560000 197 197 197
6.35550022 -0.03550000 -0.01560000 181 181 181
6.34980011 -0.05160000 -0.01550000 194 194 194
6.34770012 -0.06660000 -0.01550000 207 207 207
6.34480000 -0.08220000 -0.01550000 197 197 197
6.34399986 -0.09810000 -0.01550000 206 206 206
6.34110022 -0.11330000 -0.01550000 195 195 195
6.36310005 -0.02060000 -0.02940000 183 183 183
6.35599995 -0.03630000 -0.02940000 178 178 178
6.34829998 -0.05160000 -0.02930000 189 189 189
6.34719992 -0.06750000 -0.02930000 202 202 202
6.34539986 -0.08280000 -0.02930000 202 202 202
6.34399986 -0.09860000 -0.02930000 207 207 207
6.34159994 -0.11450000 -0.02930000 198 198 198
6.34100008 -0.13010000 -0.02930000 205 205 205
6.34030008 -0.14560001 -0.02930000 187 187 187
6.34410000 -0.16120000 -0.02930000 191 191 191
6.34800005 -0.17659999 -0.02930000 197 197 197
6.35349989 -0.19239999 -0.02940000 177 177 177
6.35869980 -0.20860000 -0.02940000 182 182 182
6.36600018 -0.22430000 -0.02940000 182 182 182
6.38199997 -0.24070001 -0.02950000 181 181 181
6.39340019 -0.25700000 -0.02960000 193 193 193
6.41009998 -0.27320001 -0.02960000 178 178 178
6.43240023 -0.28990000 -0.02970000 174 174 174
6.47119999 -0.30800000 -0.02990000 165 165 165
6.48509979 0.05980000 -0.03180000 161 161 161
6.43289995 0.04270000 -0.03150000 164 164 164
6.40509987 0.02730000 -0.03140000 165 165 165
6.38290024 0.01150000 -0.03130000 178 178 178
6.37099981 -0.00440000 -0.03120000 187 187 187
6.36199999 -0.01990000 -0.03110000 181 181 181
6.35340023 -0.03550000 -0.03110000 175 175 175
6.34919977 -0.05150000 -0.03110000 191 191 191
6.34829998 -0.06660000 -0.03110000 200 200 200
6.34539986 -0.08220000 -0.03110000 199 199 199
6.34450006 -0.09810000 -0.03110000 205 205 205
6.34089994 -0.11330000 -0.03100000 198 198 198
6.35979986 -0.02060000 -0.04500000 174 174 174
6.35430002 -0.03630000 -0.04500000 181 181 181
6.34759998 -0.05170000 -0.04490000 183 183 183
6.34759998 -0.06750000 -0.04490000 198 198 198
6.34200001 -0.08280000 -0.04490000 187 187 187
6.33990002 -0.09860000 -0.04490000 189 189 189
6.33970022 -0.11450000 -0.04490000 189 189 189
6.33930016 -0.13010000 -0.04490000 190 190 190
6.34270000 -0.14569999 -0.04490000 184 184 184
6.34240007 -0.16120000 -0.04490000 187 187 187
6.34829998 -0.17659999 -0.04500000 190 190 190
6.35099983 -0.19239999 -0.04500000 186 186 186
6.35990000 -0.20860000 -0.04500000 175 175 175
6.36940002 -0.22440000 -0.04510000 187 187 187
6.38070011 -0.24060000 -0.04520000 177 177 177
6.39429998 -0.25700000 -0.04530000 173 173 173
6.40999985 -0.27329999 -0.04540000 176 176 176
6.43499994 -0.28999999 -0.04560000 166 166 166
6.47389984 -0.30809999 -0.04590000 180 180 180
6.48029995 0.05980000 -0.04760000 159 159 159
6.43289995 0.04270000 -0.04720000 160 160 160
6.40310001 0.02730000 -0.04700000 161 161 161
6.38240004 0.01150000 -0.04690000 182 182 182
6.37249994 -0.00440000 -0.04680000 185 185 185
6.36119986 -0.01980000 -0.04670000 173 173 173
6.35580015 -0.03550000 -0.04670000 183 183 183
6.34899998 -0.05150000 -0.04660000 180 180 180
6.34709978 -0.06660000 -0.04660000 198 198 198
6.34350014 -0.08220000 -0.04660000 187 187 187
6.34100008 -0.09810000 -0.04660000 189 189 189
6.33890009 -0.11320000 -0.04660000 187 187 187
6.36040020 -0.02060000 -0.06070000 172 172 172
6.35349989 -0.03630000 -0.06060000 176 176 176
6.34870005 -0.05170000 -0.06060000 184 184 184
6.34719992 -0.06750000 -0.06060000 191 191 191
6.34240007 -0.08280000 -0.06050000 192 192 192
6.34049988 -0.09860000 -0.06050000 193 193 193
6.33790016 -0.11450000 -0.06050000 189 189 189
6.33760023 -0.13000000 -0.06050000 170 170 170
6.33909988 -0.14560001 -0.06050000 180 180 180
6.34439993 -0.16130000 -0.06050000 180 180 180
6.34569979 -0.17659999 -0.06060000 174 174 174
6.35179996 -0.19239999 -0.06060000 175 175 175
6.36009979 -0.20860000 -0.06070000 174 174 174
6.36859989 -0.22440000 -0.06080000 195 195 195
6.38070011 -0.24070001 -0.06090000 171 171 171
6.39459991 -0.25700000 -0.06110000 186 186 186
6.41109991 -0.27329999 -0.06120000 166 166 166
6.43400002 -0.28999999 -0.06140000 160 160 160
6.47510004 -0.30820000 -0.06180000 170 170 170
6.47760010 0.05980000 -0.06340000 158 158 158
6.43109989 0.04270000 -0.06300000 158 158 158
6.40170002 0.02730000 -0.06270000 169 169 169
6.38350010 0.01150000 -0.06250000 189 189 189
6.37099981 -0.00440000 -0.06240000 194 194 194
6.35979986 -0.01980000 -0.06230000 172 172 172
6.35260010 -0.03550000 -0.06220000 178 178 178
6.34800005 -0.05150000 -0.06220000 183 183 183
6.34600019 -0.06650000 -0.06220000 190 190 190
6.34119987 -0.08220000 -0.06210000 190 190 190
6.34000015 -0.09800000 -0.06210000 191 191 191
6.33920002 -0.11320000 -0.06210000 187 187 187
6.35909986 -0.02060000 -0.07630000 175 175 175
6.35319996 -0.03630000 -0.07620000 175 175 175
6.34770012 -0.05170000 -0.07620000 195 195 195
6.34399986 -0.06750000 -0.07610000 192 192 192
6.34310007 -0.08280000 -0.07610000 190 190 190
6.33949995 -0.09860000 -0.07610000 190 190 190
6.33830023 -0.11450000 -0.07610000 177 177 177
6.33850002 -0.13010000 -0.07610000 184 184 184
6.33900023 -0.14560001 -0.07610000 182 182 182
6.34450006 -0.16130000 -0.07620000 180 180 180
6.34689999 -0.17659999 -0.07620000 189 189 189
6.35370016 -0.19250000 -0.07630000 212 212 212
6.35920000 -0.20860000 -0.07640000 178 178 178
6.36920023 -0.22440000 -0.07650000 172 172 172
6.38100004 -0.24070001 -0.07660000 175 175 175
6.39449978 -0.25709999 -0.07680000 188 188 188
6.41389990 -0.27340001 -0.07700000 179 179 179
6.43879986 -0.29020000 -0.07730000 155 155 155
6.47770023 -0.30840001 -0.07780000 174 174 174
6.47650003 0.05980000 -0.07930000 157 157 157
6.42670012 0.04270000 -0.07870000 164 164 164
6.40259981 0.02730000 -0.07840000 171 171 171
6.38259983 0.01150000 -0.07810000 179 179 179
6.37050009 -0.00430000 -0.07800000 191 191 191
6.35830021 -0.01980000 -0.07780000 172 172 172
6.35400009 -0.03550000 -0.07780000 174 174 174
6.34759998 -0.05150000 -0.07770000 191 191 191
6.34509993 -0.06650000 -0.07770000 189 189 189
6.34259987 -0.08220000 -0.07770000 188 188 188
6.34089994 -0.09800000 -0.07760000 190 190 190
6.33830023 -0.11320000 -0.07760000 175 175 175
6.35739994 -0.02060000 -0.09190000 174 174 174
6.35220003 -0.03640000 -0.09190000 182 182 182
6.34919977 -0.05170000 -0.09180000 196 196 196
6.34410000 -0.06750000 -0.09170000 189 189 189
6.34299994 -0.08280000 -0.09170000 195 195 195
6.34270000 -0.09870000 -0.09170000 199 199 199
6.33979988 -0.11460000 -0.09170000 184 184 184
6.34110022 -0.13010000 -0.09170000 195 195 195
6.34380007 -0.14569999 -0.09180000 196 196 196
6.34539986 -0.16130000 -0.09180000 201 201 201
6.34969997 -0.17670000 -0.09190000 180 180 180
6.35400009 -0.19250000 -0.09190000 208 208 208
6.36250019 -0.20880000 -0.09210000 177 177 177
6.37060022 -0.22450000 -0.09220000 165 165 165
6.38299990 -0.24079999 -0.09240000 181 181 181
6.39559984 -0.25709999 -0.09260000 187 187 187
6.41340017 -0.27340001 -0.09280000 179 179 179
6.43830013 -0.29020000 -0.09320000 158 158 158
6.47980022 -0.30849999 -0.09380000 169 169 169
6.46920013 0.05970000 -0.09500000 161 161 161
6.42430019 0.04270000 -0.09440000 167 167 167
6.40150023 0.02740000 -0.09400000 164 164 164
6.38170004 0.01160000 -0.09380000 180 180 180
6.36889982 -0.00430000 -0.09360000 180 180 180
6.35760021 -0.01980000 -0.09340000 172 172 172
6.35150003 -0.03540000 -0.09330000 178 178 178
6.34840012 -0.05150000 -0.09330000 187 187 187
6.34490013 -0.06650000 -0.09320000 188 188 188
6.34450006 -0.08220000 -0.09320000 196 196 196
6.34460020 -0.09810000 -0.09320000 199 199 199
6.33909988 -0.11320000 -0.09310000 183 183 183
6.36079979 -0.02060000 -0.10760000 187 187 187
6.35279989 -0.03640000 -0.10750000 190 190 190
6.34660006 -0.05170000 -0.10740000 188 188 188
6.34429979 -0.06750000 -0.10740000 185 185 185
6.34359980 -0.08280000 -0.10740000 197 197 197
6.34189987 -0.09870000 -0.10730000 193 193 193
6.33900023 -0.11460000 -0.10730000 194 194 194
6.34210014 -0.13020000 -0.10730000 203 203 203
6.34340000 -0.14569999 -0.10740000 194 194 194
6.34600019 -0.16130000 -0.10740000 192 192 192
6.35050011 -0.17670000 -0.10750000 195 195 195
6.35300016 -0.19250000 -0.10760000 191 191 191
6.36329985 -0.20880000 -0.10770000 168 168 168
6.37010002 -0.22450000 -0.10790000 170 170 170
6.38170004 -0.24070001 -0.10810000 176 176 176
6.39580011 -0.25709999 -0.10830000 176 176 176
6.41359997 -0.27350000 -0.10860000 181 181 181
6.44070005 -0.29030001 -0.10910000 169 169 169
6.48080015 -0.30849999 -0.10980000 164 164 164
6.46409988 0.05970000 -0.11080000 161 161 161
6.42539978 0.04270000 -0.11010000 170 170 170
6.39610004 0.02730000 -0.10960000 168 168 168
6.38030005 0.01160000 -0.10940000 176 176 176
6.36990023 -0.00430000 -0.10920000 185 185 185
6.35970020 -0.01980000 -0.10900000 186 186 186
6.35260010 -0.03540000 -0.10890000 187 187 187
6.34700012 -0.05150000 -0.10880000 185 185 185
6.34340000 -0.06650000 -0.10870000 183 183 183
6.34460020 -0.08220000 -0.10880000 196 196 196
6.34219980 -0.09800000 -0.10870000 191 191 191
6.33860016 -0.11320000 -0.10870000 192 192 192
6.35930014 -0.02060000 -0.12330000 189 189 189
6.35220003 -0.03640000 -0.12310000 195 195 195
6.34880018 -0.05170000 -0.12310000 199 199 199
6.34429979 -0.06750000 -0.12300000 187 187 187
6.34420013 -0.08290000 -0.12300000 203 203 203
6.34119987 -0.09870000 -0.12290000 198 198 198
6.33990002 -0.11460000 -0.12290000 192 192 192
6.34070015 -0.13020000 -0.12290000 196 196 196
6.34189987 -0.14569999 -0.12300000 180 180 180
6.34569979 -0.16130000 -0.12300000 199 199 199
6.34810019 -0.17670000 -0.12310000 175 175 175
6.35370016 -0.19250000 -0.12320000 182 182 182
6.36110020 -0.20870000 -0.12340000 174 174 174
6.37370014 -0.22460000 -0.12360000 163 163 163
6.38089991 -0.24070001 -0.12380000 162 162 162
6.39489985 -0.25709999 -0.12410000 163 163 163
6.41319990 -0.27350000 -0.12440000 166 166 166
6.43989992 -0.29030001 -0.12500000 175 175 175
6.48640013 -0.30880001 -0.12590000 166 166 166
6.45889997 0.05960000 -0.12650000 159 159 159
6.42019987 0.04270000 -0.12580000 175 175 175
6.39870024 0.02740000 -0.12530001 168 168 168
6.37879992 0.01160000 -0.12500000 177 177 177
6.36929989 -0.00430000 -0.12480000 187 187 187
6.36110020 -0.01980000 -0.12460000 191 191 191
6.35309982 -0.03540000 -0.12450000 194 194 194
6.34840012 -0.05150000 -0.12440000 195 195 195
6.34289980 -0.06640000 -0.12430000 186 186 186
6.34410000 -0.08210000 -0.12430000 201 201 201
6.34159994 -0.09800000 -0.12420000 197 197 197
6.33990002 -0.11320000 -0.12420000 191 191 191
6.35990000 -0.02060000 -0.13890000 198 198 198
6.35169983 -0.03640000 -0.13880000 184 184 184
6.34849977 -0.05170000 -0.13869999 191 191 191
6.34429979 -0.06750000 -0.13860001 183 183 183
6.34250021 -0.08290000 -0.13860001 194 194 194
6.34079981 -0.09870000 -0.13850001 200 200 200
6.33860016 -0.11460000 -0.13850001 198 198 198
6.34210014 -0.13020000 -0.13860001 201 201 201
6.34359980 -0.14579999 -0.13860001 193 193 193
6.34660006 -0.16140001 -0.13869999 186 186 186
6.34959984 -0.17670000 -0.13880000 188 188 188
6.35349989 -0.19250000 -0.13890000 182 182 182
6.36149979 -0.20880000 -0.13900000 182 182 182
6.37029982 -0.22450000 -0.13920000 170 170 170
6.38250017 -0.24079999 -0.13950001 170 170 170
6.39550018 -0.25720000 -0.13980000 160 160 160
6.41660023 -0.27360001 -0.14030001 166 166 166
6.44110012 -0.29040000 -0.14080000 171 171 171
6.48420000 -0.30870000 -0.14180000 170 170 170
6.45730019 0.05960000 -0.14229999 153 153 153
6.41830015 0.04270000 -0.14150000 169 169 169
6.39480019 0.02740000 -0.14090000 168 168 168
6.37799978 0.01160000 -0.14060000 176 176 176
6.36840010 -0.00430000 -0.14040001 187 187 187
6.35850000 -0.01970000 -0.14010000 196 196 196
6.35190010 -0.03540000 -0.14000000 183 183 183
6.34829998 -0.05140000 -0.13990000 190 190 190
6.34420013 -0.06640000 -0.13980000 182 182 182
6.34289980 -0.08210000 -0.13980000 193 193 193
6.34130001 -0.09800000 -0.13980000 193 193 193
6.33949995 -0.11310000 -0.13970000 195 195 195
6.35939980 -0.02070000 -0.15459999 208 208 208
6.35029984 -0.03640000 -0.15440001 191 191 191
6.34600019 -0.05170000 -0.15430000 190 190 190
6.34390020 -0.06750000 -0.15420000 193 193 193
6.34439993 -0.08290000 -0.15420000 186 186 186
6.34240007 -0.09870000 -0.15420000 206 206 206
6.33879995 -0.11460000 -0.15410000 198 198 198
6.34089994 -0.13020000 -0.15420000 198 198 198
6.34180021 -0.14569999 -0.15420000 188 188 188
6.34700012 -0.16140001 -0.15430000 202 202 202
6.34950018 -0.17680000 -0.15440001 184 184 184
6.35300016 -0.19250000 -0.15449999 184 184 184
6.36259985 -0.20880000 -0.15470000 189 189 189
6.37139988 -0.22460000 -0.15500000 166 166 166
6.38430023 -0.24089999 -0.15530001 170 170 170
6.39589977 -0.25720000 -0.15560000 164 164 164
6.41450024 -0.27350000 -0.15610000 173 173 173
6.44189978 -0.29040000 -0.15670000 173 173 173
6.48649979 -0.30880001 -0.15780000 164 164 164
6.45170021 0.05960000 -0.15800001 160 160 160
6.41620016 0.04270000 -0.15710001 163 163 163
6.39169979 0.02740000 -0.15650000 180 180 180
6.37669992 0.01160000 -0.15620001 181 181 181
6.36740017 -0.00430000 -0.15590000 188 188 188
6.35960007 -0.01970000 -0.15570000 204 204 204
6.35059977 -0.03540000 -0.15549999 191 191 191
6.34530020 -0.05140000 -0.15539999 189 189 189
6.34380007 -0.06640000 -0.15539999 191 191 191
6.34299994 -0.08210000 -0.15530001 185 185 185
6.34229994 -0.09800000 -0.15530001 203 203 203
6.34019995 -0.11310000 -0.15530001 197 197 197
6.35750008 -0.02070000 -0.17020001 193 193 193
6.35010004 -0.03640000 -0.17000000 195 195 195
6.34600019 -0.05180000 -0.16990000 190 190 190
6.34329987 -0.06750000 -0.16980000 194 194 194
6.34289980 -0.08290000 -0.16980000 196 196 196
6.34119987 -0.09870000 -0.16980000 208 208 208
6.34030008 -0.11460000 -0.16970000 212 212 212
6.33900023 -0.13020000 -0.16970000 196 196 196
