-7.38360023 -0.23520000 8.71790028 137 137 137 145.000000
-7.40189981 -0.25040001 8.73429966 117 117 117 -175.000000
-7.42129993 -0.27110001 8.75669956 129 129 129 17.000000
-7.43989992 -0.28970000 8.77680016 173 173 173 721.000000
-7.45809984 -0.31209999 8.80119991 119 119 119 -143.000000
-7.47790003 -0.34320000 8.83530045 144 144 144 257.000000
-7.11320019 -0.27640000 8.73169994 97 97 97 -495.000000
-7.17449999 -0.20350000 8.64850044 101 101 101 -431.000000
-7.19439983 -0.19670001 8.64000034 99 99 99 -463.000000
-7.21439981 -0.18780001 8.62919998 123 123 123 -79.000000
-7.23260021 -0.18730000 8.62790012 108 108 108 -319.000000
-7.25220013 -0.18690000 8.62660027 143 143 143 241.000000
-7.27099991 -0.18950000 8.62860012 119 119 119 -143.000000
-7.30880022 -0.19810000 8.63669968 120 120 120 -127.000000
-7.32749987 -0.20680000 8.64560032 187 187 187 945.000000
-7.34549999 -0.21390000 8.65279961 121 121 121 -111.000000
-7.36490011 -0.23019999 8.67010021 129 129 129 17.000000
-7.38360023 -0.23890001 8.67920017 124 124 124 -63.000000
-7.40180016 -0.25709999 8.69869995 116 116 116 -191.000000
-7.45819998 -0.31220001 8.75819969 113 113 113 -239.000000
-7.47779989 -0.35730001 8.80729961 139 139 139 177.000000
-7.11399984 -0.26289999 8.67420006 108 108 108 -319.000000
-7.13560009 -0.22810000 8.63500023 134 134 134 97.000000
-7.15570021 -0.21170001 8.61600018 103 103 103 -399.000000
-7.17469978 -0.20029999 8.60260010 144 144 144 257.000000
-7.19479990 -0.18900000 8.58920002 101 101 101 -431.000000
-7.21470022 -0.18410000 8.58290005 105 105 105 -367.000000
-7.23290014 -0.18189999 8.57960033 113 113 113 -239.000000
-7.25250006 -0.18269999 8.57960033 112 112 112 -255.000000
-7.27129984 -0.18440001 8.58080006 154 154 154 417.000000
-7.28919983 -0.19329999 8.58979988 125 125 125 -47.000000
-7.30889988 -0.19769999 8.59389973 164 164 164 577.000000
-7.32760000 -0.20530000 8.60149956 123 123 123 -79.000000
-7.34549999 -0.21619999 8.61289978 126 126 126 -31.000000
-7.36499977 -0.23000000 8.62730026 122 122 122 -95.000000
-7.38339996 -0.25040001 8.64910030 160 160 160 513.000000
-7.43989992 -0.29640001 8.69820023 137 137 137 145.000000
-7.45809984 -0.32290000 8.72690010 115 115 115 -207.000000
-7.47760010 -0.37650001 8.78499985 126 126 126 -31.000000
-7.11530018 -0.24380000 8.61079979 89 89 89 -623.000000
-7.13649988 -0.21430001 8.57759953 117 117 117 -175.000000
-7.15640020 -0.20020001 8.56120014 111 111 111 -271.000000
-7.17530012 -0.19080000 8.55000019 97 97 97 -495.000000
-7.19519997 -0.18359999 8.54119968 127 127 127 -15.000000
-7.21490002 -0.18070000 8.53709984 106 106 106 -351.000000
-7.23309994 -0.17990001 8.53540039 133 133 133 81.000000
-7.25269985 -0.17900001 8.53359985 144 144 144 257.000000
-7.27139997 -0.18370000 8.53789997 129 129 129 17.000000
-7.28940010 -0.19180000 8.54599953 124 124 124 -63.000000
-7.30900002 -0.19800000 8.55200005 188 188 188 961.000000
-7.32770014 -0.20510000 8.55910015 122 122 122 -95.000000
-7.34569979 -0.21529999 8.56960011 128 128 128 1.000000
-7.36509991 -0.22980000 8.58479977 126 126 126 -31.000000
-7.38360023 -0.24339999 8.59910011 184 184 184 897.000000
-7.42129993 -0.28209999 8.64039993 171 171 171 689.000000
-7.45800018 -0.33579999 8.69799995 135 135 135 113.000000
-7.07250023 -0.32339999 8.65709972 93 93 93 -559.000000
-7.09539986 -0.26289999 8.59049988 90 90 90 -607.000000
-7.11639977 -0.22570001 8.54899979 91 91 91 -591.000000
-7.13700008 -0.20570000 8.52630043 100 100 100 -447.000000
-7.15670013 -0.19490001 8.51350021 109 109 109 -303.000000
-7.17570019 -0.18529999 8.50220013 158 158 158 481.000000
-7.19540024 -0.18070000 8.49619961 104 104 104 -383.000000
-7.21509981 -0.17710000 8.49139977 167 167 167 625.000000
-7.25279999 -0.17890000 8.49160004 137 137 137 145.000000
-7.27159977 -0.18140000 8.49359989 145 145 145 273.000000
-7.28950024 -0.19069999 8.50290012 127 127 127 -15.000000
-7.30910015 -0.19769999 8.50979996 195 195 195 1073.000000
-7.32770014 -0.20600000 8.51809978 139 139 139 177.000000
-7.34560013 -0.21890000 8.53149986 127 127 127 -15.000000
-7.36509991 -0.22970000 8.54269981 173 173 173 721.000000
-7.40189981 -0.26530001 8.58020020 112 112 112 -255.000000
-7.42129993 -0.28380001 8.59980011 129 129 129 17.000000
-7.07509995 -0.28529999 8.57369995 111 111 111 -271.000000
-7.09749985 -0.23140000 8.51439953 119 119 119 -143.000000
-7.11730003 -0.21250001 8.49289989 141 141 141 209.000000
-7.13770008 -0.19580001 8.47389984 130 130 130 33.000000
-7.15730000 -0.18590000 8.46210003 106 106 106 -351.000000
-7.17659998 -0.16840000 8.44229984 96 96 96 -511.000000
-7.19649982 -0.16110000 8.43350029 104 104 104 -383.000000
-7.07709980 -0.25549999 8.49969959 103 103 103 -399.000000
-7.09829998 -0.21879999 8.45919991 85 85 85 -687.000000
-7.13829994 -0.18660000 8.42249966 103 103 103 -399.000000
-7.15789986 -0.17649999 8.41059971 120 120 120 -127.000000
-7.17649984 -0.17270000 8.40550041 164 164 164 577.000000
-7.19610023 -0.16990000 8.40159988 113 113 113 -239.000000
-7.21570015 -0.16779999 8.39840031 170 170 170 673.000000
-7.23390007 -0.16740000 8.39710045 135 135 135 113.000000
-7.25320005 -0.17270000 8.40190029 113 113 113 -239.000000
-7.27180004 -0.17890000 8.40789986 123 123 123 -79.000000
-7.28980017 -0.18629999 8.41510010 149 149 149 337.000000
-7.30940008 -0.19250000 8.42109966 126 126 126 -31.000000
-7.32789993 -0.20479999 8.43350029 132 132 132 65.000000
-7.36509991 -0.23670000 8.46660042 100 100 100 -447.000000
-7.38369989 -0.25110000 8.48149967 112 112 112 -255.000000
-7.45769978 -0.36730000 8.60449982 131 131 131 49.000000
-7.05499983 -0.29710001 8.50370026 103 103 103 -399.000000
-7.07830000 -0.23800001 8.43949986 114 114 114 -223.000000
-7.11829996 -0.19780000 8.39430046 133 133 133 81.000000
-7.13850021 -0.18340001 8.37779999 133 133 133 81.000000
-7.15819979 -0.17129999 8.36390018 103 103 103 -399.000000
-7.17689991 -0.16610000 8.35739994 114 114 114 -223.000000
-7.21589994 -0.16660000 8.35589981 170 170 170 673.000000
-7.23379993 -0.17039999 8.35919952 119 119 119 -143.000000
-7.25330019 -0.17080000 8.35879993 156 156 156 449.000000
-7.27190018 -0.17970000 8.36750031 130 130 130 33.000000
-7.28980017 -0.18700001 8.37460041 141 141 141 209.000000
-7.30940008 -0.19490001 8.38230038 150 150 150 353.000000
-7.32800007 -0.20440000 8.39179993 110 110 110 -287.000000
-7.34590006 -0.21879999 8.40660000 121 121 121 -111.000000
-7.36509991 -0.23920000 8.42780018 122 122 122 -95.000000
-7.38369989 -0.25299999 8.44200039 111 111 111 -271.000000
-7.40199995 -0.26879999 8.45849991 136 136 136 129.000000
-7.42140007 -0.29420000 8.48509979 137 137 137 145.000000
-7.05679989 -0.27149999 8.43500042 115 115 115 -207.000000
-7.08080006 -0.20039999 8.35820007 63 63 63 -1039.000000
-7.11899996 -0.18719999 8.34189987 126 126 126 -31.000000
-7.13899994 -0.17670000 8.32970047 146 146 146 289.000000
-7.15850019 -0.16689999 8.31830025 110 110 110 -287.000000
-7.17710018 -0.16370000 8.31389999 164 164 164 577.000000
-7.19649982 -0.16329999 8.31250000 111 111 111 -271.000000
-7.21600008 -0.16530000 8.31369972 158 158 158 481.000000
-7.23409986 -0.16550000 8.31309986 119 119 119 -143.000000
-7.25349998 -0.16990000 8.31690025 139 139 139 177.000000
-7.27190018 -0.17970000 8.32660007 137 137 137 145.000000
-7.28999996 -0.18539999 8.33189964 179 179 179 817.000000
-7.30940008 -0.19640000 8.34290028 141 141 141 209.000000
-7.32800007 -0.20840000 8.35490036 131 131 131 49.000000
-7.34590006 -0.22100000 8.36779976 121 121 121 -111.000000
-7.36530018 -0.23540001 8.38249969 109 109 109 -303.000000
-7.40199995 -0.27210000 8.42049980 132 132 132 65.000000
-7.03179979 -0.36170000 8.49020004 0 0 0 -2047.000000
-7.05810022 -0.25310001 8.37419987 107 107 107 -335.000000
-7.08010006 -0.21160001 8.32919979 137 137 137 145.000000
-7.10109997 -0.17800000 8.29259968 99 99 99 -463.000000
-7.11940002 -0.18080001 8.29440022 109 109 109 -303.000000
-7.13950014 -0.16890000 8.28069973 160 160 160 513.000000
-7.15880013 -0.16329999 8.27369976 120 120 120 -127.000000
-7.17740011 -0.15960000 8.26879978 163 163 163 561.000000
-7.19700003 -0.15520000 8.26319981 122 122 122 -95.000000
-7.21630001 -0.15950000 8.26679993 112 112 112 -255.000000
-7.23420000 -0.16470000 8.27159977 160 160 160 513.000000
-7.25349998 -0.17129999 8.27760029 138 138 138 161.000000
-7.27209997 -0.17680000 8.28279972 126 126 126 -31.000000
-7.30950022 -0.19660001 8.30220032 140 140 140 193.000000
-7.32800007 -0.20980000 8.31550026 130 130 130 33.000000
-7.34579992 -0.22450000 8.33049965 126 126 126 -31.000000
-7.05959988 -0.23100001 8.31000042 118 118 118 -159.000000
-7.08109999 -0.19710000 8.27309990 111 111 111 -271.000000
-7.11990023 -0.17450000 8.24709988 110 110 110 -287.000000
-7.14060020 -0.15140000 8.22179985 140 140 140 193.000000
-7.16029978 -0.13720000 8.20580006 135 135 135 113.000000
-7.36530018 -0.23960000 8.30500031 122 122 122 -95.000000
-7.38380003 -0.25929999 8.32520008 185 185 185 913.000000
-7.14029980 -0.15690000 8.18739986 112 112 112 -255.000000
-7.19740009 -0.15050000 8.17770004 134 134 134 97.000000
-7.21649981 -0.15809999 8.18470001 123 123 123 -79.000000
-7.23470020 -0.15790001 8.18369961 117 117 117 -175.000000
-7.27110004 -0.20400000 8.23019981 111 111 111 -271.000000
-7.32810020 -0.21230000 8.23690033 137 137 137 145.000000
-7.34600019 -0.22350000 8.24810028 143 143 143 241.000000
-7.36560011 -0.23340000 8.25800037 175 175 175 753.000000
-7.03889990 -0.26260000 8.26299953 90 90 90 -607.000000
-7.06110001 -0.21080001 8.20790005 144 144 144 257.000000
-7.08169985 -0.19050001 8.18550014 150 150 150 353.000000
-7.10150003 -0.17420000 8.16740036 116 116 116 -191.000000
-7.12050009 -0.16570000 8.15750027 170 170 170 673.000000
-7.15959978 -0.15260001 8.14169979 164 164 164 577.000000
-7.17799997 -0.15140000 8.13949966 127 127 127 -15.000000
-7.23470020 -0.15930000 8.14509964 140 140 140 193.000000
-7.25419998 -0.15930000 8.14430046 129 129 129 17.000000
-7.29020023 -0.18750000 8.17210007 144 144 144 257.000000
-7.30950022 -0.20180000 8.18640041 139 139 139 177.000000
-7.34600019 -0.22750001 8.21189976 155 155 155 433.000000
-7.38369989 -0.26640001 8.25129986 126 126 126 -31.000000
-7.40199995 -0.28749999 8.27289963 186 186 186 929.000000
-7.04180002 -0.22220001 8.18080044 112 112 112 -255.000000
-7.08230019 -0.18170001 8.13640022 126 126 126 -31.000000
-7.12099981 -0.15910000 8.11079979 109 109 109 -303.000000
-7.14060020 -0.15270001 8.10309982 165 165 165 593.000000
-7.17829990 -0.14720000 8.09539986 107 107 107 -335.000000
-7.21689987 -0.15310000 8.09969997 130 130 130 33.000000
-7.25379992 -0.16859999 8.11410046 161 161 161 529.000000
-7.27229977 -0.17910001 8.12419987 179 179 179 817.000000
-7.30959988 -0.20230000 8.14690018 133 133 133 81.000000
-7.10200024 -0.16790000 8.08129978 150 150 150 353.000000
-7.14109993 -0.14620000 8.05679989 113 113 113 -239.000000
-7.16020012 -0.14380001 8.05329990 151 151 151 369.000000
-7.17850018 -0.14320000 8.05169964 114 114 114 -223.000000
-7.19780016 -0.14560001 8.05319977 141 141 141 209.000000
-7.21700001 -0.15230000 8.05920029 137 137 137 145.000000
-7.23500013 -0.15480000 8.06099987 165 165 165 593.000000
-7.29029989 -0.18920000 8.05459976 197 197 197 1105.000000
-7.38350010 -0.28439999 8.14939976 186 186 186 929.000000
-7.40150023 -0.31619999 8.18140030 138 138 138 161.000000
-7.02139997 -0.24550000 8.08650017 113 113 113 -239.000000
-7.04370022 -0.19760001 8.03629971 113 113 113 -239.000000
-7.08379984 -0.16130000 7.99690008 127 127 127 -15.000000
-7.10330009 -0.14910001 7.98320007 96 96 96 -511.000000
-7.10389996 -0.14020000 7.93520021 122 122 122 -95.000000
-7.12279987 -0.13210000 7.92600012 134 134 134 97.000000
-7.16160011 -0.12180000 7.91340017 115 115 115 -207.000000
-7.19869995 -0.13090000 7.92080021 110 110 110 -287.000000
-7.21780014 -0.13950001 7.92859983 97 97 97 -495.000000
-7.23540020 -0.15080000 7.93919992 124 124 124 -63.000000
-7.25430012 -0.16370000 7.95149994 128 128 128 1.000000
-7.27279997 -0.17479999 7.96210003 132 132 132 65.000000
-7.29050016 -0.18709999 7.97389984 141 141 141 209.000000
-7.30970001 -0.20570000 7.99219990 121 121 121 -111.000000
-7.02500010 -0.19820000 7.95979977 91 91 91 -591.000000
-7.04710007 -0.15030000 7.91009998 111 111 111 -271.000000
-7.14440012 -0.09350000 7.84719992 97 97 97 -495.000000
-7.21829987 -0.13100000 7.88129997 121 121 121 -111.000000
-7.23559999 -0.14740001 7.89699984 132 132 132 65.000000
-7.25460005 -0.15940000 7.90840006 129 129 129 17.000000
-7.27279997 -0.17610000 7.92449999 124 124 124 -63.000000
-7.29059982 -0.18640000 7.93429995 173 173 173 721.000000
-7.30980015 -0.20490000 7.95230007 132 132 132 65.000000
-7.32830000 -0.21870001 7.96560001 136 136 136 129.000000
-7.00250006 -0.24380000 7.96810007 91 91 91 -591.000000
-7.02619982 -0.18210000 7.90469980 129 129 129 17.000000
-7.05089998 -0.09670000 7.81759977 51 51 51 -1231.000000
-7.06580019 -0.14740001 7.86730003 120 120 120 -127.000000
-7.08599997 -0.12980001 7.84849977 85 85 85 -687.000000
-7.10500002 -0.12400000 7.84159994 116 116 116 -191.000000
-7.12360001 -0.12060000 7.83710003 101 101 101 -431.000000
-7.14309978 -0.11600000 7.83139992 117 117 117 -175.000000
-7.16190004 -0.11880000 7.83319998 131 131 131 49.000000
-7.17999983 -0.12120000 7.83470011 117 117 117 -175.000000
-7.19899988 -0.12850000 7.84110022 182 182 182 865.000000
-7.21799994 -0.13810000 7.84989977 130 130 130 33.000000
-7.23579979 -0.14450000 7.85550022 147 147 147 305.000000
-7.31020021 -0.19679999 7.90530014 115 115 115 -207.000000
-7.32849979 -0.21500000 7.92290020 173 173 173 721.000000
-7.00439978 -0.21969999 7.90500021 92 92 92 -575.000000
-7.02689981 -0.17290001 7.85690022 121 121 121 -111.000000
-7.12529993 -0.09380000 7.77199984 112 112 112 -255.000000
-7.14340019 -0.11160000 7.78870010 168 168 168 641.000000
-7.16230011 -0.11270000 7.78879976 126 126 126 -31.000000
-7.18030024 -0.11660000 7.79180002 104 104 104 -383.000000
-7.19939995 -0.12090000 7.79519987 114 114 114 -223.000000
-7.21829987 -0.13240001 7.80579996 171 171 171 689.000000
-7.23589993 -0.14340000 7.81599998 171 171 171 689.000000
-7.29110003 -0.17900001 7.84950018 134 134 134 97.000000
-7.31020021 -0.19930001 7.86910009 189 189 189 977.000000
-7.32840014 -0.22090000 7.89010000 124 124 124 -63.000000
-7.34609985 -0.24169999 7.91039991 172 172 172 705.000000
-6.97919989 -0.30000001 7.94770002 7 7 7 -1935.000000
-7.00589991 -0.19930001 7.84609985 85 85 85 -687.000000
-7.02810001 -0.15700001 7.80259991 106 106 106 -351.000000
-7.04829979 -0.13570000 7.78020000 101 101 101 -431.000000
-7.06739998 -0.12510000 7.76849985 98 98 98 -479.000000
-7.08720016 -0.11400000 7.75629997 108 108 108 -319.000000
-7.10599995 -0.11080000 7.75199986 111 111 111 -271.000000
-7.12449980 -0.10880000 7.74889994 109 109 109 -303.000000
-7.14419985 -0.09890000 7.73799992 183 183 183 881.000000
-7.18060017 -0.11300000 7.75019979 139 139 139 177.000000
-7.19950008 -0.11980000 7.75600004 152 152 152 385.000000
-7.25509977 -0.15200000 7.78560019 125 125 125 -47.000000
-7.27339983 -0.16640000 7.79920006 165 165 165 593.000000
-7.29129982 -0.17370000 7.80579996 129 129 129 17.000000
-7.31040001 -0.19400001 7.82539988 118 118 118 -159.000000
-7.32749987 -0.25110000 7.88149977 120 120 120 -127.000000
-7.34619999 -0.24210000 7.87209988 156 156 156 449.000000
-7.36499977 -0.27980000 7.90910006 130 130 130 33.000000
-6.98169994 -0.26830000 7.87739992 106 106 106 -351.000000
-7.02899981 -0.14550000 7.75309992 109 109 109 -303.000000
-7.04920006 -0.12340000 7.73000002 108 108 108 -319.000000
-7.06820011 -0.11420000 7.71969986 110 110 110 -287.000000
-7.08780003 -0.10440000 7.70879984 119 119 119 -143.000000
-7.10650015 -0.10340000 7.70669985 112 112 112 -255.000000
-7.12519979 -0.09850000 7.70079994 106 106 106 -351.000000
-7.19990015 -0.11490000 7.71320009 162 162 162 545.000000
-7.21929979 -0.11580000 7.71320009 132 132 132 65.000000
-7.23689985 -0.12380000 7.72039986 137 137 137 145.000000
-7.25530005 -0.14790000 7.74350023 113 113 113 -239.000000
-7.27349997 -0.16460000 7.75930023 145 145 145 273.000000
-7.29129982 -0.17590000 7.76989985 115 115 115 -207.000000
-7.31029987 -0.19840001 7.79150009 129 129 129 17.000000
-7.32859993 -0.21990000 7.81220007 182 182 182 865.000000
-7.34619999 -0.24200000 7.83349991 120 120 120 -127.000000
-7.36560011 -0.26159999 7.85239983 160 160 160 513.000000
-6.98610020 -0.21230000 7.78369999 96 96 96 -511.000000
-7.10769987 -0.08530000 7.65119982 101 101 101 -431.000000
-7.12559986 -0.09150000 7.65630007 110 110 110 -287.000000
-7.18120003 -0.10360000 7.66529989 118 118 118 -159.000000
-7.20009995 -0.11160000 7.67229986 149 149 149 337.000000
-7.21910000 -0.12050000 7.68020010 141 141 141 209.000000
-7.23670006 -0.13079999 7.68959999 141 141 141 209.000000
-7.25549984 -0.14650001 7.70429993 130 130 130 33.000000
-7.27360010 -0.16440000 7.72119999 122 122 122 -95.000000
-7.29120016 -0.17940000 7.73530006 140 140 140 193.000000
-7.31050014 -0.19690000 7.75190020 150 150 150 353.000000
-7.32870007 -0.21870001 7.77279997 114 114 114 -223.000000
-7.34619999 -0.24640000 7.79960012 173 173 173 721.000000
-7.36479998 -0.28940001 7.84140015 163 163 163 561.000000
-7.05079985 -0.10100000 7.63259983 158 158 158 481.000000
-7.08890009 -0.08930000 7.61880016 122 122 122 -95.000000
-7.10739994 -0.08980000 7.61819983 119 119 119 -143.000000
-7.16349983 -0.09450000 7.61980009 173 173 173 721.000000
-7.18149996 -0.09930000 7.62360001 132 132 132 65.000000
-7.20039988 -0.10620000 7.62949991 120 120 120 -127.000000
-7.21939993 -0.11540000 7.63759995 124 124 124 -63.000000
-7.23689985 -0.12729999 7.64860010 155 155 155 433.000000
-7.25570011 -0.14190000 7.66209984 161 161 161 529.000000
-7.27370024 -0.16200000 7.68109989 131 131 131 49.000000
-7.29139996 -0.17670000 7.69479990 150 150 150 353.000000
-7.31050014 -0.19880000 7.71589994 189 189 189 977.000000
-7.32859993 -0.22239999 7.73839998 126 126 126 -31.000000
-7.34630013 -0.24570000 7.76070023 178 178 178 801.000000
-7.36469984 -0.29740000 7.81090021 174 174 174 737.000000
-7.21950006 -0.11480000 7.59969997 132 132 132 65.000000
-7.23699999 -0.12620001 7.61009979 135 135 135 113.000000
-7.25589991 -0.13930000 7.62209988 146 146 146 289.000000
-7.27390003 -0.16010000 7.64169979 131 131 131 49.000000
-7.29150009 -0.17659999 7.65710020 117 117 117 -175.000000
-7.31059980 -0.19720000 7.67659998 120 120 120 -127.000000
-7.32880020 -0.21879999 7.69710016 134 134 134 97.000000
-7.34609985 -0.25250000 7.72949982 168 168 168 641.000000
-7.36450005 -0.30610001 7.78119993 142 142 142 225.000000
-6.97009993 -0.17919999 7.63929987 87 87 87 -655.000000
-6.99179983 -0.13959999 7.59940004 115 115 115 -207.000000
-7.01270008 -0.11160000 7.57089996 94 94 94 -543.000000
-7.03319979 -0.09050000 7.54920006 107 107 107 -335.000000
-7.05319977 -0.06900000 7.52699995 133 133 133 81.000000
-6.97200012 -0.15629999 7.57980013 110 110 110 -287.000000
-6.99300003 -0.12560000 7.54869986 85 85 85 -687.000000
-7.01410007 -0.09450000 7.51730013 104 104 104 -383.000000
-7.03410006 -0.07870000 7.50080013 99 99 99 -463.000000
-7.05319977 -0.06920000 7.49049997 134 134 134 97.000000
-7.07149982 -0.06820000 7.48829985 124 124 124 -63.000000
-7.10890007 -0.06930000 7.48719978 157 157 157 465.000000
-7.12709999 -0.07100000 7.48780012 114 114 114 -223.000000
-7.14580011 -0.07680000 7.49240017 121 121 121 -111.000000
-7.16440010 -0.08060000 7.49520016 123 123 123 -79.000000
-7.18209982 -0.09040000 7.50379992 127 127 127 -15.000000
-7.20100021 -0.09760000 7.50979996 135 135 135 113.000000
-7.21980000 -0.11000000 7.52089977 174 174 174 737.000000
-7.23729992 -0.12340000 7.53319979 148 148 148 321.000000
-7.25600004 -0.14010000 7.54850006 125 125 125 -47.000000
-7.27419996 -0.15650000 7.56360006 121 121 121 -111.000000
-7.29169989 -0.17389999 7.57980013 149 149 149 337.000000
-7.31080008 -0.19499999 7.59950018 156 156 156 449.000000
-7.32880020 -0.22380000 7.62690020 142 142 142 225.000000
-6.99469995 -0.10420000 7.49119997 108 108 108 -319.000000
-7.01499987 -0.08180000 7.46840000 134 134 134 97.000000
-7.03499985 -0.06590000 7.45190001 128 128 128 1.000000
-7.05380011 -0.06090000 7.44579983 162 162 162 545.000000
-7.07229996 -0.05740000 7.44140005 122 122 122 -95.000000
-7.09130001 -0.05580000 7.43870020 129 129 129 17.000000
-7.10939980 -0.06200000 7.44360018 121 121 121 -111.000000
-7.12750006 -0.06440000 7.44490004 125 125 125 -47.000000
-7.14620018 -0.07100000 7.45020008 117 117 117 -175.000000
-7.16480017 -0.07570000 7.45380020 152 152 152 385.000000
-7.18230009 -0.08760000 7.46430016 143 143 143 241.000000
-7.20120001 -0.09530000 7.47090006 142 142 142 225.000000
-7.22009993 -0.10650000 7.48080015 179 179 179 817.000000
-7.23729992 -0.12310000 7.49599981 130 130 130 33.000000
-7.25610018 -0.13890000 7.51049995 128 128 128 1.000000
-7.27430010 -0.15390000 7.52419996 138 138 138 161.000000
-7.29190016 -0.17180000 7.54080009 139 139 139 177.000000
-7.31080008 -0.19620000 7.56349993 141 141 141 209.000000
-7.32870007 -0.22830001 7.59380007 162 162 162 545.000000
-7.34569979 -0.27329999 7.63649988 153 153 153 401.000000
-6.95139980 -0.16880000 7.51919985 88 88 88 -639.000000
-6.97499990 -0.11970000 7.47079992 126 126 126 -31.000000
-6.99569988 -0.09180000 7.44269991 111 111 111 -271.000000
-7.01560020 -0.07460000 7.42500019 118 118 118 -159.000000
-7.03520012 -0.06480000 7.41429996 116 116 116 -191.000000
-7.05399990 -0.05900000 7.40759993 121 121 121 -111.000000
-7.09159994 -0.05230000 7.39900017 129 129 129 17.000000
-7.10990000 -0.05530000 7.40070009 117 117 117 -175.000000
-7.12790012 -0.05950000 7.40369987 173 173 173 721.000000
-7.14659977 -0.06630000 7.40929985 123 123 123 -79.000000
-7.16499996 -0.07240000 7.41410017 148 148 148 321.000000
-7.18240023 -0.08610000 7.42640018 147 147 147 305.000000
-7.20130014 -0.09430000 7.43330002 138 138 138 161.000000
-7.22020006 -0.10520000 7.44290018 126 126 126 -31.000000
-7.23759985 -0.11910000 7.45550013 150 150 150 353.000000
-7.25619984 -0.13830000 7.47310019 137 137 137 145.000000
-7.27430010 -0.15590000 7.48929977 186 186 186 929.000000
-7.29180002 -0.17420000 7.50619984 160 160 160 513.000000
-7.31069994 -0.20270000 7.53280020 116 116 116 -191.000000
-7.32859993 -0.23330000 7.56139994 165 165 165 593.000000
-7.34490013 -0.29899999 7.62370014 109 109 109 -303.000000
-6.95340014 -0.14569999 7.46029997 109 109 109 -303.000000
-6.97599983 -0.10690000 7.42199993 88 88 88 -639.000000
-6.99630022 -0.08460000 7.39940023 124 124 124 -63.000000
-7.01630020 -0.06640000 7.38079977 111 111 111 -271.000000
-7.03599977 -0.05440000 7.36810017 139 139 139 177.000000
-7.05469990 -0.04980000 7.36259985 122 122 122 -95.000000
-7.07310009 -0.04650000 7.35839987 149 149 149 337.000000
-7.09250021 -0.03970000 7.35080004 142 142 142 225.000000
-7.11049986 -0.04530000 7.35500002 136 136 136 129.000000
-7.12820005 -0.05470000 7.36299992 120 120 120 -127.000000
-7.14690018 -0.06150000 7.36840010 125 125 125 -47.000000
-7.16510010 -0.07080000 7.37629986 135 135 135 113.000000
-7.18279982 -0.08020000 7.38439989 130 130 130 33.000000
-7.20149994 -0.09220000 7.39499998 147 147 147 305.000000
-7.22030020 -0.10340000 7.40490007 155 155 155 433.000000
-7.23750019 -0.12090000 7.42070007 140 140 140 193.000000
-7.25629997 -0.13820000 7.43639994 130 130 130 33.000000
-7.27449989 -0.15390000 7.45069981 197 197 197 1105.000000
-7.29190016 -0.17410000 7.46929979 169 169 169 657.000000
-7.31059980 -0.20500000 7.49809980 133 133 133 81.000000
-7.32859993 -0.23500000 7.52600002 155 155 155 433.000000
-7.34480000 -0.30430001 7.59149981 72 72 72 -895.000000
-6.95480013 -0.12809999 7.40719986 81 81 81 -751.000000
-6.97709990 -0.09370000 7.37309980 104 104 104 -383.000000
-6.99690008 -0.07660000 7.35559988 112 112 112 -255.000000
-7.01690006 -0.05910000 7.33769989 102 102 102 -415.000000
-7.03609991 -0.05280000 7.33059978 127 127 127 -15.000000
-7.05509996 -0.04490000 7.32189989 133 133 133 81.000000
-7.07359982 -0.04120000 7.31729984 151 151 151 369.000000
-7.09270000 -0.03690000 7.31209993 152 152 152 385.000000
-7.11070013 -0.04280000 7.31659985 144 144 144 257.000000
-7.12900019 -0.04220000 7.31510019 150 150 150 353.000000
-7.14720011 -0.05640000 7.32760000 137 137 137 145.000000
-7.16540003 -0.06770000 7.33729982 171 171 171 689.000000
-7.18300009 -0.07810000 7.34630013 134 134 134 97.000000
-7.20160007 -0.09120000 7.35790014 144 144 144 257.000000
-7.22039986 -0.10290000 7.36810017 162 162 162 545.000000
-7.23769999 -0.11920000 7.38280010 144 144 144 257.000000
-7.25629997 -0.13810000 7.39989996 133 133 133 81.000000
-7.27449989 -0.15350001 7.41389990 182 182 182 865.000000
-7.29190016 -0.17590000 7.43440008 166 166 166 609.000000
-7.31059980 -0.20760000 7.46379995 185 185 185 913.000000
-7.32810020 -0.25150001 7.50479984 141 141 141 209.000000
-6.93319988 -0.16750000 7.40950012 30 30 30 -1567.000000
-6.95629978 -0.11060000 7.35440016 112 112 112 -255.000000
-6.97779989 -0.08510000 7.32889986 148 148 148 321.000000
-6.99770021 -0.06750000 7.31099987 107 107 107 -335.000000
-7.01719999 -0.05580000 7.29879999 148 148 148 321.000000
-7.03649998 -0.04840000 7.29050016 159 159 159 497.000000
-7.05509996 -0.04590000 7.28700018 129 129 129 17.000000
-7.07340002 -0.04350000 7.28359985 178 178 178 801.000000
-7.09240007 -0.04180000 7.28090000 153 153 153 401.000000
-7.11070013 -0.04480000 7.28270006 170 170 170 673.000000
-7.12900019 -0.04270000 7.27969980 151 151 151 369.000000
-7.14739990 -0.05460000 7.28999996 134 134 134 97.000000
-7.16559982 -0.06530000 7.29909992 143 143 143 241.000000
-7.18310022 -0.07650000 7.30889988 133 133 133 81.000000
-7.20179987 -0.08770000 7.31850004 153 153 153 401.000000
-7.22030020 -0.10570000 7.33470011 131 131 131 49.000000
-7.23769999 -0.11940000 7.34689999 144 144 144 257.000000
-7.25649977 -0.13580000 7.36149979 128 128 128 1.000000
-7.27449989 -0.15570000 7.37960005 179 179 179 817.000000
-7.29190016 -0.17770000 7.39979982 177 177 177 785.000000
-7.31050014 -0.21160001 7.43109989 158 158 158 481.000000
-7.32770014 -0.26740000 7.48309994 152 152 152 385.000000
-6.93569994 -0.13860001 7.34609985 79 79 79 -783.000000
-6.95739985 -0.09840000 7.30690002 98 98 98 -479.000000
-6.97879982 -0.07400000 7.28259993 118 118 118 -159.000000
-6.99830008 -0.05910000 7.26730013 146 146 146 289.000000
-7.01770020 -0.04940000 7.25699997 115 115 115 -207.000000
-7.03690004 -0.04300000 7.24980021 127 127 127 -15.000000
-7.05550003 -0.04090000 7.24660015 132 132 132 65.000000
-7.07380009 -0.03910000 7.24380016 136 136 136 129.000000
-7.09250021 -0.04110000 7.24459982 154 154 154 417.000000
-7.11059999 -0.04690000 7.24900007 143 143 143 241.000000
-7.12879992 -0.04730000 7.24840021 174 174 174 737.000000
-7.14750004 -0.05390000 7.25360012 144 144 144 257.000000
-7.16569996 -0.06300000 7.26130009 134 134 134 97.000000
-7.18319988 -0.07640000 7.27290010 134 134 134 97.000000
-7.20190001 -0.08660000 7.28170013 151 151 151 369.000000
-7.22049999 -0.10300000 7.29629993 141 141 141 209.000000
-7.23789978 -0.11790000 7.30940008 128 128 128 1.000000
-7.25659990 -0.13440000 7.32420015 180 180 180 833.000000
-7.27440023 -0.15889999 7.34649992 137 137 137 145.000000
-7.29190016 -0.18000001 7.36569977 146 146 146 289.000000
-7.31029987 -0.22090000 7.40339994 130 130 130 33.000000
-7.32660007 -0.30100000 7.47800016 151 151 151 369.000000
-6.93769979 -0.11540000 7.28830004 116 116 116 -191.000000
-6.95860004 -0.08400000 7.25769997 114 114 114 -223.000000
-6.97970009 -0.06270000 7.23629999 106 106 106 -351.000000
-6.99889994 -0.05300000 7.22599983 119 119 119 -143.000000
-7.01819992 -0.04320000 7.21560001 125 125 125 -47.000000
-7.03719997 -0.03990000 7.21140003 123 123 123 -79.000000
-7.05560017 -0.03950000 7.20979977 168 168 168 641.000000
-7.07390022 -0.03820000 7.20749998 136 136 136 129.000000
-7.09270000 -0.03910000 7.20720005 151 151 151 369.000000
-7.11070013 -0.04500000 7.21169996 143 143 143 241.000000
-7.12890005 -0.04720000 7.21280003 155 155 155 433.000000
-7.14739990 -0.05550000 7.21960020 148 148 148 321.000000
-7.16569996 -0.06500000 7.22749996 149 149 149 337.000000
-7.18330002 -0.07460000 7.23559999 138 138 138 161.000000
-7.20190001 -0.08800000 7.24720001 150 150 150 353.000000
-7.22060013 -0.10360000 7.26100016 137 137 137 145.000000
-7.23789978 -0.11850000 7.27419996 132 132 132 65.000000
-7.25659990 -0.13620000 7.28999996 191 191 191 1009.000000
-7.27449989 -0.15889999 7.31050014 143 143 143 241.000000
-7.29180002 -0.18390000 7.33319998 148 148 148 321.000000
-7.30989981 -0.23150000 7.37709999 136 136 136 129.000000
-7.32630014 -0.31009999 7.44980001 112 112 112 -255.000000
-6.91429996 -0.16689999 7.30200005 97 97 97 -495.000000
-6.93909979 -0.09970000 7.23810005 129 129 129 17.000000
-6.95959997 -0.07250000 7.21140003 130 130 130 33.000000
-6.98050022 -0.05300000 7.19189978 105 105 105 -367.000000
-6.99959993 -0.04400000 7.18219995 113 113 113 -239.000000
-7.01870012 -0.03740000 7.17490005 140 140 140 193.000000
-7.03779984 -0.03220000 7.16890001 124 124 124 -63.000000
-7.05600023 -0.03420000 7.16960001 140 140 140 193.000000
-7.07399988 -0.03760000 7.17159986 158 158 158 481.000000
-7.09280014 -0.03790000 7.17080021 149 149 149 337.000000
-7.11089993 -0.04360000 7.17509985 136 136 136 129.000000
-7.12890005 -0.04780000 7.17799997 200 200 200 1153.000000
-7.14760017 -0.05370000 7.18260002 128 128 128 1.000000
-7.16580009 -0.06350000 7.19070005 136 136 136 129.000000
-7.18330002 -0.07560000 7.20109987 137 137 137 145.000000
-7.20200014 -0.08760000 7.21140003 213 213 213 1361.000000
-7.22060013 -0.10370000 7.22550011 146 146 146 289.000000
-7.23799992 -0.11850000 7.23850012 138 138 138 161.000000
-7.25659990 -0.13680001 7.25479984 124 124 124 -63.000000
-7.27430010 -0.16429999 7.27969980 194 194 194 1057.000000
-7.29160023 -0.19080000 7.30369997 175 175 175 753.000000
-7.30970001 -0.23890001 7.34770012 165 165 165 593.000000
-6.91760015 -0.12980001 7.23180008 120 120 120 -127.000000
-6.94019985 -0.08630000 7.19019985 115 115 115 -207.000000
-6.96029997 -0.06410000 7.16830015 127 127 127 -15.000000
-6.98080015 -0.04950000 7.15339994 141 141 141 209.000000
-7.00000000 -0.03900000 7.14239979 132 132 132 65.000000
-7.01910019 -0.03230000 7.13500023 135 135 135 113.000000
-7.03800011 -0.02940000 7.13110018 121 121 121 -111.000000
-7.05630016 -0.03080000 7.13129997 122 122 122 -95.000000
-7.07439995 -0.03170000 7.13100004 147 147 147 305.000000
-7.09299994 -0.03540000 7.13329983 140 140 140 193.000000
-7.12900019 -0.04630000 7.14139986 199 199 199 1137.000000
-7.14750004 -0.05540000 7.14890003 139 139 139 177.000000
-7.16599989 -0.06150000 7.15360022 146 146 146 289.000000
-7.18340015 -0.07550000 7.16569996 139 139 139 177.000000
-7.20209980 -0.08700000 7.17549992 186 186 186 929.000000
-7.22060013 -0.10450000 7.19089985 148 148 148 321.000000
-7.23799992 -0.11830000 7.20289993 157 157 157 465.000000
-7.25659990 -0.13750000 7.21990013 158 158 158 481.000000
-7.27449989 -0.16140001 7.24139977 168 168 168 641.000000
-7.29139996 -0.19550000 7.27220011 185 185 185 913.000000
-7.30940008 -0.25029999 7.32219982 162 162 162 545.000000
-6.91900015 -0.11370000 7.18149996 113 113 113 -239.000000
-6.94099998 -0.07740000 7.14669991 105 105 105 -367.000000
-6.96110010 -0.05490000 7.12459993 136 136 136 129.000000
-6.98140001 -0.04290000 7.11219978 114 114 114 -223.000000
-7.00040007 -0.03480000 7.10349989 130 130 130 33.000000
-7.01929998 -0.03030000 7.09810019 130 130 130 33.000000
-7.03819990 -0.02800000 7.09480000 174 174 174 737.000000
-7.05660009 -0.02700000 7.09280014 132 132 132 65.000000
-7.07450008 -0.03080000 7.09520006 132 132 132 65.000000
-7.09320021 -0.03270000 7.09579992 126 126 126 -31.000000
-7.11129999 -0.03810000 7.09989977 125 125 125 -47.000000
-7.12919998 -0.04400000 7.10430002 185 185 185 913.000000
-7.14779997 -0.05170000 7.11040020 139 139 139 177.000000
-7.16599989 -0.06180000 7.11880016 156 156 156 449.000000
-7.18359995 -0.07250000 7.12779999 132 132 132 65.000000
-7.20219994 -0.08640000 7.13980007 157 157 157 465.000000
-7.22060013 -0.10560000 7.15660000 146 146 146 289.000000
-7.23799992 -0.11940000 7.16849995 144 144 144 257.000000
-7.25649977 -0.14150000 7.18820000 194 194 194 1057.000000
-7.27430010 -0.16710000 7.21099997 130 130 130 33.000000
-7.29139996 -0.19880000 7.23960018 167 167 167 625.000000
-7.30849981 -0.27599999 7.30989981 130 130 130 33.000000
-6.92010021 -0.10170000 7.13530016 122 122 122 -95.000000
-6.94199991 -0.06630000 7.10150003 113 113 113 -239.000000
-6.96169996 -0.04780000 7.08319998 160 160 160 513.000000
-6.98199987 -0.03580000 7.07079983 113 113 113 -239.000000
-7.00099993 -0.02750000 7.06199980 139 139 139 177.000000
-7.01970005 -0.02530000 7.05870008 125 125 125 -47.000000
-7.03859997 -0.02300000 7.05539989 175 175 175 753.000000
-7.05690002 -0.02290000 7.05429983 132 132 132 65.000000
-7.07480001 -0.02690000 7.05679989 136 136 136 129.000000
-7.09340000 -0.03020000 7.05880022 176 176 176 769.000000
-7.11159992 -0.03490000 7.06209993 137 137 137 145.000000
-7.12949991 -0.03980000 7.06559992 153 153 153 401.000000
-7.14790010 -0.05030000 7.07420015 150 150 150 353.000000
-7.16610003 -0.06150000 7.08360004 125 125 125 -47.000000
-7.18349981 -0.07550000 7.09560013 213 213 213 1361.000000
-7.20209980 -0.08770000 7.10589981 152 152 152 385.000000
-7.22060013 -0.10720000 7.12290001 146 146 146 289.000000
-7.23799992 -0.12090000 7.13479996 136 136 136 129.000000
-7.25670004 -0.13940001 7.15100002 171 171 171 689.000000
-7.27430010 -0.16940001 7.17770004 151 151 151 369.000000
-7.29129982 -0.20140000 7.20650005 153 153 153 401.000000
-7.30779982 -0.29600000 7.29239988 0 0 0 -2047.000000
-6.89699984 -0.14560001 7.14179993 0 0 0 -2047.000000
-6.92150021 -0.08590000 7.08589983 128 128 128 1.000000
-6.94250011 -0.06030000 7.06110001 108 108 108 -319.000000
-6.96220016 -0.04190000 7.04300022 149 149 149 337.000000
-6.98260021 -0.02820000 7.02920008 115 115 115 -207.000000
-7.00159979 -0.02010000 7.02059984 126 126 126 -31.000000
-7.02040005 -0.01640000 7.01599979 129 129 129 17.000000
-7.03879976 -0.02010000 7.01819992 186 186 186 929.000000
-7.05749989 -0.01570000 7.01300001 142 142 142 225.000000
-7.07530022 -0.02060000 7.01650000 126 126 126 -31.000000
-7.09369993 -0.02750000 7.02159977 142 142 142 225.000000
-7.11159992 -0.03470000 7.02720022 186 186 186 929.000000
-7.12949991 -0.04020000 7.03130007 153 153 153 401.000000
-7.14799976 -0.04940000 7.03870010 152 152 152 385.000000
-7.16599989 -0.06310000 7.05019999 137 137 137 145.000000
-7.18359995 -0.07480000 7.06010008 200 200 200 1153.000000
-7.20219994 -0.08780000 7.07110023 146 146 146 289.000000
-7.22090006 -0.10280000 7.08400011 140 140 140 193.000000
-7.23789978 -0.12540001 7.10379982 151 151 151 369.000000
-7.25640011 -0.14730000 7.12300014 204 204 204 1217.000000
-7.27430010 -0.17090000 7.14389992 139 139 139 177.000000
-7.29099989 -0.21070001 7.17950010 126 126 126 -31.000000
-6.89960003 -0.11720000 7.08099985 135 135 135 113.000000
-6.92250013 -0.07460000 7.04080009 132 132 132 65.000000
-6.94369984 -0.04740000 7.01469994 109 109 109 -303.000000
-6.96290016 -0.03380000 7.00110006 141 141 141 209.000000
-6.98299980 -0.02420000 6.99100018 156 156 156 449.000000
-7.00199986 -0.01530000 6.98180008 132 132 132 65.000000
-7.02059984 -0.01460000 6.97980022 138 138 138 161.000000
-7.03929996 -0.01470000 6.97879982 141 141 141 209.000000
-7.05749989 -0.01560000 6.97849989 146 146 146 289.000000
-7.07539988 -0.01920000 6.98070002 144 144 144 257.000000
-7.09399986 -0.02280000 6.98299980 147 147 147 305.000000
-7.11199999 -0.03040000 6.98880005 139 139 139 177.000000
-7.12960005 -0.04000000 6.99660015 140 140 140 193.000000
-7.14809990 -0.04990000 7.00449991 176 176 176 769.000000
-7.16610003 -0.06220000 7.01490021 140 140 140 193.000000
-7.18359995 -0.07480000 7.02540016 202 202 202 1185.000000
-7.20209980 -0.08980000 7.03819990 152 152 152 385.000000
-7.22069979 -0.10730000 7.05319977 157 157 157 465.000000
-7.23810005 -0.12250000 7.06640005 148 148 148 321.000000
-7.25649977 -0.14700000 7.08780003 203 203 203 1201.000000
-7.27409983 -0.17800000 7.11520004 124 124 124 -63.000000
-7.29040003 -0.22860000 7.16050005 189 189 189 977.000000
-6.90170002 -0.09400000 7.02519989 143 143 143 241.000000
-6.92399979 -0.05800000 6.99119997 124 124 124 -63.000000
-6.94469976 -0.03570000 6.96969986 103 103 103 -399.000000
-6.96339989 -0.02800000 6.96140003 116 116 116 -191.000000
-6.98360014 -0.01710000 6.95030022 119 119 119 -143.000000
-7.00239992 -0.01040000 6.94299984 108 108 108 -319.000000
-7.02110004 -0.00870000 6.94029999 136 136 136 129.000000
-7.03989983 -0.00710000 6.93760014 132 132 132 65.000000
-7.05779982 -0.01200000 6.94099998 137 137 137 145.000000
-7.07569981 -0.01560000 6.94320011 144 144 144 257.000000
-7.09399986 -0.02430000 6.94999981 189 189 189 977.000000
-7.11189985 -0.03200000 6.95590019 146 146 146 289.000000
-7.12970018 -0.03840000 6.96080017 137 137 137 145.000000
-7.14820004 -0.04770000 6.96820021 140 140 140 193.000000
-7.16639996 -0.05950000 6.97790003 149 149 149 337.000000
-7.18380022 -0.07370000 6.98990011 141 141 141 209.000000
-7.20219994 -0.09040000 7.00419998 148 148 148 321.000000
-7.22060013 -0.11020000 7.02129984 143 143 143 241.000000
-7.23789978 -0.12660000 7.03529978 153 153 153 401.000000
-7.25629997 -0.15270001 7.05819988 190 190 190 993.000000
-7.27390003 -0.18350001 7.08529997 135 135 135 113.000000
-7.29040003 -0.23130000 7.12779999 158 158 158 481.000000
-6.88070011 -0.12030000 7.01580000 126 126 126 -31.000000
-6.90409994 -0.06790000 6.96719980 110 110 110 -287.000000
-6.92469978 -0.05050000 6.95009995 147 147 147 305.000000
-6.94549990 -0.02650000 6.92719984 121 121 121 -111.000000
-6.96430016 -0.01800000 6.91820002 119 119 119 -143.000000
-6.98430014 -0.00860000 6.90850019 109 109 109 -303.000000
-7.00320005 -0.00150000 6.90089989 123 123 123 -79.000000
-7.02150011 -0.00270000 6.90080023 138 138 138 161.000000
-7.05810022 -0.00820000 6.90350008 130 130 130 33.000000
-7.07590008 -0.01320000 6.90679979 149 149 149 337.000000
-7.09420013 -0.02080000 6.91270018 143 143 143 241.000000
-7.11210012 -0.02910000 6.91909981 139 139 139 177.000000
-7.13009977 -0.03400000 6.92259979 148 148 148 321.000000
-7.14830017 -0.04770000 6.93389988 131 131 131 49.000000
-7.16650009 -0.05830000 6.94250011 177 177 177 785.000000
-7.18359995 -0.07750000 6.95889997 149 149 149 337.000000
-7.20219994 -0.09080000 6.97009993 142 142 142 225.000000
-7.22079992 -0.10850000 6.98519993 160 160 160 513.000000
-7.23789978 -0.12909999 7.00299978 146 146 146 289.000000
-7.25629997 -0.15360001 7.02419996 163 163 163 561.000000
-7.27370024 -0.19040000 7.05660009 168 168 168 641.000000
-7.28929996 -0.26100001 7.11929989 88 88 88 -639.000000
-6.88149977 -0.11260000 6.97429991 118 118 118 -159.000000
-6.90509987 -0.05730000 6.92350006 128 128 128 1.000000
-6.92560005 -0.04000000 6.90649986 116 116 116 -191.000000
-6.94619989 -0.01800000 6.88549995 121 121 121 -111.000000
-6.96500015 -0.00980000 6.87690020 121 121 121 -111.000000
-6.98479986 -0.00320000 6.86969995 118 118 118 -159.000000
-7.00330019 0.00030000 6.86530018 183 183 183 881.000000
-7.02190018 0.00160000 6.86289978 129 129 129 17.000000
-7.04029989 -0.00160000 6.86460018 174 174 174 737.000000
-7.05840015 -0.00450000 6.86609983 133 133 133 81.000000
-7.07630014 -0.00820000 6.86840010 193 193 193 1041.000000
-7.09439993 -0.01880000 6.87690020 138 138 138 161.000000
-7.11240005 -0.02570000 6.88199997 140 140 140 193.000000
-7.13000011 -0.03540000 6.88980007 202 202 202 1185.000000
-7.14839983 -0.04650000 6.89870024 139 139 139 177.000000
-7.16650009 -0.05890000 6.90899992 173 173 173 721.000000
-7.18389988 -0.07330000 6.92100000 135 135 135 113.000000
-7.20219994 -0.09150000 6.93650007 143 143 143 241.000000
-7.22069979 -0.11080000 6.95289993 194 194 194 1057.000000
-7.23780012 -0.13060001 6.96990013 146 146 146 289.000000
-7.25610018 -0.15889999 6.99440002 147 147 147 305.000000
-7.27349997 -0.19610000 7.02699995 162 162 162 545.000000
-6.88409996 -0.08440000 6.91489983 130 130 130 33.000000
-6.90619993 -0.04480000 6.87820005 124 124 124 -63.000000
-6.92649984 -0.03040000 6.86399984 131 131 131 49.000000
-6.94689989 -0.01020000 6.84469986 128 128 128 1.000000
-6.96570015 -0.00220000 6.83629990 112 112 112 -255.000000
-6.98540020 0.00410000 6.82940006 128 128 128 1.000000
-7.00390005 0.00690000 6.82569981 144 144 144 257.000000
-7.02209997 0.00400000 6.82709980 134 134 134 97.000000
-7.04059982 0.00180000 6.82789993 193 193 193 1041.000000
-7.05880022 -0.00020000 6.82849979 127 127 127 -15.000000
-7.07670021 -0.00260000 6.82959986 157 157 157 465.000000
-7.09490013 -0.01240000 6.83729982 141 141 141 209.000000
-7.11269999 -0.02130000 6.84420013 142 142 142 225.000000
-7.13049984 -0.02890000 6.85010004 153 153 153 401.000000
-7.14849997 -0.04560000 6.86399984 129 129 129 17.000000
-7.16650009 -0.05880000 6.87489986 139 139 139 177.000000
-7.18389988 -0.07340000 6.88700008 140 140 140 193.000000
-7.20249987 -0.08780000 6.89900017 141 141 141 209.000000
-7.22079992 -0.11020000 6.91809988 146 146 146 289.000000
-7.23769999 -0.13480000 6.93930006 190 190 190 993.000000
-7.25579977 -0.16700000 6.96719980 129 129 129 17.000000
-7.27290010 -0.21230000 7.00680017 151 151 151 369.000000
-6.88509989 -0.07340000 6.87109995 130 130 130 33.000000
-6.90660000 -0.04080000 6.84089994 126 126 126 -31.000000
-6.92710018 -0.02450000 6.82499981 150 150 150 353.000000
-6.94740009 -0.00510000 6.80649996 116 116 116 -191.000000
-6.96610022 0.00240000 6.79860020 117 117 117 -175.000000
-6.98579979 0.00800000 6.79230022 130 130 130 33.000000
-7.00419998 0.01110000 6.78840017 151 151 151 369.000000
-7.02269983 0.01160000 6.78669977 139 139 139 177.000000
-7.04110003 0.00820000 6.78859997 190 190 190 993.000000
-7.05929995 0.00670000 6.78879976 126 126 126 -31.000000
-7.07709980 0.00180000 6.79209995 141 141 141 209.000000
-7.09520006 -0.00740000 6.79930019 181 181 181 849.000000
-7.11299992 -0.01680000 6.80660009 136 136 136 129.000000
-7.13070011 -0.02550000 6.81339979 144 144 144 257.000000
-7.14870024 -0.04310000 6.82800007 138 138 138 161.000000
-7.16669989 -0.05660000 6.83909988 129 129 129 17.000000
-7.18419981 -0.07000000 6.85010004 144 144 144 257.000000
-7.20249987 -0.08770000 6.86499977 159 159 159 497.000000
-7.22069979 -0.11310000 6.88660002 134 134 134 97.000000
-7.23780012 -0.13420001 6.90460014 133 133 133 81.000000
-7.25570011 -0.17020001 6.93569994 168 168 168 641.000000
-7.27239990 -0.22589999 6.98430014 155 155 155 433.000000
-6.85909986 -0.15080000 6.90700006 0 0 0 -2047.000000
-6.88649988 -0.05940000 6.82490015 138 138 138 161.000000
-6.90799999 -0.02610000 6.79419994 127 127 127 -15.000000
-6.92789984 -0.01520000 6.78319979 148 148 148 321.000000
-6.94789982 0.00000000 6.76840019 110 110 110 -287.000000
-6.96659994 0.00820000 6.75990009 143 143 143 241.000000
-6.98629999 0.01470000 6.75290012 131 131 131 49.000000
-7.00460005 0.01490000 6.75159979 139 139 139 177.000000
-7.02330017 0.01840000 6.74730015 132 132 132 65.000000
-7.04180002 0.01660000 6.74770021 157 157 157 465.000000
-7.05980015 0.01250000 6.75029993 128 128 128 1.000000
-7.07740021 0.00540000 6.75549984 142 142 142 225.000000
-7.09560013 -0.00270000 6.76160002 163 163 163 561.000000
-7.11339998 -0.01140000 6.76830006 134 134 134 97.000000
-7.13070011 -0.02570000 6.77990007 126 126 126 -31.000000
-7.14900017 -0.03850000 6.79029989 139 139 139 177.000000
-7.16699982 -0.05260000 6.80189991 142 142 142 225.000000
-7.18440008 -0.06650000 6.81330013 130 130 130 33.000000
-7.20260000 -0.08750000 6.83099985 174 174 174 737.000000
-7.22069979 -0.11440000 6.85389996 133 133 133 81.000000
-7.23799992 -0.13180000 6.86850023 162 162 162 545.000000
-7.25559998 -0.17389999 6.90479994 184 184 184 897.000000
-7.27120018 -0.25549999 6.97590017 139 139 139 177.000000
-6.85949993 -0.14680000 6.86950016 110 110 110 -287.000000
-6.88689995 -0.05460000 6.78700018 137 137 137 145.000000
-6.90859985 -0.01880000 6.75419998 123 123 123 -79.000000
-6.92889977 -0.00400000 6.73990011 144 144 144 257.000000
-6.94820023 0.00380000 6.73169994 150 150 150 353.000000
-6.96710014 0.01330000 6.72209978 146 146 146 289.000000
-6.98649979 0.01620000 6.71829987 174 174 174 737.000000
-7.00509977 0.02120000 6.71269989 135 135 135 113.000000
-7.02360010 0.02230000 6.71059990 141 141 141 209.000000
-7.04209995 0.02010000 6.71140003 146 146 146 289.000000
-7.06010008 0.01700000 6.71299982 166 166 166 609.000000
-7.07779980 0.01130000 6.71710014 147 147 147 305.000000
-7.09579992 0.00020000 6.72569990 162 162 162 545.000000
-7.11369991 -0.00770000 6.73169994 135 135 135 113.000000
-7.13129997 -0.01790000 6.73969984 130 130 130 33.000000
-7.14940023 -0.03200000 6.75120020 121 121 121 -111.000000
-7.16720009 -0.04950000 6.76560020 144 144 144 257.000000
-7.18459988 -0.06450000 6.77790022 144 144 144 257.000000
-7.20249987 -0.08980000 6.79930019 198 198 198 1121.000000
-7.22090006 -0.11150000 6.81759977 140 140 140 193.000000
-7.23789978 -0.13440000 6.83690023 178 178 178 801.000000
-7.25530005 -0.18170001 6.87760019 133 133 133 81.000000
-6.86350012 -0.10460000 6.79869986 100 100 100 -447.000000
-6.88810015 -0.04210000 6.74270010 128 128 128 1.000000
-6.90840006 -0.02210000 6.72380018 118 118 118 -159.000000
-6.92920017 -0.00060000 6.70359993 118 118 118 -159.000000
-6.94920015 0.01440000 6.68919992 127 127 127 -15.000000
-6.96780014 0.02210000 6.68130016 115 115 115 -207.000000
-6.98689985 0.02110000 6.68079996 144 144 144 257.000000
-7.00549984 0.02580000 6.67560005 139 139 139 177.000000
-7.02379990 0.02400000 6.67600012 146 146 146 289.000000
-7.04239988 0.02410000 6.67479992 136 136 136 129.000000
-7.06029987 0.01950000 6.67780018 149 149 149 337.000000
-7.07800007 0.01410000 6.68149996 150 150 150 353.000000
-7.09609985 0.00420000 6.68909979 183 183 183 881.000000
-7.11409998 -0.00210000 6.69360018 127 127 127 -15.000000
-7.13140011 -0.01590000 6.70469999 126 126 126 -31.000000
-7.14940023 -0.03320000 6.71890020 154 154 154 417.000000
-7.16739988 -0.04660000 6.72970009 133 133 133 81.000000
-7.18480015 -0.06020000 6.74069977 159 159 159 497.000000
-7.20289993 -0.08350000 6.76030016 152 152 152 385.000000
-7.22100019 -0.11060000 6.78310013 154 154 154 417.000000
-7.23799992 -0.13440000 6.80310011 169 169 169 657.000000
-7.25500011 -0.19020000 6.85109997 137 137 137 145.000000
-6.86530018 -0.08630000 6.74919987 105 105 105 -367.000000
-6.88859987 -0.03740000 6.70529985 113 113 113 -239.000000
-6.90939999 -0.01130000 6.68120003 111 111 111 -271.000000
-6.92980003 0.00600000 6.66480017 128 128 128 1.000000
-6.94939995 0.01700000 6.65390015 121 121 121 -111.000000
-6.96810007 0.02580000 6.64510012 125 125 125 -47.000000
-6.98769999 0.03040000 6.63980007 129 129 129 17.000000
-7.00589991 0.03040000 6.63870001 137 137 137 145.000000
-7.02430010 0.03010000 6.63780022 147 147 147 305.000000
-7.04269981 0.02790000 6.63850021 153 153 153 401.000000
-7.06080008 0.02600000 6.63910007 148 148 148 321.000000
-7.07819986 0.01540000 6.64729977 139 139 139 177.000000
-7.09639978 0.00740000 6.65329981 195 195 195 1073.000000
-7.11439991 0.00140000 6.65749979 135 135 135 113.000000
-7.13149977 -0.01550000 6.67129993 125 125 125 -47.000000
-7.14970016 -0.02900000 6.68209982 148 148 148 321.000000
-7.16779995 -0.04040000 6.69110012 146 146 146 289.000000
-7.18489981 -0.05990000 6.70720005 159 159 159 497.000000
-7.20279980 -0.08570000 6.72879982 131 131 131 49.000000
-7.22109985 -0.10850000 6.74779987 153 153 153 401.000000
-7.23789978 -0.13710000 6.77190018 166 166 166 609.000000
-7.25570011 -0.17710000 6.80590010 177 177 177 785.000000
-6.84009981 -0.14480001 6.76800013 0 0 0 -2047.000000
-6.86709976 -0.06780000 6.69990015 104 104 104 -383.000000
-6.88929987 -0.02980000 6.66559982 124 124 124 -63.000000
-6.90990019 -0.00570000 6.64340019 144 144 144 257.000000
