5.16120005 -0.59969997 2.95760012 185 185 185
5.16139984 -0.61229998 2.95830011 207 207 207
5.16520023 -0.62570000 2.96110010 191 191 191
5.16669989 -0.63849998 2.96259999 255 255 255
5.17119980 -0.65160000 2.96580005 215 215 215
5.17479992 -0.66509998 2.96860003 147 147 147
5.19199991 -0.67989999 2.97919989 176 176 176
5.20590019 -0.69440001 2.98790002 136 136 136
5.22620010 -0.71039999 3.00029993 141 141 141
5.29960012 -0.73310000 3.04320002 14 14 14
5.26609993 -0.48190001 2.99530005 106 106 106
5.23029995 -0.49129999 2.97530007 204 204 204
5.20539999 -0.50169998 2.96160007 166 166 166
5.19140005 -0.51340002 2.95409989 197 197 197
5.18240023 -0.52520001 2.94950008 156 156 156
5.17880011 -0.53740001 2.94790006 161 161 161
5.17000008 -0.54939997 2.94339991 176 176 176
5.16680002 -0.56190002 2.94210005 193 193 193
5.16060019 -0.57359999 2.93910003 194 194 194
5.15840006 -0.58649999 2.93849993 205 205 205
5.16050005 -0.59939998 2.94029999 215 215 215
5.15980005 -0.61189997 2.94050002 188 188 188
5.16429996 -0.62540001 2.94370008 176 176 176
5.16590023 -0.63819999 2.94530010 206 206 206
5.17220020 -0.65149999 2.94950008 215 215 215
5.17829990 -0.66530001 2.95370007 161 161 161
5.18959999 -0.67930001 2.96079993 125 125 125
5.20620012 -0.69430000 2.97090006 133 133 133
5.22510004 -0.71010000 2.98250008 160 160 160
5.27489996 -0.72950000 3.01169991 79 79 79
5.25649977 -0.48080000 2.97270012 108 108 108
5.22599983 -0.49059999 2.95580006 176 176 176
5.20590019 -0.50150001 2.94490004 147 147 147
5.19119978 -0.51319999 2.93709993 182 182 182
5.18249989 -0.52499998 2.93260002 234 234 234
5.17519999 -0.53680003 2.92899990 149 149 149
5.16739988 -0.54890001 2.92510009 181 181 181
5.16540003 -0.56150001 2.92449999 187 187 187
5.15910006 -0.57319999 2.92149997 220 220 220
5.15710020 -0.58609998 2.92090011 172 172 172
5.15910006 -0.59899998 2.92260003 179 179 179
5.15959978 -0.61159998 2.92350006 185 185 185
5.16440010 -0.62519997 2.92680001 236 236 236
5.16610003 -0.63789999 2.92840004 198 198 198
5.17199993 -0.65130001 2.93249989 224 224 224
5.18060017 -0.66540003 2.93799996 169 169 169
5.19280005 -0.67949998 2.94560003 110 110 110
5.20709991 -0.69419998 2.95440006 133 133 133
5.22389984 -0.70969999 2.96469998 120 120 120
5.24639988 -0.72530001 2.97819996 0 0 0
5.25899982 -0.48080000 2.95700002 91 91 91
5.22340012 -0.49020001 2.93740010 173 173 173
5.20330000 -0.50110000 2.92650008 154 154 154
5.19180012 -0.51300001 2.92050004 168 168 168
5.18240023 -0.52469999 2.91569996 185 185 185
5.17229986 -0.53630000 2.91059995 171 171 171
5.16739988 -0.54869998 2.90829992 215 215 215
5.16309977 -0.56099999 2.90639997 168 168 168
5.15770006 -0.57279998 2.90389991 187 187 187
5.15649986 -0.58579999 2.90380001 169 169 169
5.15829992 -0.59869999 2.90540004 227 227 227
5.15859985 -0.61129999 2.90619993 168 168 168
5.16270018 -0.62480003 2.90910006 233 233 233
5.16639996 -0.63779998 2.91179991 226 226 226
5.17290020 -0.65109998 2.91610003 202 202 202
5.17990017 -0.66509998 2.92070007 210 210 210
5.19439983 -0.67949998 2.92960000 133 133 133
5.21000004 -0.69430000 2.93910003 125 125 125
5.25379992 -0.48010001 2.93709993 106 106 106
5.22039986 -0.48960000 2.91880012 173 173 173
5.20190001 -0.50070000 2.90890002 152 152 152
5.18809986 -0.51239997 2.90170002 156 156 156
5.17939997 -0.52420002 2.89730000 143 143 143
5.17100000 -0.53590000 2.89299989 154 154 154
5.16849995 -0.54860002 2.89210010 248 248 248
5.16090012 -0.56059998 2.88840008 168 168 168
5.15630007 -0.57249999 2.88630009 150 150 150
5.15520000 -0.58539999 2.88630009 167 167 167
5.15570021 -0.59820002 2.88720012 172 172 172
5.15980005 -0.61119998 2.89000010 159 159 159
5.16209984 -0.62449998 2.89199996 196 196 196
5.16520023 -0.63739997 2.89429998 158 158 158
5.16839981 -0.65039998 2.89669991 172 172 172
5.18090010 -0.66500002 2.90440011 190 190 190
5.19579983 -0.67949998 2.91339993 134 134 134
5.21010017 -0.69410002 2.92219996 183 183 183
5.23099995 -0.71020001 2.93460011 132 132 132
5.24830008 -0.47929999 2.91700006 118 118 118
5.22160006 -0.48949999 2.90260005 161 161 161
5.19869995 -0.50019997 2.89030004 185 185 185
5.18860006 -0.51220000 2.88509989 155 155 155
5.17819977 -0.52389997 2.87980008 191 191 191
5.16870022 -0.53549999 2.87500000 139 139 139
5.16699982 -0.54820001 2.87459993 213 213 213
5.16020012 -0.56029999 2.87129998 159 159 159
5.15789986 -0.57239997 2.87059999 164 164 164
5.15439987 -0.58510000 2.86919999 147 147 147
5.15509987 -0.59789997 2.87019992 196 196 196
5.15770006 -0.61070001 2.87220001 169 169 169
5.16009998 -0.62400001 2.87409997 180 180 180
5.16359997 -0.63700002 2.87669992 129 129 129
5.16919994 -0.65020001 2.88039994 222 222 222
5.17939997 -0.66450000 2.88680005 230 230 230
5.19150019 -0.67869997 2.89420009 100 100 100
5.20979977 -0.69389999 2.90510011 168 168 168
5.22770023 -0.70950001 2.91580009 122 122 122
5.24300003 -0.47860000 2.89720011 138 138 138
5.22020006 -0.48920000 2.88499999 191 191 191
5.19549990 -0.49959999 2.87170005 185 185 185
5.18410015 -0.51160002 2.86590004 143 143 143
5.17749977 -0.52359998 2.86279988 196 196 196
5.17110014 -0.53549999 2.85960007 209 209 209
5.16349983 -0.54759997 2.85590005 188 188 188
5.15840006 -0.55989999 2.85360003 206 206 206
5.15560007 -0.57190001 2.85260010 165 165 165
5.15450001 -0.58490002 2.85260010 178 178 178
5.15560007 -0.59770000 2.85380006 207 207 207
5.15640020 -0.61040002 2.85479999 196 196 196
5.15920019 -0.62370002 2.85689998 208 208 208
5.16419983 -0.63679999 2.86030006 152 152 152
5.16909981 -0.64999998 2.86369991 249 249 249
5.17939997 -0.66430002 2.86999989 185 185 185
5.19360018 -0.67879999 2.87859988 151 151 151
5.20940018 -0.69360000 2.88800001 183 183 183
5.22889996 -0.70950001 2.89960003 120 120 120
5.24049997 -0.47819999 2.87890005 164 164 164
5.21330023 -0.48830000 2.86439991 129 129 129
5.19420004 -0.49930000 2.85430002 167 167 167
5.18410015 -0.51130003 2.84929991 194 194 194
5.17449999 -0.52300000 2.84439993 181 181 181
5.16900015 -0.53500003 2.84190011 218 218 218
5.16209984 -0.54729998 2.83859992 191 191 191
5.15710020 -0.55949998 2.83640003 190 190 190
5.15740013 -0.57190001 2.83699989 255 255 255
5.15310001 -0.58459997 2.83520007 224 224 224
5.15290022 -0.59719998 2.83559990 177 177 177
5.15660000 -0.61019999 2.83820009 229 229 229
5.15859985 -0.62339997 2.83999991 170 170 170
5.16270018 -0.63639998 2.84279990 158 158 158
5.16930008 -0.64980000 2.84710002 242 242 242
5.17819977 -0.66399997 2.85260010 157 157 157
5.19369984 -0.67860001 2.86190009 128 128 128
5.20989990 -0.69340003 2.87150002 206 206 206
5.22770023 -0.70910001 2.88199997 150 150 150
5.23600006 -0.47749999 2.85969996 116 116 116
5.21019983 -0.48780000 2.84599996 151 151 151
5.19589996 -0.49919999 2.83859992 206 206 206
5.18230009 -0.51090002 2.83159995 178 178 178
5.17570019 -0.52289999 2.82850003 220 220 220
5.16639996 -0.53460002 2.82389998 201 201 201
5.16300011 -0.54710001 2.82249999 204 204 204
5.15409994 -0.55900002 2.81820011 201 201 201
5.15500021 -0.57139999 2.81909990 209 209 209
5.15150023 -0.58420002 2.81780005 181 181 181
5.15380001 -0.59710002 2.81960011 217 217 217
5.15630007 -0.60990000 2.82150006 181 181 181
5.15880013 -0.62320000 2.82349992 190 190 190
5.16120005 -0.63599998 2.82540011 184 184 184
5.16830015 -0.64950001 2.82990003 255 255 255
5.17810011 -0.66369998 2.83590007 161 161 161
5.19110012 -0.67799997 2.84369993 128 128 128
5.20839977 -0.69300002 2.85389996 194 194 194
5.22440004 -0.70840001 2.86339998 164 164 164
5.23659992 -0.47740000 2.84330010 129 129 129
5.20769978 -0.48730001 2.82800007 153 153 153
5.19129992 -0.49860001 2.81949997 146 146 146
5.17929983 -0.51040000 2.81340003 142 142 142
5.17199993 -0.52230000 2.80990005 164 164 164
5.16270018 -0.53399998 2.80530000 192 192 192
5.15969992 -0.54659998 2.80410004 154 154 154
5.15189981 -0.55849999 2.80049992 169 169 169
5.15240002 -0.57090002 2.80119991 158 158 158
5.14989996 -0.58380002 2.80040002 139 139 139
5.15059996 -0.59649998 2.80130005 165 165 165
5.15670013 -0.60970002 2.80520010 177 177 177
5.15549994 -0.62260002 2.80520010 147 147 147
5.16039991 -0.63569999 2.80839992 142 142 142
5.16540003 -0.64889997 2.81180000 144 144 144
5.17579985 -0.66320002 2.81809998 128 128 128
5.19070005 -0.67769998 2.82680011 118 118 118
5.20879984 -0.69279999 2.83739996 155 155 155
5.22520018 -0.70829999 2.84699988 117 117 117
5.23280001 -0.47679999 2.82450008 140 140 140
5.20650005 -0.48699999 2.81080008 123 123 123
5.19019985 -0.49820000 2.80229998 142 142 142
5.17740011 -0.50999999 2.79590011 134 134 134
5.16870022 -0.52179998 2.79159999 165 165 165
5.16270018 -0.53369999 2.78880000 176 176 176
5.15780020 -0.54610002 2.78670001 186 186 186
5.15199995 -0.55830002 2.78399992 214 214 214
5.15180016 -0.57059997 2.78439999 150 150 150
5.15129995 -0.58370000 2.78469992 217 217 217
5.15229988 -0.59649998 2.78579998 185 185 185
5.15450001 -0.60930002 2.78749990 157 157 157
5.15619993 -0.62239999 2.78900003 166 166 166
5.16230011 -0.63569999 2.79290009 182 182 182
5.16690016 -0.64880002 2.79600000 238 238 238
5.17740011 -0.66320002 2.80240011 140 140 140
5.18769979 -0.67710000 2.80859995 145 145 145
5.19980001 -0.69139999 2.81579995 127 127 127
5.22739983 -0.70840001 2.83139992 121 121 121
5.22989988 -0.47630000 2.80629992 149 149 149
5.20209980 -0.48629999 2.79180002 142 142 142
5.18889999 -0.49790001 2.78509998 220 220 220
5.17869997 -0.50989997 2.78010011 204 204 204
5.16830015 -0.52149999 2.77500010 165 165 165
5.16060019 -0.53329998 2.77119994 154 154 154
5.15799999 -0.54589999 2.77040005 186 186 186
5.15280008 -0.55820000 2.76810002 193 193 193
5.14839983 -0.56999999 2.76620007 141 141 141
5.15019989 -0.58329999 2.76769996 163 163 163
5.15059996 -0.59600002 2.76850009 155 155 155
5.15360022 -0.60890001 2.77060008 193 193 193
5.15619993 -0.62220001 2.77259994 189 189 189
5.15819979 -0.63499999 2.77419996 160 160 160
5.16699982 -0.64870000 2.77959991 224 224 224
5.17309999 -0.66240001 2.78349996 136 136 136
5.18750000 -0.67690003 2.79189992 136 136 136
5.20160007 -0.69139999 2.80019999 144 144 144
5.22550011 -0.70789999 2.81380010 153 153 153
5.22569990 -0.47569999 2.78749990 129 129 129
5.19780016 -0.48570001 2.77300000 184 184 184
5.18639994 -0.49739999 2.76729989 220 220 220
5.17530012 -0.50940001 2.76180005 161 161 161
5.16470003 -0.52090001 2.75659990 154 154 154
5.15799999 -0.53280002 2.75349998 155 155 155
5.15579987 -0.54549998 2.75279999 205 205 205
5.14970016 -0.55760002 2.75009990 180 180 180
5.14960003 -0.56999999 2.75049996 237 237 237
5.14729977 -0.58279997 2.74979997 142 142 142
5.15010023 -0.59579998 2.75180006 204 204 204
5.15240002 -0.60860002 2.75359988 164 164 164
5.15500021 -0.62190002 2.75559998 164 164 164
5.15829992 -0.63480002 2.75790000 165 165 165
5.16450024 -0.64810002 2.76180005 194 194 194
5.17609978 -0.66259998 2.76869988 175 175 175
5.19159985 -0.67720002 2.77760005 163 163 163
5.20720005 -0.69199997 2.78660011 133 133 133
5.22270012 -0.70730001 2.79559994 150 150 150
5.21789980 -0.47479999 2.76679993 136 136 136
5.19700003 -0.48539999 2.75609994 166 166 166
5.18559980 -0.49710000 2.75049996 216 216 216
5.17439985 -0.50900000 2.74499989 188 188 188
5.16319990 -0.52060002 2.73950005 141 141 141
5.15840006 -0.53259999 2.73740005 137 137 137
5.15579987 -0.54530001 2.73650002 159 159 159
5.15059996 -0.55750000 2.73420000 167 167 167
5.14629984 -0.56940001 2.73239994 196 196 196
5.14809990 -0.58270001 2.73390007 178 178 178
5.15040016 -0.59560001 2.73569989 188 188 188
5.15339994 -0.60850000 2.73779988 170 170 170
5.15770006 -0.62199998 2.74060011 182 182 182
5.16020012 -0.63480002 2.74250007 210 210 210
5.16419983 -0.64789999 2.74530005 167 167 167
5.17539978 -0.66229999 2.75180006 158 158 158
5.19549990 -0.67750001 2.76320004 196 196 196
5.20590019 -0.69160002 2.76939988 148 148 148
5.22919989 -0.70800000 2.78239989 161 161 161
5.20830011 -0.47369999 2.74530005 143 143 143
5.19250011 -0.48480001 2.73729992 164 164 164
5.18100023 -0.49649999 2.73169994 160 160 160
5.17080021 -0.50849998 2.72679996 137 137 137
5.16440010 -0.52050000 2.72379994 196 196 196
5.15780020 -0.53230000 2.72079992 170 170 170
5.15189981 -0.54460001 2.71810007 177 177 177
5.14769983 -0.55690002 2.71639991 204 204 204
5.14830017 -0.56940001 2.71720004 177 177 177
5.14790010 -0.58240002 2.71749997 214 214 214
5.14949989 -0.59530002 2.71889997 199 199 199
5.15269995 -0.60820001 2.72110009 200 200 200
5.15500021 -0.62140000 2.72289991 211 211 211
5.16060019 -0.63470000 2.72650003 246 246 246
5.16699982 -0.64800000 2.73040009 196 196 196
5.17600012 -0.66210002 2.73580003 215 215 215
5.19320011 -0.67699999 2.74550009 148 148 148
5.22730017 -0.70749998 2.76480007 162 162 162
5.23999977 -0.46320000 2.74510002 88 88 88
5.20289993 -0.47299999 2.72609997 139 139 139
5.19029999 -0.48440000 2.71980000 151 151 151
5.18109989 -0.49620000 2.71539998 167 167 167
5.16660023 -0.50779998 2.70830011 146 146 146
5.16020012 -0.51980001 2.70530009 185 185 185
5.15339994 -0.53170002 2.70219994 222 222 222
5.15240002 -0.54449999 2.70210004 201 201 201
5.14559984 -0.55650002 2.69910002 194 194 194
5.14580011 -0.56889999 2.69959998 167 167 167
5.14610004 -0.58200002 2.70029998 196 196 196
5.14830017 -0.59490001 2.70199990 170 170 170
5.15310001 -0.60799998 2.70499992 198 198 198
5.15649986 -0.62140000 2.70740008 187 187 187
5.15810013 -0.63410002 2.70880008 235 235 235
5.16769981 -0.64789999 2.71449995 219 219 219
5.17740011 -0.66210002 2.72009993 159 159 159
5.19479990 -0.67699999 2.72989988 165 165 165
5.20889997 -0.69150001 2.73799992 170 170 170
5.23250008 -0.70800000 2.75110006 164 164 164
5.22889996 -0.46200001 2.72289991 113 113 113
5.20249987 -0.47270000 2.70950007 133 133 133
5.18499994 -0.48359999 2.70079994 141 141 141
5.17640018 -0.49559999 2.69670010 155 155 155
5.16450024 -0.50739998 2.69099998 124 124 124
5.15899992 -0.51950002 2.68849993 175 175 175
5.14979982 -0.53109998 2.68409991 166 166 166
5.14960003 -0.54400003 2.68449998 196 196 196
5.14680004 -0.55640000 2.68350005 215 215 215
5.14169979 -0.56819999 2.68129992 152 152 152
5.14400005 -0.58160001 2.68309999 153 153 153
5.14720011 -0.59460002 2.68519998 179 179 179
5.15049982 -0.60750002 2.68750000 206 206 206
5.15350008 -0.62080002 2.68959999 193 193 193
5.15799999 -0.63389999 2.69250011 234 234 234
5.16769981 -0.64770001 2.69819999 215 215 215
5.17859983 -0.66210002 2.70449996 168 168 168
5.19350004 -0.67659998 2.71289992 190 190 190
5.21019983 -0.69150001 2.72219992 128 128 128
5.23600006 -0.70819998 2.73639989 173 173 173
5.23540020 -0.46230000 2.70989990 85 85 85
5.19880009 -0.47209999 2.69129992 168 168 168
5.18540001 -0.48350000 2.68479991 122 122 122
5.17089987 -0.49480000 2.67759991 126 126 126
5.16209984 -0.50700003 2.67350006 126 126 126
5.15609980 -0.51899999 2.67079997 197 197 197
5.15049982 -0.53090000 2.66829991 172 172 172
5.14989996 -0.54380000 2.66849995 193 193 193
5.14599991 -0.55610001 2.66689992 200 200 200
5.14289999 -0.56809998 2.66580009 138 138 138
5.14599991 -0.58160001 2.66790009 149 149 149
5.14370012 -0.59399998 2.66729999 146 146 146
5.14909983 -0.60710001 2.67059994 235 235 235
5.15290022 -0.62050003 2.67309999 211 211 211
5.15640020 -0.63349998 2.67549992 184 184 184
5.16720009 -0.64740002 2.68169999 217 217 217
5.17959976 -0.66200000 2.68869996 160 160 160
5.19329977 -0.67629999 2.69650006 187 187 187
5.21199989 -0.69150001 2.70679998 155 155 155
5.23899984 -0.70840001 2.72149992 117 117 117
5.22259998 -0.46100000 2.68700004 145 145 145
5.19939995 -0.47200000 2.67540002 127 127 127
5.18260002 -0.48300001 2.66709995 165 165 165
5.17019987 -0.49460000 2.66120005 157 157 157
5.16060019 -0.50660002 2.65660000 171 171 171
5.15259981 -0.51840001 2.65289998 196 196 196
5.14809990 -0.53049999 2.65100002 201 201 201
5.14569998 -0.54310000 2.65019989 178 178 178
5.14419985 -0.55570000 2.64989996 209 209 209
5.14279985 -0.56790000 2.64969993 217 217 217
5.14330006 -0.58099997 2.65039992 189 189 189
5.14410019 -0.59380001 2.65140009 185 185 185
5.14909983 -0.60689998 2.65440011 201 201 201
5.15269995 -0.62029999 2.65689993 206 206 206
5.15560007 -0.63319999 2.65890002 229 229 229
5.16639996 -0.64709997 2.66510010 179 179 179
5.17710018 -0.66140002 2.67120004 160 160 160
5.19269991 -0.67600000 2.67980003 155 155 155
5.20930004 -0.69099998 2.68910003 157 157 157
5.23950005 -0.70829999 2.70530009 83 83 83
5.21330023 -0.45989999 2.66599989 155 155 155
5.19180012 -0.47110000 2.65529990 120 120 120
5.17799997 -0.48230001 2.64870000 123 123 123
5.16699982 -0.49399999 2.64339995 146 146 146
5.16020012 -0.50629997 2.64030004 152 152 152
5.14989996 -0.51789999 2.63540006 141 141 141
5.14750004 -0.53020000 2.63459992 231 231 231
5.14300013 -0.54259998 2.63280010 150 150 150
5.14179993 -0.55519998 2.63260007 225 225 225
5.14060020 -0.56750000 2.63249993 225 225 225
5.14330006 -0.58080000 2.63439989 151 151 151
5.14550018 -0.59369999 2.63599992 160 160 160
5.14970016 -0.60680002 2.63870001 216 216 216
5.15189981 -0.62000000 2.64039993 216 216 216
5.15490007 -0.63290000 2.64249992 225 225 225
5.16699982 -0.64690000 2.64919996 206 206 206
5.17850018 -0.66140002 2.65569997 186 186 186
5.19199991 -0.67570001 2.66319990 141 141 141
5.21250010 -0.69120002 2.67440009 142 142 142
5.22590017 -0.70620000 2.68190002 38 38 38
5.21180010 -0.45960000 2.64899993 112 112 112
5.18889999 -0.47060001 2.63770008 134 134 134
5.17640018 -0.48199999 2.63170004 189 189 189
5.16529989 -0.49360001 2.62649989 156 156 156
5.15640020 -0.50580001 2.62240005 192 192 192
5.14909983 -0.51760000 2.61899996 172 172 172
5.14389992 -0.52960002 2.61680007 161 161 161
5.14219999 -0.54229999 2.61640000 211 211 211
5.14109993 -0.55489999 2.61630011 227 227 227
5.13840008 -0.56699997 2.61540008 161 161 161
5.14260006 -0.58060002 2.61800003 168 168 168
5.14270020 -0.59320003 2.61859989 139 139 139
5.14690018 -0.60619998 2.62120008 194 194 194
5.15140009 -0.61970001 2.62409997 187 187 187
5.15549994 -0.63270003 2.62669992 210 210 210
5.16510010 -0.64649999 2.63210011 156 156 156
5.18030024 -0.66140002 2.64050007 180 180 180
5.19490004 -0.67589998 2.64849997 157 157 157
5.21140003 -0.69080001 2.65759993 146 146 146
5.20639992 -0.45890000 2.63010001 124 124 124
5.18410015 -0.46990001 2.61919999 151 151 151
5.17430019 -0.48159999 2.61459994 159 159 159
5.16249990 -0.49320000 2.60899997 153 153 153
5.15399981 -0.50529999 2.60520005 181 181 181
5.14930010 -0.51740003 2.60319996 193 193 193
5.14270020 -0.52929997 2.60019994 206 206 206
5.14050007 -0.54189998 2.59960008 180 180 180
5.13950014 -0.55460000 2.59949994 227 227 227
5.13899994 -0.56690001 2.59969997 238 238 238
5.13969994 -0.57999998 2.60060000 174 174 174
5.14219999 -0.59289998 2.60229993 147 147 147
5.14359999 -0.60560000 2.60349989 146 146 146
5.15150023 -0.61949998 2.60809994 131 131 131
5.15539980 -0.63249999 2.61059999 147 147 147
5.16459990 -0.64620000 2.61579990 232 232 232
5.17869997 -0.66100001 2.62360001 147 147 147
5.19540024 -0.67580003 2.63260007 125 125 125
5.21260023 -0.69080001 2.64199996 132 132 132
5.24340010 -0.44890001 2.63229990 43 43 43
5.20130014 -0.45820001 2.61150002 133 133 133
5.18349981 -0.46970001 2.60290003 201 201 201
5.17280006 -0.48120001 2.59789991 199 199 199
5.16099977 -0.49280000 2.59229994 170 170 170
5.15320015 -0.50500000 2.58879995 236 236 236
5.14429998 -0.51670003 2.58470011 208 208 208
5.14050007 -0.52880001 2.58319998 212 212 212
5.13679981 -0.54130000 2.58179998 224 224 224
5.13759995 -0.55409998 2.58270001 223 223 223
5.13780022 -0.56650001 2.58319998 228 228 228
5.14029980 -0.57990003 2.58489990 233 233 233
5.14470005 -0.59299999 2.58769989 229 229 229
5.14760017 -0.60589999 2.58960009 211 211 211
5.15369987 -0.61960000 2.59319997 190 190 190
5.15450001 -0.63220000 2.59419990 146 146 146
5.16590023 -0.64620000 2.60050011 252 252 252
5.17799997 -0.66070002 2.60719991 161 161 161
5.19680023 -0.67570001 2.61719990 136 136 136
5.21950006 -0.69150001 2.62919998 154 154 154
5.23420000 -0.44790000 2.61150002 108 108 108
5.19579983 -0.45750001 2.59270000 142 142 142
5.18130016 -0.46919999 2.58579993 190 190 190
5.17089987 -0.48080000 2.58100009 192 192 192
5.16009998 -0.49250001 2.57590008 255 255 255
5.15089989 -0.50459999 2.57170010 216 216 216
5.14349985 -0.51639998 2.56839991 254 254 254
5.13810015 -0.52840000 2.56609988 178 178 178
5.13430023 -0.54079998 2.56469989 218 218 218
5.13570023 -0.55369997 2.56579995 230 230 230
5.13710022 -0.56620002 2.56699991 205 205 205
5.13990021 -0.57959998 2.56879997 226 226 226
5.14499998 -0.59280002 2.57189989 250 250 250
5.14449978 -0.60530001 2.57209992 179 179 179
5.15609980 -0.61960000 2.57850003 173 173 173
5.15730000 -0.63230002 2.57960010 135 135 135
5.16480017 -0.64579999 2.58389997 234 234 234
5.17780018 -0.66049999 2.59100008 152 152 152
5.19689989 -0.67549998 2.60109997 128 128 128
5.22139978 -0.69150001 2.61400008 175 175 175
5.22469997 -0.44690001 2.59069991 91 91 91
5.19210005 -0.45699999 2.57489991 184 184 184
5.17899990 -0.46880001 2.56870008 220 220 220
5.16639996 -0.48019999 2.56279993 226 226 226
5.15479994 -0.49180001 2.55739999 192 192 192
5.14650011 -0.50389999 2.55369997 255 255 255
5.14139986 -0.51599997 2.55159998 238 238 238
5.13829994 -0.52819997 2.55040002 220 220 220
5.13399982 -0.54060000 2.54870009 216 216 216
5.13490009 -0.55339998 2.54959989 255 255 255
5.13710022 -0.56599998 2.55110002 255 255 255
5.14060020 -0.57950002 2.55340004 241 241 241
5.14379978 -0.59249997 2.55539989 239 239 239
5.14370012 -0.60500002 2.55590010 176 176 176
5.15380001 -0.61909997 2.56139994 210 210 210
5.15579987 -0.63190001 2.56299996 162 162 162
5.16209984 -0.64529997 2.56660008 133 133 133
5.18050003 -0.66060001 2.57640004 166 166 166
5.19630003 -0.67519999 2.58480000 134 134 134
5.22410011 -0.69160002 2.59920001 182 182 182
5.21369982 -0.44569999 2.56920004 138 138 138
5.18690014 -0.45629999 2.55640006 173 173 173
5.17630005 -0.46840000 2.55150008 236 236 236
5.16419983 -0.47979999 2.54590011 214 214 214
5.15250015 -0.49129999 2.54040003 237 237 237
5.14589977 -0.50370002 2.53760004 249 249 249
5.13870001 -0.51550001 2.53439999 204 204 204
5.13819981 -0.52800000 2.53460002 244 244 244
5.13329983 -0.54030001 2.53259993 223 223 223
5.13369989 -0.55309999 2.53320003 255 255 255
5.13539982 -0.56559998 2.53449988 231 231 231
5.14139986 -0.57940000 2.53800011 248 248 248
5.14289999 -0.59219998 2.53920007 162 162 162
5.14940023 -0.60549998 2.54290009 153 153 153
5.15390015 -0.61900002 2.54559994 213 213 213
5.15819979 -0.63200003 2.54830003 230 230 230
5.16540003 -0.64550000 2.55240011 166 166 166
5.18090010 -0.66039997 2.56060004 167 167 167
5.19649982 -0.67510003 2.56890011 119 119 119
5.22370005 -0.69139999 2.58290005 156 156 156
5.21040010 -0.44520000 2.55170012 159 159 159
5.18610001 -0.45600000 2.54010010 198 198 198
5.17240000 -0.46779999 2.53369999 229 229 229
5.16099977 -0.47929999 2.52850008 207 207 207
5.15080023 -0.49100000 2.52390003 223 223 223
5.14309978 -0.50319999 2.52040005 222 222 222
5.13870001 -0.51529998 2.51869988 202 202 202
5.13679981 -0.52759999 2.51810002 211 211 211
5.13339996 -0.54009998 2.51690006 229 229 229
5.13390017 -0.55290002 2.51760006 220 220 220
5.13479996 -0.56529999 2.51839995 233 233 233
5.14029980 -0.57900000 2.52160001 255 255 255
5.14150000 -0.59179997 2.52270007 162 162 162
5.14849997 -0.60509998 2.52659988 172 172 172
5.15220022 -0.61849999 2.52889991 152 152 152
5.15630007 -0.63160002 2.53150010 204 204 204
5.16359997 -0.64499998 2.53559995 118 118 118
5.18190002 -0.66039997 2.54520011 131 131 131
5.19969988 -0.67530000 2.55450010 128 128 128
5.23320007 -0.69239998 2.57150006 133 133 133
5.20139980 -0.44420001 2.53139997 121 121 121
5.18060017 -0.45530000 2.52160001 194 194 194
5.16779995 -0.46720001 2.51570010 198 198 198
5.15660000 -0.47860000 2.51060009 168 168 168
5.14739990 -0.49039999 2.50650001 220 220 220
5.14020014 -0.50269997 2.50329995 221 221 221
5.13730001 -0.51499999 2.50230002 194 194 194
5.13369989 -0.52710003 2.50090003 168 168 168
5.13089991 -0.53969997 2.50000000 225 225 225
5.13329983 -0.55260003 2.50160003 255 255 255
5.13600016 -0.56529999 2.50329995 239 239 239
5.13980007 -0.57880002 2.50559998 241 241 241
5.14219999 -0.59170002 2.50729990 153 153 153
5.15010023 -0.60509998 2.51160002 223 223 223
5.14989996 -0.61809999 2.51200008 165 165 165
5.15640020 -0.63139999 2.51570010 222 222 222
5.16760015 -0.64529997 2.52180004 183 183 183
5.18410015 -0.66039997 2.53029990 170 170 170
5.20209980 -0.67540002 2.53970003 117 117 117
5.23600006 -0.43450001 2.53200006 39 39 39
5.19250011 -0.44319999 2.51130009 145 145 145
5.17670012 -0.45480001 2.50390005 188 188 188
5.16730022 -0.46689999 2.49970007 217 217 217
5.15490007 -0.47830001 2.49399996 212 212 212
5.14620018 -0.49010000 2.49020004 228 228 228
5.13840008 -0.50230002 2.48679996 207 207 207
5.13600016 -0.51459998 2.48600006 237 237 237
5.13059998 -0.52660000 2.48370004 198 198 198
5.12939978 -0.53930002 2.48359990 224 224 224
5.13070011 -0.55210000 2.48460007 187 187 187
5.13460016 -0.56489998 2.48699999 243 243 243
5.13920021 -0.57849997 2.48970008 193 193 193
5.14459991 -0.59170002 2.49270010 186 186 186
5.14909983 -0.60479999 2.49539995 176 176 176
5.15150023 -0.61799997 2.49710011 157 157 157
5.15579987 -0.63110000 2.49970007 214 214 214
5.16590023 -0.64490002 2.50510001 195 195 195
5.18450022 -0.66030002 2.51469994 180 180 180
5.20190001 -0.67510003 2.52370000 107 107 107
5.22340012 -0.43320000 2.51009989 120 120 120
5.19280005 -0.44310001 2.49559999 139 139 139
5.17780018 -0.45460001 2.48869991 210 210 210
5.16389990 -0.46640000 2.48230004 223 223 223
5.15509987 -0.47810000 2.47849989 220 220 220
5.14519978 -0.48980001 2.47399998 232 232 232
5.13759995 -0.50199997 2.47079992 205 205 205
5.13430023 -0.51419997 2.46950006 170 170 170
5.12860012 -0.52609998 2.46720004 191 191 191
5.12830019 -0.53899997 2.46749997 208 208 208
5.13299990 -0.55220002 2.47009993 216 216 216
5.13439989 -0.56470001 2.47119999 249 249 249
5.13859987 -0.57819998 2.47370005 185 185 185
5.14620018 -0.59170002 2.47779989 188 188 188
5.14769983 -0.60439998 2.47900009 188 188 188
5.14830017 -0.61750001 2.47979999 178 178 178
5.15420008 -0.63069999 2.48320007 177 177 177
5.16790009 -0.64490002 2.49029994 164 164 164
5.18699980 -0.66039997 2.50009990 147 147 147
5.20179987 -0.67490000 2.50780010 113 113 113
5.21479988 -0.43230000 2.49009991 136 136 136
5.18499994 -0.44220001 2.47609997 192 192 192
5.17140007 -0.45390001 2.46989989 219 219 219
5.16270018 -0.46610001 2.46609998 235 235 235
5.15259981 -0.47760001 2.46160007 222 222 222
5.14300013 -0.48940000 2.45740008 227 227 227
5.13329983 -0.50139999 2.45309997 205 205 205
5.13339996 -0.51389998 2.45350003 175 175 175
5.12790012 -0.52590001 2.45129991 201 201 201
5.12750006 -0.53869998 2.45149994 212 212 212
5.13210011 -0.55190003 2.45409989 217 217 217
5.13509989 -0.56449997 2.45600009 184 184 184
5.14309978 -0.57849997 2.46020007 203 203 203
5.14709997 -0.59160000 2.46259999 201 201 201
5.14340019 -0.60369998 2.46129990 171 171 171
5.15030003 -0.61750001 2.46510005 233 233 233
5.15670013 -0.63080001 2.46869993 153 153 153
5.16879988 -0.64490002 2.47499990 144 144 144
5.18830013 -0.66039997 2.48490000 164 164 164
5.20749998 -0.67540002 2.49469995 172 172 172
5.20079994 -0.43090001 2.46770000 147 147 147
5.18219995 -0.44170001 2.45919991 194 194 194
5.16970015 -0.45350000 2.45350003 220 220 220
5.15740013 -0.46540001 2.44799995 242 242 242
5.14930010 -0.47710001 2.44449997 223 223 223
5.14160013 -0.48910001 2.44120002 246 246 246
5.13360023 -0.50120002 2.43770003 181 181 181
5.12790012 -0.51319999 2.43540001 227 227 227
5.12790012 -0.52569997 2.43569994 193 193 193
5.12629986 -0.53829998 2.43540001 237 237 237
5.13040018 -0.55150002 2.43770003 255 255 255
5.13380003 -0.56419998 2.43980002 216 216 216
5.14319992 -0.57830000 2.44470000 170 170 170
5.14330006 -0.59100002 2.44519997 184 184 184
5.14400005 -0.60360003 2.44600010 168 168 168
5.14870024 -0.61710000 2.44869995 236 236 236
5.15630007 -0.63050002 2.45289993 154 154 154
5.17119980 -0.64490002 2.46050000 156 156 156
5.18720007 -0.66000003 2.46860003 142 142 142
5.21360016 -0.67600000 2.48169994 121 121 121
5.19570017 -0.43030000 2.44959998 124 124 124
5.17980003 -0.44130000 2.44239998 178 178 178
5.16699982 -0.45310000 2.43659997 230 230 230
5.15640020 -0.46509999 2.43199992 220 220 220
5.14639997 -0.47659999 2.42750001 222 222 222
5.13740015 -0.48840001 2.42359996 214 214 214
5.13159990 -0.50080001 2.42129993 217 217 217
5.12790012 -0.51300001 2.41980004 183 183 183
5.12620020 -0.52530003 2.41950011 235 235 235
5.12550020 -0.53799999 2.41950011 205 205 205
5.12860012 -0.55110002 2.42140007 187 187 187
5.13530016 -0.56410003 2.42499995 186 186 186
5.14169979 -0.57789999 2.42840004 195 195 195
5.14340019 -0.59079999 2.42969990 156 156 156
5.14300013 -0.60329998 2.43000007 187 187 187
5.14669991 -0.61659998 2.43219995 135 135 135
5.15829992 -0.63059998 2.43820000 134 134 134
5.17240000 -0.64490002 2.44540000 159 159 159
5.18940020 -0.66009998 2.45400000 162 162 162
5.21549988 -0.67610002 2.46679997 173 173 173
5.19180012 -0.42969999 2.43210006 159 159 159
5.17659998 -0.44080001 2.42529988 201 201 201
5.15969992 -0.45220000 2.41759992 139 139 139
5.15089989 -0.46439999 2.41380000 149 149 149
5.14190006 -0.47600001 2.40989995 181 181 181
5.13469982 -0.48800001 2.40689993 157 157 157
5.12960005 -0.50040001 2.40479994 206 206 206
5.12349987 -0.51230001 2.40229988 141 141 141
5.12209988 -0.52460003 2.40199995 202 202 202
5.12309980 -0.53759998 2.40289998 142 142 142
5.12489986 -0.55049998 2.40420008 165 165 165
5.13390017 -0.56379998 2.40879989 186 186 186
5.13770008 -0.57730001 2.41100001 197 197 197
5.13749981 -0.58990002 2.41140008 176 176 176
5.14200020 -0.60290003 2.41400003 212 212 212
5.14779997 -0.61659998 2.41720009 198 198 198
5.16060019 -0.63069999 2.42370009 181 181 181
5.17549992 -0.64510000 2.43120003 174 174 174
5.18909979 -0.65979999 2.43810010 181 181 181
5.23559999 -0.67850000 2.46050000 147 147 147
5.18730021 -0.42910001 2.41450000 178 178 178
5.17269993 -0.44029999 2.40790009 231 231 231
5.15959978 -0.45199999 2.40210009 185 185 185
5.15030003 -0.46410000 2.39809990 218 218 218
5.13990021 -0.47560000 2.39350009 181 181 181
5.13070011 -0.48740000 2.38960004 150 150 150
5.12500000 -0.49970001 2.38730001 152 152 152
5.12370014 -0.51209998 2.38700008 165 165 165
5.12160015 -0.52440000 2.38639998 191 191 191
5.12470007 -0.53750002 2.38829994 144 144 144
5.12690020 -0.55049998 2.38969994 168 168 168
5.13679981 -0.56389999 2.39470005 195 195 195
5.13600016 -0.57690001 2.39479995 195 195 195
5.13710022 -0.58960003 2.39580011 205 205 205
5.13899994 -0.60240000 2.39709997 167 167 167
5.14540005 -0.61610001 2.40059996 172 172 172
5.15969992 -0.63029999 2.40770006 188 188 188
5.17409992 -0.64469999 2.41490006 162 162 162
5.18909979 -0.65960002 2.42249990 148 148 148
5.20819998 -0.41769999 2.40829992 97 97 97
5.18319988 -0.42860001 2.39700007 187 187 187
5.16839981 -0.43970001 2.39039993 215 215 215
5.15630007 -0.45150000 2.38509989 233 233 233
5.14499998 -0.46340001 2.38019991 160 160 160
5.13719988 -0.47510001 2.37689996 184 184 184
5.12879992 -0.48699999 2.37330008 165 165 165
5.12440014 -0.49950001 2.37159991 165 165 165
5.12300014 -0.51190001 2.37129998 207 207 207
5.11899996 -0.52389997 2.36980009 198 198 198
5.12270021 -0.53710002 2.37190008 222 222 222
5.12519979 -0.55010003 2.37350011 157 157 157
5.13509989 -0.56349999 2.37849998 165 165 165
5.13500023 -0.57660002 2.37890005 226 226 226
5.13469982 -0.58910000 2.37919998 211 211 211
5.13789988 -0.60200000 2.38109994 146 146 146
5.14690018 -0.61600000 2.38579988 234 234 234
5.15910006 -0.63010001 2.39190006 143 143 143
5.17539978 -0.64459997 2.40000010 154 154 154
5.19379997 -0.66000003 2.40899992 152 152 152
5.20039988 -0.41690001 2.38910007 113 113 113
5.17950010 -0.42809999 2.37980008 191 191 191
5.16590023 -0.43930000 2.37380004 227 227 227
5.15170002 -0.45089999 2.36759996 208 208 208
5.14330006 -0.46309999 2.36400008 196 196 196
5.13549995 -0.47479999 2.36069989 178 178 178
5.12580013 -0.48649999 2.35660005 161 161 161
5.12340021 -0.49919999 2.35579991 158 158 158
5.11929989 -0.51130003 2.35430002 159 159 159
5.12080002 -0.52389997 2.35529995 166 166 166
5.12230015 -0.53689998 2.35640001 214 214 214
5.12589979 -0.55000001 2.35850000 192 192 192
5.13210011 -0.56300002 2.36170006 189 189 189
5.13089991 -0.57590002 2.36159992 200 200 200
5.13290024 -0.58870000 2.36299992 206 206 206
5.13649988 -0.60170001 2.36509991 127 127 127
5.14779997 -0.61600000 2.37080002 137 137 137
5.16020012 -0.63000000 2.37700009 106 106 106
5.17780018 -0.64469999 2.38560009 129 129 129
5.19880009 -0.66039997 2.39569998 159 159 159
5.19519997 -0.41620001 2.37129998 157 157 157
5.17350006 -0.42739999 2.36159992 155 155 155
5.16009998 -0.43860000 2.35570002 130 130 130
5.14779997 -0.45030001 2.35039997 218 218 218
5.13670015 -0.46230000 2.34559989 146 146 146
5.13009977 -0.47409999 2.34290004 178 178 178
5.11630011 -0.48539999 2.33699989 181 181 181
5.11870003 -0.49849999 2.33839989 161 161 161
5.11819983 -0.51099998 2.33850002 170 170 170
5.11639977 -0.52319998 2.33800006 181 181 181
5.11940002 -0.53640002 2.33979988 198 198 198
5.12680006 -0.54990000 2.34360003 177 177 177
5.13070011 -0.56260002 2.34570003 211 211 211
5.13070011 -0.57569999 2.34619999 209 209 209
5.13259983 -0.58850002 2.34739995 221 221 221
5.13600016 -0.60140002 2.34949994 131 131 131
5.14779997 -0.61570001 2.35529995 162 162 162
5.15889978 -0.62959999 2.36089993 118 118 118
5.18020010 -0.64480001 2.37109995 136 136 136
5.20230007 -0.66070002 2.38179994 104 104 104
5.18769979 -0.41540000 2.35240006 147 147 147
5.17089987 -0.42690000 2.34500003 166 166 166
5.15600014 -0.43799999 2.33850002 169 169 169
5.14629984 -0.44999999 2.33439994 200 200 200
5.13579988 -0.46200001 2.32990003 147 147 147
5.12699986 -0.47360000 2.32620001 131 131 131
5.12069988 -0.48559999 2.32369995 138 138 138
5.11759996 -0.49820000 2.32259989 136 136 136
5.11369991 -0.51029998 2.32119989 153 153 153
5.11140013 -0.52249998 2.32049990 114 114 114
5.11590004 -0.53579998 2.32290006 204 204 204
5.12690020 -0.54970002 2.32830000 193 193 193
5.12330008 -0.56160003 2.32710004 141 141 141
5.12659979 -0.57499999 2.32900000 142 142 142
5.12979984 -0.58800000 2.33089995 149 149 149
5.13590002 -0.60119998 2.33410001 150 150 150
5.14519978 -0.61519998 2.33879995 186 186 186
5.16190004 -0.62980002 2.34680009 113 113 113
5.18349981 -0.64499998 2.35719991 104 104 104
5.20730019 -0.66109997 2.36849999 156 156 156
5.18300009 -0.41479999 2.33489990 165 165 165
5.16860008 -0.42649999 2.32870007 177 177 177
5.15700006 -0.43790001 2.32369995 162 162 162
5.14499998 -0.44970000 2.31850004 153 153 153
5.13409996 -0.46160001 2.31389999 163 163 163
5.12729979 -0.47340000 2.31110001 183 183 183
5.12400007 -0.48570001 2.30999994 172 172 172
5.11969995 -0.49820000 2.30839992 181 181 181
5.11469984 -0.51020002 2.30640006 186 186 186
5.11479998 -0.52270001 2.30679989 156 156 156
5.11619997 -0.53560001 2.30780005 193 193 193
5.12099981 -0.54879999 2.31040001 171 171 171
5.12349987 -0.56140000 2.31189990 155 155 155
5.12699986 -0.57489997 2.31389999 157 157 157
5.12939978 -0.58770001 2.31539989 123 123 123
5.13660002 -0.60110003 2.31909990 148 148 148
5.14659977 -0.61519998 2.32410002 113 113 113
5.16069984 -0.62940001 2.33089995 128 128 128
5.18020010 -0.64440000 2.34019995 108 108 108
5.20699978 -0.66090000 2.35279989 157 157 157
5.20909977 -0.40380001 2.33100009 128 128 128
5.18079996 -0.41450000 2.31859994 141 141 141
5.16450024 -0.42600000 2.31150007 160 160 160
5.15390015 -0.43740001 2.30699992 149 149 149
5.14340019 -0.44929999 2.30259991 206 206 206
5.13450003 -0.46140000 2.29889989 145 145 145
5.12570000 -0.47310001 2.29520011 146 146 146
5.12060022 -0.48519999 2.29320002 175 175 175
5.11770010 -0.49779999 2.29229999 174 174 174
5.11439991 -0.50999999 2.29110003 183 183 183
5.11210012 -0.52219999 2.29049993 132 132 132
5.11560011 -0.53539997 2.29239988 119 119 119
5.11920023 -0.54839998 2.29439998 155 155 155
5.12069988 -0.56089997 2.29539990 156 156 156
5.12550020 -0.57450002 2.29800010 163 163 163
5.13070011 -0.58770001 2.30080009 160 160 160
5.13749981 -0.60100001 2.30430007 214 214 214
5.14429998 -0.61470002 2.30769992 152 152 152
5.16020012 -0.62919998 2.31529999 141 141 141
5.17969990 -0.64420003 2.32459998 118 118 118
5.20989990 -0.66100001 2.33870006 159 159 159
5.21140003 -0.40380001 2.31660008 121 121 121
5.18130016 -0.41429999 2.30349994 120 120 120
5.16209984 -0.42559999 2.29520011 112 112 112
5.15189981 -0.43709999 2.29089999 168 168 168
5.14470005 -0.44920000 2.28789997 242 242 242
5.13609982 -0.46140000 2.28439999 188 188 188
5.12489986 -0.47279999 2.27970004 138 138 138
5.12309980 -0.48519999 2.27920008 128 128 128
5.12080002 -0.49790001 2.27850008 242 242 242
5.11460018 -0.50980002 2.27609992 168 168 168
5.11329985 -0.52209997 2.27579999 183 183 183
5.11530018 -0.53509998 2.27710009 160 160 160
5.11770010 -0.54809999 2.27859998 167 167 167
5.12109995 -0.56070000 2.28040004 134 134 134
5.12650013 -0.57440001 2.28329992 206 206 206
5.13299990 -0.58770001 2.28660011 162 162 162
5.13710022 -0.60070002 2.28880000 222 222 222
5.14650011 -0.61479998 2.29349995 141 141 141
5.16379976 -0.62940001 2.30170012 180 180 180
5.18009996 -0.64399999 2.30940008 188 188 188
5.22720003 -0.66299999 2.33089995 107 107 107
5.20499992 -0.40310001 2.29839993 140 140 140
5.18079996 -0.41400000 2.28789997 134 134 134
5.16200018 -0.42539999 2.27990007 131 131 131
5.15100002 -0.43680000 2.27530003 212 212 212
5.14370012 -0.44890001 2.27230000 186 186 186
5.13310003 -0.46090001 2.26789999 185 185 185
5.12860012 -0.47290000 2.26620007 173 173 173
5.12029982 -0.48480001 2.26279998 171 171 171
5.11810017 -0.49739999 2.26220012 231 231 231
5.11560011 -0.50970000 2.26139998 140 140 140
5.11560011 -0.52209997 2.26169991 144 144 144
5.11390018 -0.53479999 2.26139998 166 166 166
5.11770010 -0.54790002 2.26340008 134 134 134
5.12039995 -0.56050003 2.26500010 153 153 153
5.12820005 -0.57440001 2.26880002 200 200 200
5.13170004 -0.58740002 2.27080011 201 201 201
5.13259983 -0.60000002 2.27160001 143 143 143
5.14729977 -0.61470002 2.27859998 126 126 126
5.16270018 -0.62910002 2.28579998 153 153 153
5.18079996 -0.64389998 2.29439998 193 193 193
5.23220015 -0.66350001 2.31760001 108 108 108
5.20240021 -0.40259999 2.28189993 160 160 160
5.17740011 -0.41360000 2.27119994 175 175 175
5.16209984 -0.42519999 2.26480007 170 170 170
5.15059996 -0.43650001 2.25990009 154 154 154
5.14209986 -0.44859999 2.25650001 160 160 160
5.13030005 -0.46050000 2.25149989 154 154 154
5.12610006 -0.47250000 2.25000000 237 237 237
5.11980009 -0.48449999 2.24749994 156 156 156
5.11509991 -0.49689999 2.24580002 135 135 135
5.11800003 -0.50970000 2.24740005 255 255 255
5.11520004 -0.52190000 2.24650002 169 169 169
5.11719990 -0.53490001 2.24769998 134 134 134
5.11910009 -0.54780000 2.24889994 153 153 153
5.11689997 -0.55989999 2.24830008 165 165 165
5.12760019 -0.58670002 2.25379992 198 198 198
5.12860012 -0.59930003 2.25469995 126 126 126
5.14760017 -0.61449999 2.26349998 146 146 146
5.16410017 -0.62910002 2.27119994 126 126 126
5.18030024 -0.64359999 2.27880001 200 200 200
5.19890022 -0.40220001 2.26519990 186 186 186
5.17700005 -0.41330001 2.25580001 156 156 156
5.16209984 -0.42500001 2.24959993 149 149 149
5.15100002 -0.43640000 2.24499989 140 140 140
5.14190006 -0.44839999 2.24119997 177 177 177
5.13240004 -0.46039999 2.23740005 173 173 173
5.12570000 -0.47220001 2.23480010 181 181 181
5.12020016 -0.48429999 2.23270011 219 219 219
5.11789989 -0.49700001 2.23200011 235 235 235
5.11789989 -0.50950003 2.23230004 194 194 194
5.11609983 -0.52179998 2.23180008 181 181 181
5.11789989 -0.53479999 2.23300004 152 152 152
5.12060022 -0.54780000 2.23449993 220 220 220
5.12209988 -0.56019998 2.23550010 198 198 198
5.12209988 -0.57330000 2.23600006 184 184 184
5.12629986 -0.58639997 2.23819995 161 161 161
5.13210011 -0.59950000 2.24110007 131 131 131
5.14720011 -0.61430001 2.24819994 141 141 141
5.16419983 -0.62889999 2.25609994 154 154 154
5.18109989 -0.64349997 2.26390004 181 181 181
5.19420004 -0.40160000 2.24790001 168 168 168
5.17749977 -0.41310000 2.24090004 130 130 130
5.16009998 -0.42460001 2.23359990 133 133 133
5.15110016 -0.43619999 2.22989988 224 224 224
5.14010000 -0.44800001 2.22539997 165 165 165
5.13280010 -0.46030000 2.22250009 210 210 210
5.12510014 -0.47200000 2.21939993 212 212 212
5.12090015 -0.48420000 2.21790004 224 224 224
5.11810017 -0.49680001 2.21700001 228 228 228
5.11560011 -0.50910002 2.21630001 186 186 186
5.11579990 -0.52160001 2.21670008 197 197 197
5.11859989 -0.53469998 2.21830010 191 191 191
5.12029982 -0.54750001 2.21939993 147 147 147
5.12290001 -0.56010002 2.22079992 199 199 199
5.12410021 -0.57330000 2.22180009 186 186 186
5.12739992 -0.58630002 2.22359991 171 171 171
5.13269997 -0.59939998 2.22630000 181 181 181
5.14799976 -0.61420000 2.23340011 147 147 147
5.16440010 -0.62870002 2.24090004 136 136 136
5.18429995 -0.64370000 2.25000000 103 103 103
5.19369984 -0.40140000 2.23250008 169 169 169
5.17199993 -0.41249999 2.22340012 163 163 163
5.14909983 -0.43579999 2.21399999 196 196 196
5.13959980 -0.44780001 2.21009994 208 208 208
5.13070011 -0.45989999 2.20659995 219 219 219
5.12340021 -0.47160000 2.20370007 189 189 189
5.11789989 -0.48370001 2.20160007 217 217 217
5.11810017 -0.49660000 2.20199990 221 221 221
5.11439991 -0.50880003 2.20079994 211 211 211
5.11469984 -0.52120000 2.20120001 193 193 193
5.11789989 -0.53439999 2.20300007 188 188 188
5.12109995 -0.54740000 2.20469999 172 172 172
5.12150002 -0.55980003 2.20519996 214 214 214
5.12459993 -0.57319999 2.20700002 211 211 211
5.12970018 -0.58639997 2.20950007 210 210 210
5.13420010 -0.59939998 2.21190000 142 142 142
5.15000010 -0.61420000 2.21910000 140 140 140
5.16750002 -0.62889999 2.22709990 128 128 128
5.18459988 -0.64359999 2.23490000 120 120 120
5.19169998 -0.40099999 2.21650004 151 151 151
5.17299986 -0.41240001 2.20869994 178 178 178
5.15469980 -0.42370000 2.20110011 142 142 142
5.14599991 -0.43529999 2.19759989 151 151 151
5.13770008 -0.44740000 2.19429994 227 227 227
5.12939978 -0.45960000 2.19109988 213 213 213
5.12190008 -0.47130001 2.18810010 172 172 172
5.11549997 -0.48330000 2.18569994 173 173 173
5.11539984 -0.49620000 2.18589997 200 200 200
5.11530018 -0.50870001 2.18619990 212 212 212
5.11539984 -0.52109998 2.18659997 190 190 190
5.11679983 -0.53410000 2.18750000 209 209 209
5.12090015 -0.54720002 2.18959999 162 162 162
5.12230015 -0.55970001 2.19059992 204 204 204
5.12470007 -0.57300001 2.19199991 212 212 212
5.13059998 -0.58630002 2.19490004 188 188 188
5.13789988 -0.59960002 2.19849992 185 185 185
5.15450001 -0.61449999 2.20600009 165 165 165
5.16699982 -0.62860000 2.21169996 137 137 137
5.18830013 -0.64380002 2.22129989 115 115 115
5.19000006 -0.40070000 2.20059991 143 143 143
5.17030001 -0.41200000 2.19250011 160 160 160
5.15549994 -0.42359999 2.18650007 222 222 222
5.14559984 -0.43509999 2.18249989 193 193 193
5.13700008 -0.44710001 2.17910004 221 221 221
5.12729979 -0.45919999 2.17519999 228 228 228
5.11950016 -0.47090000 2.17219996 199 199 199
5.11850023 -0.48339999 2.17199993 162 162 162
5.11649990 -0.49610001 2.17149997 254 254 254
5.11189985 -0.50809997 2.16980004 159 159 159
5.11469984 -0.52079999 2.17140007 193 193 193
5.11670017 -0.53390002 2.17249990 198 198 198
5.11840010 -0.54670000 2.17359996 187 187 187
5.12349987 -0.55960000 2.17610002 250 250 250
5.12610006 -0.57300001 2.17759991 203 203 203
5.13100004 -0.58609998 2.18009996 232 232 232
5.13889980 -0.59950000 2.18390012 193 193 193
5.15390015 -0.61430001 2.19059992 160 160 160
5.17010021 -0.62879997 2.19799995 196 196 196
5.19159985 -0.64399999 2.20760012 119 119 119
5.18790007 -0.40030000 2.18470001 177 177 177
5.16820002 -0.41159999 2.17659998 139 139 139
5.15430021 -0.42330000 2.17090011 160 160 160
5.14419985 -0.43480000 2.16689992 196 196 196
5.13490009 -0.44679999 2.16330004 193 193 193
5.12659979 -0.45890000 2.16000009 225 225 225
5.11910009 -0.47060001 2.15709996 178 178 178
5.11569977 -0.48289999 2.15599990 191 191 191
5.11439991 -0.49559999 2.15569997 198 198 198
5.11499977 -0.50819999 2.15619993 205 205 205
5.11439991 -0.52060002 2.15630007 196 196 196
5.11700010 -0.53369999 2.15770006 189 189 189
5.11630011 -0.54629999 2.15779996 149 149 149
5.12319994 -0.55940002 2.16109991 192 192 192
5.12620020 -0.57279998 2.16269994 244 244 244
5.13100004 -0.58590001 2.16510010 214 214 214
5.14050007 -0.59950000 2.16950011 204 204 204
5.15889978 -0.61470002 2.17770004 138 138 138
5.17119980 -0.62870002 2.18330002 139 139 139
5.19469976 -0.64420003 2.19370008 138 138 138
5.21969986 -0.39019999 2.18269992 0 0 0
5.18800020 -0.40009999 2.16969991 187 187 187
5.16359997 -0.41100001 2.15969992 144 144 144
5.15240002 -0.42289999 2.15520000 169 169 169
5.14359999 -0.43450001 2.15170002 154 154 154
5.13360023 -0.44639999 2.14779997 231 231 231
5.12200022 -0.45829999 2.14319992 147 147 147
5.11870003 -0.47040001 2.14210010 237 237 237
5.11369991 -0.48249999 2.14030004 164 164 164
5.11420012 -0.49540001 2.14080000 211 211 211
5.11269999 -0.50779998 2.14039993 210 210 210
5.11350012 -0.52029997 2.14109993 190 190 190
5.11479998 -0.53329998 2.14199996 177 177 177
5.11829996 -0.54629999 2.14380002 179 179 179
5.12099981 -0.55890000 2.14520001 160 160 160
5.12580013 -0.57249999 2.14770007 181 181 181
5.13040018 -0.58560002 2.15000010 212 212 212
5.14300013 -0.59960002 2.15560007 226 226 226
5.15719986 -0.61430001 2.16199994 143 143 143
5.17290020 -0.62870002 2.16899991 144 144 144
5.18879986 -0.64330000 2.17610002 110 110 110
5.18610001 -0.39969999 2.15389991 180 180 180
5.16450024 -0.41090000 2.14510012 141 141 141
5.15170002 -0.42269999 2.14000010 189 189 189
5.13990021 -0.43399999 2.13529992 160 160 160
5.13019991 -0.44589999 2.13150001 190 190 190
5.12099981 -0.45800000 2.12800002 148 148 148
5.11889982 -0.47020000 2.12739992 231 231 231
5.11269999 -0.48220000 2.12500000 156 156 156
5.11070013 -0.49489999 2.12450004 178 178 178
5.11320019 -0.50760001 2.12579989 186 186 186
5.11210012 -0.51999998 2.12570000 220 220 220
5.11509991 -0.53310001 2.12730002 169 169 169
5.11920023 -0.54619998 2.12930012 162 162 162
5.12020016 -0.55870003 2.13010001 151 151 151
5.12620020 -0.57239997 2.13299990 237 237 237
5.13170004 -0.58560002 2.13560009 169 169 169
5.14239979 -0.59930003 2.14039993 220 220 220
5.15889978 -0.61430001 2.14770007 145 145 145
5.17070007 -0.62830001 2.15310001 132 132 132
5.20109987 -0.64459997 2.16619992 181 181 181
5.21850014 -0.38970000 2.15210009 95 95 95
5.18079996 -0.39910001 2.13669991 138 138 138
5.16260004 -0.41049999 2.12940001 149 149 149
5.14830017 -0.42219999 2.12369990 162 162 162
5.13719988 -0.43360001 2.11940002 147 147 147
5.12760019 -0.44549999 2.11560011 197 197 197
5.12319994 -0.45800000 2.11400008 163 163 163
5.11679983 -0.46980000 2.11170006 199 199 199
5.11269999 -0.48199999 2.11019993 194 194 194
5.11140013 -0.49480000 2.10999990 136 136 136
5.11219978 -0.50739998 2.11059999 160 160 160
5.11289978 -0.51990002 2.11120009 230 230 230
5.11409998 -0.53280002 2.11199999 143 143 143
5.11770010 -0.54589999 2.11389995 181 181 181
5.11840010 -0.55830002 2.11450005 154 154 154
5.12389994 -0.57190001 2.11710000 195 195 195
5.13420010 -0.58569998 2.12179995 164 164 164
5.14580011 -0.59950000 2.12689996 212 212 212
5.16260004 -0.61449999 2.13429999 223 223 223
5.16960001 -0.62790000 2.13759995 159 159 159
5.20450020 -0.64480001 2.15249991 129 129 129
5.21150017 -0.38900000 2.13420010 111 111 111
5.17679977 -0.39860001 2.12010002 144 144 144
5.15880013 -0.41000000 2.11299992 144 144 144
5.14820004 -0.42199999 2.10890007 140 140 140
5.13859987 -0.43349999 2.10509992 192 192 192
5.12989998 -0.44549999 2.10179996 209 209 209
5.11959982 -0.45750001 2.09780002 149 149 149
5.11390018 -0.46939999 2.09570003 189 189 189
5.11460018 -0.48199999 2.09629989 254 254 254
