2.46620011 -4.46589994 -1.18390000 255 255 255 1217.000000
2.48720002 -4.47819996 -1.18830001 255 255 255 753.000000
2.51719999 -4.48899984 -1.19470000 255 255 255 1153.000000
2.52049994 -4.50260019 -1.19519997 255 255 255 929.000000
2.53360009 -4.51590014 -1.19790006 255 255 255 897.000000
2.56879997 -4.54069996 -1.20529997 255 255 255 993.000000
2.17630005 -3.82259989 -1.15550005 255 255 255 1873.000000
2.17280006 -3.83680010 -1.15409994 255 255 255 1601.000000
2.16899991 -3.85050011 -1.15260005 255 255 255 2033.000000
2.16520000 -3.86509991 -1.15110004 255 255 255 2033.000000
2.16580009 -3.87809992 -1.15059996 255 255 255 2033.000000
2.17100000 -3.89019990 -1.15120006 255 255 255 2033.000000
2.17059994 -3.90389991 -1.15050006 255 255 255 753.000000
2.16520000 -3.91829991 -1.14870000 255 255 255 721.000000
2.15829992 -3.93260002 -1.14649999 255 255 255 1057.000000
2.15300012 -3.94729996 -1.14470005 255 255 255 1153.000000
2.14240003 -3.96230006 -1.14170003 255 255 255 1121.000000
2.13980007 -3.97600007 -1.14059997 255 255 255 1089.000000
2.13509989 -3.99029994 -1.13900006 255 255 255 257.000000
2.13039994 -4.00419998 -1.13730001 255 255 255 305.000000
2.12159991 -4.01889992 -1.13479996 255 255 255 289.000000
2.11669993 -4.03310013 -1.13310003 255 255 255 -79.000000
2.11190009 -4.04689980 -1.13160002 255 255 255 1.000000
2.10419989 -4.06090021 -1.12930000 255 255 255 -191.000000
2.09949994 -4.07490015 -1.12769997 255 255 255 -255.000000
2.09389997 -4.08890009 -1.12600005 255 255 255 -207.000000
2.09050012 -4.10209990 -1.12469995 255 255 255 433.000000
2.08750010 -4.11619997 -1.12349999 255 255 255 433.000000
2.08520007 -4.12939978 -1.12259996 255 255 255 433.000000
2.08570004 -4.14219999 -1.12220001 255 255 255 1617.000000
2.08080006 -4.15609980 -1.12059999 255 255 255 1409.000000
2.07570004 -4.16940022 -1.11909997 255 255 255 1249.000000
2.06970000 -4.18310022 -1.11730003 255 255 255 1073.000000
2.07570004 -4.19519997 -1.11819994 255 255 255 2033.000000
2.18829989 -4.19189978 -1.14330006 255 255 255 1233.000000
2.19880009 -4.20349979 -1.14530003 255 255 255 1409.000000
2.19930005 -4.21680021 -1.14489996 255 255 255 1489.000000
2.21819997 -4.22739983 -1.14880002 255 255 255 833.000000
2.21869993 -4.24009991 -1.14859998 255 255 255 529.000000
2.25869989 -4.24830008 -1.15719998 255 255 255 1521.000000
2.26559997 -4.26030016 -1.15840006 255 255 255 1425.000000
2.26929998 -4.27279997 -1.15890002 255 255 255 1713.000000
2.27900004 -4.28529978 -1.16069996 255 255 255 1185.000000
2.28250003 -4.29809999 -1.16110003 255 255 255 1297.000000
2.29949999 -4.30880022 -1.16460001 255 255 255 1265.000000
2.31789994 -4.32019997 -1.16840005 255 255 255 1233.000000
2.32170010 -4.33290005 -1.16890001 255 255 255 1297.000000
2.33270001 -4.34460020 -1.17110002 255 255 255 1425.000000
2.33599997 -4.35790014 -1.17149997 255 255 255 1473.000000
2.33899999 -4.37080002 -1.17180002 255 255 255 1553.000000
2.34789991 -4.38280010 -1.17359996 255 255 255 1281.000000
2.36800003 -4.39429998 -1.17780006 255 255 255 1281.000000
2.38260007 -4.40670013 -1.18079996 255 255 255 1521.000000
2.39210010 -4.41860008 -1.18260002 255 255 255 1457.000000
2.40140009 -4.43130016 -1.18439996 255 255 255 1393.000000
2.41389990 -4.44390011 -1.18700004 255 255 255 1457.000000
2.42849994 -4.45550013 -1.19000006 255 255 255 1313.000000
2.43959999 -4.46820021 -1.19219995 255 255 255 1329.000000
2.45250010 -4.48110008 -1.19490004 255 255 255 913.000000
2.46530008 -4.49319983 -1.19749999 255 255 255 913.000000
2.47729993 -4.50600004 -1.20000005 255 255 255 1313.000000
2.49230003 -4.51900005 -1.20309997 255 255 255 1201.000000
2.52679992 -4.54360008 -1.21039999 255 255 255 1233.000000
2.52889991 -4.55770016 -1.21070004 255 255 255 1665.000000
2.17289996 -3.83690000 -1.16799998 255 255 255 2033.000000
2.16820002 -3.85069990 -1.16630006 255 255 255 2001.000000
2.16079998 -3.86599994 -1.16390002 255 255 255 1633.000000
2.15689993 -3.87989998 -1.16240001 255 255 255 1681.000000
2.16619992 -3.89109993 -1.16390002 255 255 255 2033.000000
2.16890001 -3.90429997 -1.16390002 255 255 255 385.000000
2.16319990 -3.91869998 -1.16199994 255 255 255 1073.000000
2.15639997 -3.93300009 -1.15989995 255 255 255 961.000000
2.15019989 -3.94790006 -1.15779996 255 255 255 1169.000000
2.13949990 -3.96289992 -1.15480006 255 255 255 1265.000000
2.13450003 -3.97700000 -1.15310001 255 255 255 1105.000000
2.12709999 -3.99180007 -1.15079999 255 255 255 1121.000000
2.12010002 -4.00600004 -1.14859998 255 255 255 865.000000
2.11209989 -4.02059984 -1.14629996 255 255 255 673.000000
2.10719991 -4.03469992 -1.14460003 255 255 255 785.000000
2.09910011 -4.04909992 -1.14219999 255 255 255 449.000000
2.09069991 -4.06320000 -1.13979995 255 255 255 257.000000
2.08369994 -4.07749987 -1.13759995 255 255 255 337.000000
2.07820010 -4.09149981 -1.13590002 255 255 255 225.000000
2.07769990 -4.10419989 -1.13530004 255 255 255 369.000000
2.07649994 -4.11800003 -1.13450003 255 255 255 193.000000
2.07629991 -4.13079977 -1.13399994 255 255 255 849.000000
2.07299995 -4.14419985 -1.13279998 255 255 255 1201.000000
2.06949997 -4.15789986 -1.13150001 255 255 255 1873.000000
2.06430006 -4.17110014 -1.12989998 255 255 255 1825.000000
2.05960011 -4.18459988 -1.12839997 255 255 255 1761.000000
2.05990005 -4.19750023 -1.12800002 255 255 255 2033.000000
2.09200001 -4.20550013 -1.13499999 255 255 255 1489.000000
2.17510009 -4.20679998 -1.15359998 255 255 255 1697.000000
2.17199993 -4.22049999 -1.15250003 255 255 255 1729.000000
2.18880010 -4.23129988 -1.15590000 255 255 255 1041.000000
2.24160004 -4.23710012 -1.16760004 255 255 255 1041.000000
2.25589991 -4.24870014 -1.17050004 255 255 255 1489.000000
2.26029992 -4.26100016 -1.17110002 255 255 255 1457.000000
2.21589994 -4.27939987 -1.16059995 255 255 255 897.000000
2.25250006 -4.28849983 -1.16859996 255 255 255 1009.000000
2.20980000 -4.30679989 -1.15840006 255 255 255 1473.000000
2.27999997 -4.31110001 -1.17410004 255 255 255 1057.000000
2.29550004 -4.32280016 -1.17729998 255 255 255 865.000000
2.29870009 -4.33549976 -1.17770004 255 255 255 993.000000
2.31229997 -4.34679985 -1.18050003 255 255 255 945.000000
2.31949997 -4.35960007 -1.18180001 255 255 255 1121.000000
2.32570004 -4.37220001 -1.18289995 255 255 255 1601.000000
2.33400011 -4.38420010 -1.18449998 255 255 255 1489.000000
2.34780002 -4.39629984 -1.18729997 255 255 255 1393.000000
2.36360002 -4.40850019 -1.19060004 255 255 255 1505.000000
2.36649990 -4.42100000 -1.19099998 255 255 255 1329.000000
2.37739992 -4.43349981 -1.19319999 255 255 255 1409.000000
2.40079999 -4.44509983 -1.19819999 255 255 255 1313.000000
2.41050005 -4.45699978 -1.20019996 255 255 255 1297.000000
2.42499995 -4.46950006 -1.20319998 255 255 255 1441.000000
2.42930007 -4.48299980 -1.20389998 255 255 255 1217.000000
2.43269992 -4.49580002 -1.20449996 255 255 255 1441.000000
2.44309998 -4.50860023 -1.20659995 255 255 255 1361.000000
2.46519995 -4.52099991 -1.21140003 255 255 255 1489.000000
2.47329998 -4.53340006 -1.21300006 255 255 255 1713.000000
2.49040008 -4.54619980 -1.21669996 255 255 255 1457.000000
2.50099993 -4.55950022 -1.21879995 255 255 255 993.000000
2.16560006 -3.83839989 -1.18009996 255 255 255 1825.000000
2.16300011 -3.85179996 -1.17890000 255 255 255 1969.000000
2.15639997 -3.86689997 -1.17670000 255 255 255 1553.000000
2.15730000 -3.87980008 -1.17630005 255 255 255 2033.000000
2.16540003 -3.89129996 -1.17760003 255 255 255 2033.000000
2.17400002 -3.90330005 -1.17900002 255 255 255 897.000000
2.16709995 -3.91799998 -1.17670000 255 255 255 897.000000
2.16009998 -3.93230009 -1.17449999 255 255 255 1025.000000
2.15429997 -3.94709992 -1.17260003 255 255 255 1073.000000
2.14689994 -3.96149993 -1.17019999 255 255 255 1249.000000
2.12930012 -3.97799993 -1.16559994 255 255 255 1521.000000
2.12459993 -3.99230003 -1.16390002 255 255 255 1681.000000
2.12039995 -4.00600004 -1.16240001 255 255 255 1153.000000
2.11360002 -4.02040005 -1.16020000 255 255 255 945.000000
2.10290003 -4.03550005 -1.15719998 255 255 255 609.000000
2.09389997 -4.05009985 -1.15460002 255 255 255 609.000000
2.07820010 -4.06529999 -1.15040004 255 255 255 689.000000
2.07279992 -4.07940006 -1.14870000 255 255 255 929.000000
2.06570005 -4.09359980 -1.14649999 255 255 255 433.000000
2.06229997 -4.10669994 -1.14520001 255 255 255 257.000000
2.06399989 -4.11999989 -1.14510000 255 255 255 113.000000
2.06999993 -4.13180017 -1.14600003 255 255 255 1009.000000
2.07500005 -4.14389992 -1.14670002 255 255 255 737.000000
2.07049990 -4.15770006 -1.14520001 255 255 255 929.000000
2.06450009 -4.17110014 -1.14339995 255 255 255 1409.000000
2.08209991 -4.18130016 -1.14699996 255 255 255 1201.000000
2.09590006 -4.19239998 -1.14979994 255 255 255 1281.000000
2.17009997 -4.19449997 -1.16659999 255 255 255 1169.000000
2.18720007 -4.20510006 -1.17009997 255 255 255 1345.000000
2.18759990 -4.21840000 -1.16980004 255 255 255 1521.000000
2.19460011 -4.23059988 -1.17100000 255 255 255 1137.000000
2.22659993 -4.23909998 -1.17799997 255 255 255 1441.000000
2.24589992 -4.25000000 -1.18210006 255 255 255 1633.000000
2.24819994 -4.26249981 -1.18219995 255 255 255 1617.000000
2.20560002 -4.28070021 -1.17200005 255 255 255 881.000000
2.17350006 -4.29809999 -1.16419995 255 255 255 1457.000000
2.23839998 -4.30340004 -1.17879999 255 255 255 1041.000000
2.26469994 -4.32630014 -1.18420005 255 255 255 785.000000
2.26920009 -4.33879995 -1.18490005 255 255 255 993.000000
2.27440000 -4.35099983 -1.18570006 255 255 255 817.000000
2.25379992 -4.36670017 -1.18069994 255 255 255 881.000000
2.31019998 -4.37389994 -1.19340003 255 255 255 1201.000000
2.32240009 -4.38539982 -1.19589996 255 255 255 1377.000000
2.33179998 -4.39790010 -1.19770002 255 255 255 1489.000000
2.34010005 -4.41079998 -1.19930005 255 255 255 1489.000000
2.35030007 -4.42250013 -1.20140004 255 255 255 1569.000000
2.36310005 -4.43480015 -1.20410001 255 255 255 1121.000000
2.37639999 -4.44729996 -1.20679998 255 255 255 1537.000000
2.38509989 -4.45930004 -1.20860004 255 255 255 1537.000000
2.39759994 -4.47179985 -1.21120000 255 255 255 961.000000
2.40549994 -4.48500013 -1.21280003 255 255 255 1361.000000
2.40969992 -4.49770021 -1.21350002 255 255 255 1185.000000
2.41659999 -4.51070023 -1.21480000 255 255 255 1073.000000
2.43269992 -4.52339983 -1.21829998 255 255 255 1313.000000
2.44440007 -4.53550005 -1.22080004 255 255 255 1025.000000
2.44610000 -4.54930019 -1.22090006 255 255 255 1249.000000
2.45900011 -4.56239986 -1.22370005 255 255 255 993.000000
2.14400005 -3.85570002 -1.18830001 255 255 255 865.000000
2.15210009 -3.86780000 -1.18949997 255 255 255 2033.000000
2.15260005 -3.88080001 -1.18900001 255 255 255 1921.000000
2.15750003 -3.89299989 -1.18949997 255 255 255 2033.000000
2.15610003 -3.90689993 -1.18859994 255 255 255 1921.000000
2.15820003 -3.91980004 -1.18850005 255 255 255 2033.000000
2.20709991 -3.92339993 -1.19939995 255 255 255 1969.000000
2.19610000 -3.93930006 -1.19620001 255 255 255 1521.000000
2.14450002 -3.96199989 -1.18340003 255 255 255 977.000000
2.16899991 -3.97070003 -1.18869996 255 255 255 545.000000
2.13700008 -3.99009991 -1.18050003 255 255 255 1041.000000
2.12949991 -4.00439978 -1.17820001 255 255 255 1329.000000
2.11549997 -4.02010012 -1.17429996 255 255 255 1585.000000
2.10980010 -4.03439999 -1.17240000 255 255 255 993.000000
2.10060000 -4.04899979 -1.16970003 255 255 255 737.000000
2.06999993 -4.06669998 -1.16199994 255 255 255 225.000000
2.05430007 -4.08249998 -1.15779996 255 255 255 161.000000
2.04340005 -4.09730005 -1.15480006 255 255 255 -15.000000
2.04060006 -4.11019993 -1.15359998 255 255 255 49.000000
2.04660010 -4.12279987 -1.15450001 255 255 255 241.000000
2.06069994 -4.13329983 -1.15740001 255 255 255 305.000000
2.10170007 -4.13980007 -1.16649997 255 255 255 577.000000
2.14010000 -4.14729977 -1.17499995 255 255 255 769.000000
2.14960003 -4.15850019 -1.17680001 255 255 255 1297.000000
2.14730000 -4.17180014 -1.17579997 255 255 255 1521.000000
2.15669990 -4.18370008 -1.17760003 255 255 255 1281.000000
2.16969991 -4.19460011 -1.18019998 255 255 255 1281.000000
2.18059993 -4.20609999 -1.18229997 255 255 255 1233.000000
2.17709994 -4.21990013 -1.18110001 255 255 255 1249.000000
2.18400002 -4.23199987 -1.18229997 255 255 255 1201.000000
2.21510005 -4.24060011 -1.18920004 255 255 255 1233.000000
2.22720003 -4.25239992 -1.19159997 255 255 255 1121.000000
2.22410011 -4.26560020 -1.19050002 255 255 255 1153.000000
2.24110007 -4.27629995 -1.19410002 255 255 255 1073.000000
2.17580009 -4.29780006 -1.17840004 255 255 255 881.000000
2.14680004 -4.32660007 -1.17089999 255 255 255 2001.000000
2.22079992 -4.33129978 -1.18780005 255 255 255 1825.000000
2.23609996 -4.34259987 -1.19110000 255 255 255 1089.000000
2.24760008 -4.35389996 -1.19340003 255 255 255 993.000000
2.22169995 -4.37010002 -1.18710005 255 255 255 1105.000000
2.27760005 -4.37729979 -1.19980001 255 255 255 673.000000
2.29970002 -4.38780022 -1.20459998 255 255 255 1329.000000
2.30699992 -4.40040016 -1.20599997 255 255 255 1473.000000
2.31900001 -4.41289997 -1.20850003 255 255 255 1249.000000
2.32750010 -4.42469978 -1.21019995 255 255 255 1169.000000
2.34150004 -4.43680000 -1.21319997 255 255 255 1185.000000
2.35470009 -4.44929981 -1.21589994 255 255 255 1233.000000
2.35710001 -4.46169996 -1.21630001 255 255 255 1313.000000
2.36700010 -4.47440004 -1.21829998 255 255 255 1393.000000
2.37350011 -4.48759985 -1.21949995 255 255 255 1441.000000
2.38529992 -4.49959993 -1.22200000 255 255 255 1313.000000
2.38689995 -4.51300001 -1.22220004 255 255 255 1073.000000
2.38960004 -4.52670002 -1.22249997 255 255 255 1345.000000
2.39459991 -4.53910017 -1.22350001 255 255 255 1665.000000
2.41100001 -4.56559992 -1.22689998 255 255 255 1617.000000
2.13319993 -3.87170005 -1.19879997 255 255 255 1089.000000
2.13689995 -3.88400006 -1.19910002 255 255 255 1105.000000
2.14050007 -3.89639997 -1.19930005 255 255 255 993.000000
2.15330005 -3.90750003 -1.20179999 255 255 255 2033.000000
2.15510011 -3.92039990 -1.20150006 255 255 255 1985.000000
2.18020010 -3.92860007 -1.20690000 255 255 255 1521.000000
2.18840003 -3.94079995 -1.20829999 255 255 255 17.000000
2.17989993 -3.95539999 -1.20570004 255 255 255 1025.000000
2.12229991 -3.97930002 -1.19130003 255 255 255 2033.000000
2.12479997 -3.99230003 -1.19130003 255 255 255 1825.000000
2.12310004 -4.00559998 -1.19040000 255 255 255 1825.000000
2.16400003 -4.02500010 -1.19900000 255 255 255 1041.000000
2.10689998 -4.04790020 -1.18490005 255 255 255 993.000000
2.08739996 -4.06379986 -1.17970002 255 255 255 689.000000
2.03920007 -4.08500004 -1.16770005 255 255 255 -31.000000
2.02469993 -4.10029984 -1.16380000 255 255 255 721.000000
2.02069998 -4.11350012 -1.16229999 255 255 255 449.000000
2.02139997 -4.12680006 -1.16199994 255 255 255 337.000000
2.03679991 -4.13710022 -1.16520000 255 255 255 401.000000
2.12050009 -4.13700008 -1.18460000 255 255 255 2033.000000
2.11570001 -4.15100002 -1.18289995 255 255 255 2017.000000
2.11050010 -4.16429996 -1.18130004 255 255 255 1729.000000
2.14249992 -4.17250013 -1.18840003 255 255 255 1153.000000
2.14809990 -4.18489981 -1.18929994 255 255 255 1505.000000
2.15179992 -4.19719982 -1.18970001 255 255 255 1681.000000
2.14420009 -4.21120024 -1.18750000 255 255 255 865.000000
2.17199993 -4.24630022 -1.19280005 255 255 255 1313.000000
2.18429995 -4.25790024 -1.19529998 255 255 255 1665.000000
2.19250011 -4.26959991 -1.19690001 255 255 255 1409.000000
2.21009994 -4.28020000 -1.20060003 255 255 255 897.000000
2.16059995 -4.29969978 -1.18850005 255 255 255 929.000000
2.14109993 -4.32730007 -1.18320000 255 255 255 2033.000000
2.14190006 -4.34040022 -1.18299997 255 255 255 2033.000000
2.20499992 -4.34600019 -1.19760001 255 255 255 1281.000000
2.20549989 -4.35860014 -1.19739997 255 255 255 1329.000000
2.20260000 -4.37220001 -1.19640005 255 255 255 1201.000000
2.20910001 -4.38439989 -1.19760001 255 255 255 929.000000
2.26909995 -4.39090014 -1.21140003 255 255 255 753.000000
2.28410006 -4.40269995 -1.21459997 255 255 255 1073.000000
2.28730011 -4.41599989 -1.21510005 255 255 255 1073.000000
2.30679989 -4.42670012 -1.21940005 255 255 255 1073.000000
2.30940008 -4.43979979 -1.21969998 255 255 255 1809.000000
2.32999992 -4.45149994 -1.22430003 255 255 255 833.000000
2.32859993 -4.46420002 -1.22370005 255 255 255 1489.000000
2.32270002 -4.47819996 -1.22200000 255 255 255 1345.000000
2.33389997 -4.49090004 -1.22440004 255 255 255 1345.000000
2.34850001 -4.50260019 -1.22759998 255 255 255 1313.000000
2.35319996 -4.51560020 -1.22839999 255 255 255 1249.000000
2.12849998 -3.88579988 -1.21089995 255 255 255 721.000000
2.13280010 -3.89790010 -1.21130002 255 255 255 913.000000
2.13479996 -3.91109991 -1.21109998 255 255 255 1041.000000
2.17319989 -3.91689992 -1.21980000 255 255 255 2033.000000
2.17779994 -3.92910004 -1.22029996 255 255 255 1041.000000
2.16669989 -3.94490004 -1.21700001 255 255 255 1009.000000
2.17770004 -3.95589995 -1.21899998 255 255 255 1249.000000
2.13360000 -3.97729993 -1.20780003 255 255 255 1761.000000
2.12809992 -3.99169993 -1.20589995 255 255 255 2033.000000
2.12260008 -4.00570011 -1.20400000 255 255 255 1457.000000
2.11430001 -4.02029991 -1.20140004 255 255 255 1473.000000
2.14580011 -4.02820015 -1.20840001 255 255 255 849.000000
2.12560010 -4.04470015 -1.20299995 255 255 255 1441.000000
2.12210011 -4.05800009 -1.20169997 255 255 255 929.000000
2.02570009 -4.08729982 -1.17789996 255 255 255 97.000000
2.00550008 -4.10349989 -1.17260003 255 255 255 177.000000
1.99389994 -4.11780024 -1.16929996 255 255 255 65.000000
1.98930001 -4.13189983 -1.16770005 255 255 255 225.000000
1.99730003 -4.14330006 -1.16910005 255 255 255 161.000000
2.10680008 -4.13910007 -1.19490004 255 255 255 1873.000000
2.10409999 -4.15280008 -1.19379997 255 255 255 2033.000000
2.10229993 -4.16559982 -1.19289994 255 255 255 1425.000000
2.10430002 -4.17819977 -1.19289994 255 255 255 2033.000000
2.08109999 -4.19460011 -1.18690002 255 255 255 785.000000
2.13669991 -4.22539997 -1.19889998 255 255 255 1249.000000
2.15529990 -4.23589993 -1.20290005 255 255 255 1313.000000
2.15319991 -4.24879980 -1.20200002 255 255 255 1185.000000
2.16619992 -4.26030016 -1.20480001 255 255 255 881.000000
2.17330003 -4.27209997 -1.20609999 255 255 255 609.000000
2.17350006 -4.28480005 -1.20570004 255 255 255 673.000000
2.15330005 -4.31360006 -1.20009995 255 255 255 945.000000
2.13420010 -4.32819986 -1.19519997 255 255 255 1681.000000
2.13660002 -4.34100008 -1.19540000 255 255 255 2033.000000
2.18090010 -4.34870005 -1.20560002 255 255 255 1377.000000
2.18729997 -4.36059999 -1.20679998 255 255 255 1089.000000
2.18309999 -4.37430000 -1.20550001 255 255 255 1489.000000
2.17779994 -4.38770008 -1.20389998 255 255 255 705.000000
2.23350000 -4.39449978 -1.21689999 255 255 255 945.000000
2.24000001 -4.40710020 -1.21809995 255 255 255 1009.000000
2.25519991 -4.41909981 -1.22140002 255 255 255 993.000000
2.26130009 -4.43100023 -1.22259998 255 255 255 1409.000000
2.28379989 -4.44220018 -1.22770000 255 255 255 1425.000000
2.29310012 -4.45480013 -1.22959995 255 255 255 1361.000000
2.30739999 -4.46610022 -1.23269999 255 255 255 1489.000000
2.30870008 -4.47940016 -1.23280001 255 255 255 1489.000000
2.31789994 -4.49219990 -1.23469996 255 255 255 1697.000000
2.10969996 -3.88960004 -1.22010005 255 255 255 1585.000000
2.11940002 -3.90070009 -1.22179997 255 255 255 721.000000
2.12459993 -3.91319990 -1.22239995 255 255 255 705.000000
2.13590002 -3.92420006 -1.22449994 255 255 255 625.000000
2.16170001 -3.93219995 -1.23020005 255 255 255 1361.000000
2.15799999 -3.94659996 -1.22870004 255 255 255 1921.000000
2.14330006 -3.96230006 -1.22449994 255 255 255 1697.000000
2.13750005 -3.97659993 -1.22249997 255 255 255 1409.000000
2.13080001 -3.99130011 -1.22029996 255 255 255 2033.000000
2.12899995 -4.00460005 -1.21930003 255 255 255 1457.000000
2.10809994 -4.02150011 -1.21360004 255 255 255 1521.000000
2.10150003 -4.03590012 -1.21140003 255 255 255 1905.000000
2.09310007 -4.05030012 -1.20879996 255 255 255 1825.000000
2.09369993 -4.06279993 -1.20850003 255 255 255 1569.000000
2.06750011 -4.08039999 -1.20150006 255 255 255 929.000000
1.99020004 -4.10599995 -1.18219995 255 255 255 641.000000
1.97200000 -4.12139988 -1.17729998 255 255 255 401.000000
1.96350002 -4.13609982 -1.17470002 255 255 255 113.000000
1.95539999 -4.14979982 -1.17229998 255 255 255 401.000000
1.95229995 -4.16279984 -1.17110002 255 255 255 209.000000
1.99090004 -4.16989994 -1.17990005 255 255 255 641.000000
2.02110004 -4.17770004 -1.18680000 255 255 255 1889.000000
1.98450005 -4.20849991 -1.17700005 255 255 255 1041.000000
2.09400010 -4.20539999 -1.20309997 255 255 255 1793.000000
2.12050009 -4.21449995 -1.20910001 255 255 255 1457.000000
2.13879991 -4.22510004 -1.21309996 255 255 255 1441.000000
2.14479995 -4.23729992 -1.21410000 255 255 255 1569.000000
2.13610005 -4.25110006 -1.21159995 255 255 255 1073.000000
2.14129996 -4.26350021 -1.21249998 255 255 255 433.000000
2.14210010 -4.27600002 -1.21229994 255 255 255 801.000000
2.14630008 -4.28809977 -1.21290004 255 255 255 2017.000000
2.13459992 -4.31580019 -1.20930004 255 255 255 1473.000000
2.13840008 -4.32770014 -1.20980000 255 255 255 2033.000000
2.14260006 -4.34030008 -1.21050000 255 255 255 1313.000000
2.16429996 -4.35059977 -1.21539998 255 255 255 1601.000000
2.17090011 -4.36240005 -1.21659994 255 255 255 1233.000000
2.16459990 -4.37629986 -1.21480000 255 255 255 1665.000000
2.16840005 -4.38870001 -1.21539998 255 255 255 1793.000000
2.18129992 -4.39989996 -1.21819997 255 255 255 609.000000
2.22399998 -4.40869999 -1.22809994 255 255 255 833.000000
2.22589993 -4.42189980 -1.22829998 255 255 255 1361.000000
2.23079991 -4.43389988 -1.22920001 255 255 255 849.000000
2.25419998 -4.44490004 -1.23450005 255 255 255 1409.000000
2.27110004 -4.45679998 -1.23829997 255 255 255 1329.000000
2.27620006 -4.46880007 -1.23930001 255 255 255 1329.000000
2.09270000 -3.90599990 -1.22899997 255 255 255 673.000000
2.10249996 -3.91759992 -1.23070002 255 255 255 689.000000
2.10999990 -3.92919993 -1.23199999 255 255 255 849.000000
2.13350010 -3.93759990 -1.23720002 255 255 255 1201.000000
2.14529991 -3.94899988 -1.23940003 255 255 255 2033.000000
2.13809991 -3.96329999 -1.23699999 255 255 255 1153.000000
2.13509989 -3.97709990 -1.23570001 255 255 255 1105.000000
2.13759995 -3.99009991 -1.23570001 255 255 255 1057.000000
2.11430001 -4.00729990 -1.22940004 255 255 255 881.000000
2.12290001 -4.01889992 -1.23090005 255 255 255 929.000000
2.09249997 -4.03749990 -1.22290003 255 255 255 865.000000
2.08069992 -4.05249977 -1.21940005 255 255 255 2033.000000
2.07920003 -4.06529999 -1.21850002 255 255 255 2033.000000
2.04999995 -4.08330011 -1.21080005 255 255 255 1281.000000
1.98060000 -4.10769987 -1.19319999 255 255 255 433.000000
1.95910001 -4.12349987 -1.18739998 255 255 255 -335.000000
1.93809998 -4.14010000 -1.18169999 255 255 255 257.000000
1.92879999 -4.15399981 -1.17900002 255 255 255 -207.000000
2.02090001 -4.19040012 -1.19970000 255 255 255 1889.000000
2.02979994 -4.20200014 -1.20140004 255 255 255 1537.000000
2.03920007 -4.21309996 -1.20330000 255 255 255 1617.000000
2.04949999 -4.22440004 -1.20539999 255 255 255 1777.000000
2.09669995 -4.23089981 -1.21650004 255 255 255 1073.000000
2.11859989 -4.24090004 -1.22140002 255 255 255 1697.000000
2.12249994 -4.25290012 -1.22200000 255 255 255 1681.000000
2.11999989 -4.26630020 -1.22090006 255 255 255 2033.000000
2.11700010 -4.27920008 -1.21980000 255 255 255 1969.000000
2.13360000 -4.30310011 -1.22309995 255 255 255 1569.000000
2.13159990 -4.31619978 -1.22220004 255 255 255 2033.000000
2.14619994 -4.32679987 -1.22539997 255 255 255 1761.000000
2.14159989 -4.34040022 -1.22389996 255 255 255 1121.000000
2.15089989 -4.35209990 -1.22590005 255 255 255 1617.000000
2.15820003 -4.36380005 -1.22730005 255 255 255 1729.000000
2.15450001 -4.37739992 -1.22599995 255 255 255 1969.000000
2.15389991 -4.39029980 -1.22549999 255 255 255 1489.000000
2.19519997 -4.39849997 -1.23529994 255 255 255 785.000000
2.08240008 -3.93460011 -1.23880005 255 255 255 433.000000
2.10010004 -3.94409990 -1.24259996 255 255 255 497.000000
2.11500001 -3.95469999 -1.24570000 255 255 255 481.000000
2.13019991 -3.96479988 -1.24890006 255 255 255 1537.000000
2.12870002 -3.97830009 -1.24790001 255 255 255 1681.000000
2.12570000 -3.99230003 -1.24660003 255 255 255 993.000000
2.11209989 -4.00769997 -1.24259996 255 255 255 641.000000
2.09509993 -4.02379990 -1.23780000 255 255 255 1537.000000
2.08290005 -4.03919983 -1.23420000 255 255 255 1617.000000
2.07410002 -4.05359983 -1.23140001 255 255 255 2033.000000
2.06579995 -4.06759977 -1.22880006 255 255 255 1345.000000
1.99600005 -4.09229994 -1.21089995 255 255 255 289.000000
2.01149988 -4.17920017 -1.21130002 255 255 255 1905.000000
2.02150011 -4.19029999 -1.21329999 255 255 255 1953.000000
2.02620006 -4.20249987 -1.21399999 255 255 255 1761.000000
2.03489995 -4.21379995 -1.21570003 255 255 255 1665.000000
2.04310012 -4.22529984 -1.21730006 255 255 255 1729.000000
2.06410003 -4.23540020 -1.22200000 255 255 255 1057.000000
2.07730007 -4.24639988 -1.22490001 255 255 255 1153.000000
2.08780003 -4.25750017 -1.22710001 255 255 255 1633.000000
2.10759997 -4.26789999 -1.23150003 255 255 255 753.000000
2.08209991 -4.28369999 -1.22479999 255 255 255 225.000000
2.08759999 -4.29549980 -1.22580004 255 255 255 481.000000
2.12350011 -4.30429983 -1.23430002 255 255 255 1361.000000
2.11339998 -4.33059978 -1.23099995 255 255 255 1249.000000
2.13260007 -4.34149981 -1.23539996 255 255 255 993.000000
2.13210011 -4.35430002 -1.23490000 255 255 255 1185.000000
2.14019990 -4.36579990 -1.23660004 255 255 255 1505.000000
2.14689994 -4.37820005 -1.23790002 255 255 255 1857.000000
2.17149997 -4.40089989 -1.24329996 255 255 255 1233.000000
1.98420000 -4.11950016 -1.22029996 255 255 255 817.000000
2.02090001 -4.19049978 -1.22660005 255 255 255 2033.000000
2.01950002 -4.20349979 -1.22580004 255 255 255 1249.000000
2.02379990 -4.21540022 -1.22640002 255 255 255 1361.000000
2.03509998 -4.22639990 -1.22880006 255 255 255 1489.000000
2.04259992 -4.23829985 -1.23020005 255 255 255 1441.000000
2.06419992 -4.24819994 -1.23520005 255 255 255 929.000000
2.07240009 -4.25950003 -1.23679996 255 255 255 1329.000000
2.07839990 -4.27169991 -1.23790002 255 255 255 929.000000
2.05660009 -4.29930019 -1.23160005 255 255 255 817.000000
2.05209994 -4.31300020 -1.23010004 255 255 255 993.000000
2.07329988 -4.33529997 -1.23459995 255 255 255 433.000000
2.10450006 -4.34469986 -1.24199998 255 255 255 529.000000
2.11209989 -4.35650015 -1.24360001 255 255 255 1345.000000
2.12210011 -4.36780024 -1.24570000 255 255 255 881.000000
2.14050007 -4.37890005 -1.25000000 255 255 255 993.000000
1.99269998 -4.21980000 -1.23199999 255 255 255 1169.000000
1.98689997 -4.23309994 -1.23010004 255 255 255 849.000000
1.99629998 -4.24459982 -1.23199999 255 255 255 1313.000000
2.02859998 -4.25299978 -1.23969996 255 255 255 865.000000
2.03290009 -4.26469994 -1.24039996 255 255 255 737.000000
2.03839993 -4.27689981 -1.24129999 255 255 255 241.000000
1.97340000 -8.45429993 24.49690056 255 255 255 -2047.000000
1.93210006 -8.41149998 24.47730064 255 255 255 -863.000000
1.67410004 -8.45969963 25.03219986 255 255 255 -255.000000
1.67760003 -8.45129967 25.05139923 255 255 255 -1983.000000
2.28309989 -7.84130001 24.61960030 255 255 255 -1583.000000
2.41580009 -7.93620014 23.00099945 255 255 255 -1759.000000
1.63650000 -8.41009998 25.00499916 255 255 255 -1263.000000
1.64310002 -8.40299988 24.99309921 255 255 255 -287.000000
1.64900005 -8.39509964 24.99119949 255 255 255 -1679.000000
1.82760000 -8.26939964 24.35899925 255 255 255 -1135.000000
2.24309993 -7.79670000 24.60759926 255 255 255 -559.000000
1.60309994 -8.36120033 24.94400024 255 255 255 -447.000000
1.60759997 -8.35350037 24.95159912 255 255 255 -2047.000000
1.78030002 -8.23190022 24.35659981 255 255 255 -1071.000000
2.18050003 -7.90010023 23.68860054 255 255 255 -959.000000
2.34629989 -7.85669994 22.91570091 255 255 255 -415.000000
1.56210005 -8.31960011 24.90299988 255 255 255 -2047.000000
1.57110000 -8.31320000 24.87050056 255 255 255 -1215.000000
1.66069996 -8.23110008 24.66780090 255 255 255 -911.000000
1.73549998 -8.19569969 24.32830048 255 255 255 -1343.000000
2.12350011 -7.85610008 23.80400085 255 255 255 -463.000000
2.12669992 -7.84719992 23.84410095 255 255 255 -1247.000000
2.12689996 -7.83510017 23.92490005 255 255 255 -1503.000000
2.22149992 -7.82049990 23.41909981 255 255 255 -975.000000
2.22909999 -7.81500006 23.40870094 255 255 255 -383.000000
2.23440003 -7.80740023 23.42910004 255 255 255 -1023.000000
2.31080008 -7.81640005 22.88509941 255 255 255 -1071.000000
1.62849998 -8.20219994 24.50329971 255 255 255 -1599.000000
1.68470001 -8.16740036 24.29980087 255 255 255 -303.000000
2.00320005 -7.94950008 23.43110085 255 255 255 -751.000000
2.05979991 -7.80730009 23.98859978 255 255 255 -1695.000000
2.07040000 -7.80389977 23.94339943 255 255 255 -1311.000000
2.19160008 -7.78590012 23.30290031 255 255 255 -1071.000000
2.19829988 -7.77950001 23.30509949 255 255 255 -287.000000
2.20700002 -7.77489996 23.28249931 255 255 255 -607.000000
2.27480006 -7.77559996 22.86109924 255 255 255 -287.000000
1.50310004 -8.30809975 24.29590034 255 255 255 -2047.000000
1.59089994 -8.18169975 24.33779907 255 255 255 -2047.000000
1.59879994 -8.17469978 24.32099915 255 255 255 -1167.000000
1.67530000 -8.05169964 24.47640038 255 255 255 -1023.000000
2.01320004 -7.74830008 24.12439919 255 255 255 -1647.000000
2.16420007 -7.75379992 23.15979958 255 255 255 -1023.000000
2.16890001 -7.74550009 23.18659973 255 255 255 -655.000000
2.17720008 -7.74030018 23.17130089 255 255 255 -1247.000000
1.55680001 -8.16279984 24.14809990 255 255 255 -639.000000
1.56340003 -8.15559959 24.14019966 255 255 255 -783.000000
1.56860006 -8.14719963 24.14909935 255 255 255 -2047.000000
1.62800002 -8.01270008 24.47850037 255 255 255 -2047.000000
2.11299992 -7.79720020 22.67709923 255 255 255 -383.000000
2.13159990 -7.72889996 23.00670052 255 255 255 -671.000000
2.13689995 -7.72170019 23.02269936 255 255 255 -591.000000
2.13800001 -7.71010017 23.09210014 255 255 255 -1327.000000
1.52890003 -8.12609959 24.01549911 255 255 255 -2047.000000
1.53569996 -8.11839962 24.00950050 255 255 255 -511.000000
1.51610005 -7.99459982 24.78980064 255 255 255 -1119.000000
2.07629991 -7.75829983 22.65080070 255 255 255 -159.000000
2.08459997 -7.75339985 22.63190079 255 255 255 177.000000
2.09179997 -7.74760008 22.62630081 255 255 255 145.000000
2.09480000 -7.73769999 22.67169952 255 255 255 -719.000000
2.10820007 -7.65089989 23.14649963 255 255 255 -703.000000
2.13809991 -7.62669992 23.13159943 255 255 255 -15.000000
1.41740000 -8.18980026 23.94179916 255 255 255 -2047.000000
1.42369998 -8.18179989 23.93939972 255 255 255 -831.000000
1.43009996 -8.17360020 23.93639946 255 255 255 -415.000000
1.50030005 -8.08850002 23.89730072 255 255 255 -271.000000
1.50860000 -8.08139992 23.87890053 255 255 255 -383.000000
1.51740003 -7.91349983 24.69799995 255 255 255 -1775.000000
1.52450001 -7.90600014 24.69300079 255 255 255 -735.000000
1.60990000 -7.76569986 24.93020058 255 255 255 -2047.000000
1.67069995 -7.66909981 25.11249924 255 255 255 -1023.000000
1.68210006 -7.65170002 25.14539909 255 255 255 -2047.000000
2.04979992 -7.71600008 22.58709908 255 255 255 -2047.000000
2.05749989 -7.71070004 22.57519913 255 255 255 17.000000
2.06500006 -7.70429993 22.57159996 255 255 255 241.000000
2.07150006 -7.69759989 22.57509995 255 255 255 -143.000000
2.00690007 -7.59110022 23.60779953 255 255 255 -271.000000
2.02390003 -7.59289980 23.50060081 255 255 255 -671.000000
2.16400003 -7.27860022 24.78499985 255 255 255 -1215.000000
2.17129993 -7.27080011 24.80019951 255 255 255 -1327.000000
2.40219998 -7.18109989 24.26169968 255 255 255 -1199.000000
1.46700001 -7.96820021 24.23010063 255 255 255 -2047.000000
1.46710002 -7.95609999 24.29129982 255 255 255 -943.000000
2.03090000 -7.66730022 22.52199936 255 255 255 -527.000000
2.03900003 -7.66179991 22.50930023 255 255 255 -15.000000
2.04570007 -7.65549994 22.50989914 255 255 255 -207.000000
2.05089998 -7.64739990 22.53039932 255 255 255 -1311.000000
2.00449991 -7.50129986 23.68729973 255 255 255 -1039.000000
2.18770003 -7.43170023 23.14529991 255 255 255 -1135.000000
2.19619989 -7.26249981 24.21260071 255 255 255 -2047.000000
2.34570003 -7.15339994 24.21459961 255 255 255 -1567.000000
1.24679995 -7.91919994 25.36129951 255 255 255 -527.000000
1.46529996 -7.99100018 23.64669991 255 255 255 -719.000000
1.47150004 -7.98290014 23.64749908 255 255 255 -831.000000
1.37919998 -7.78380013 25.22419930 255 255 255 -543.000000
1.99210000 -7.62620020 22.52379990 255 255 255 -1807.000000
2.00469995 -7.62449980 22.46450043 255 255 255 -47.000000
2.01290011 -7.61929989 22.45019913 255 255 255 193.000000
2.01959991 -7.61240005 22.45509911 255 255 255 17.000000
2.02659988 -7.60570002 22.45610046 255 255 255 -1375.000000
1.89419997 -7.46120024 24.04700089 255 255 255 -783.000000
1.19959998 -7.88219976 25.33449936 255 255 255 -687.000000
1.43920004 -7.95429993 23.52289963 255 255 255 -815.000000
1.44790006 -7.94719982 23.50440025 255 255 255 -799.000000
1.69050002 -7.79139996 22.85510063 255 255 255 -1215.000000
1.97759998 -7.58099985 22.41819954 255 255 255 -1183.000000
1.98549998 -7.57499981 22.41090012 255 255 255 -15.000000
1.99310005 -7.56860018 22.40730095 255 255 255 225.000000
1.99969995 -7.56199980 22.41099930 255 255 255 -143.000000
0.93820000 -8.28530025 24.73690033 255 255 255 -431.000000
0.93989998 -8.27429962 24.76959991 255 255 255 -191.000000
1.40830004 -7.91440010 23.44799995 255 255 255 -1647.000000
1.64209998 -7.76119995 22.84749985 255 255 255 -847.000000
1.95879996 -7.53090000 22.36779976 255 255 255 -31.000000
1.96619999 -7.52489996 22.36370087 255 255 255 225.000000
1.97350001 -7.51809978 22.36470032 255 255 255 -143.000000
0.90509999 -8.26060009 24.58440018 255 255 255 -1535.000000
0.91430002 -8.25240040 24.55900002 255 255 255 -607.000000
1.41620004 -7.84950018 23.26889992 255 255 255 -239.000000
1.43159997 -7.83479977 23.25020027 255 255 255 -2047.000000
1.54030001 -7.74450016 23.07220078 255 255 255 -1903.000000
1.61919999 -7.71159983 22.79570007 255 255 255 -2047.000000
1.64760005 -7.69439983 22.72629929 255 255 255 -1183.000000
1.65330005 -7.68650007 22.73590088 255 255 255 -2047.000000
1.92299998 -7.49189997 22.34499931 255 255 255 -2047.000000
1.93200004 -7.48719978 22.32509995 255 255 255 -351.000000
1.93980002 -7.48059988 22.32209969 255 255 255 209.000000
1.94799995 -7.47429991 22.31640053 255 255 255 -367.000000
1.95200002 -7.46530008 22.34670067 255 255 255 -2047.000000
0.90090001 -8.19979954 24.39760017 255 255 255 -975.000000
1.39260006 -7.80149984 23.19899940 255 255 255 -175.000000
1.41880000 -7.78039980 23.15060043 255 255 255 -351.000000
1.60899997 -7.64610004 22.75769997 255 255 255 -687.000000
1.90740001 -7.44430017 22.26770020 255 255 255 -351.000000
1.91589999 -7.43809986 22.26009941 255 255 255 -111.000000
1.92330003 -7.43209982 22.25639915 255 255 255 -383.000000
1.93079996 -7.42519999 22.25760078 255 255 255 -2047.000000
0.88290000 -8.14529991 24.27910042 255 255 255 -1327.000000
0.89260000 -8.13720036 24.25209999 255 255 255 -1199.000000
0.90060002 -8.12860012 24.23760033 255 255 255 -1151.000000
0.90920001 -8.12049961 24.21759987 255 255 255 -991.000000
0.91640002 -8.11159992 24.20919991 255 255 255 -831.000000
0.92420000 -8.10299969 24.19659996 255 255 255 -607.000000
0.93210000 -8.09469986 24.18190002 255 255 255 -703.000000
0.93919998 -8.08580017 24.17490005 255 255 255 -815.000000
0.94559997 -8.07660007 24.17350006 255 255 255 -847.000000
0.95310003 -8.06830025 24.16180038 255 255 255 -1215.000000
0.96569997 -8.04979992 24.16130066 255 255 255 -2047.000000
1.40709996 -7.72660017 23.04689980 255 255 255 -463.000000
1.41540003 -7.71910000 23.03700066 255 255 255 -95.000000
1.42429996 -7.71220016 23.02059937 255 255 255 -79.000000
1.43970001 -7.69719982 23.00760078 255 255 255 -335.000000
1.59879994 -7.57880020 22.73369980 255 255 255 -2047.000000
1.88129997 -7.39970016 22.22979927 255 255 255 -607.000000
1.89080000 -7.39540005 22.20630074 255 255 255 -47.000000
1.89900005 -7.38899994 22.20120049 255 255 255 81.000000
1.90649998 -7.38159990 22.20529938 255 255 255 -415.000000
0.97899997 -7.97259998 23.96680069 255 255 255 -1775.000000
0.98820001 -7.96519995 23.94400024 255 255 255 -815.000000
0.99620003 -7.95690012 23.93149948 255 255 255 -415.000000
1.00339997 -7.94810009 23.92589951 255 255 255 -511.000000
1.01119995 -7.93989992 23.91500092 255 255 255 -607.000000
1.01919997 -7.93160009 23.90360069 255 255 255 -879.000000
1.55729997 -7.53970003 22.73320007 255 255 255 -1871.000000
1.56760001 -7.53439999 22.70610046 255 255 255 -831.000000
1.86609995 -7.35190010 22.15719986 255 255 255 -287.000000
1.87479997 -7.34549999 22.15010071 255 255 255 129.000000
1.88250005 -7.33909988 22.14749908 255 255 255 -191.000000
1.89049995 -7.33230019 22.14629936 255 255 255 -1135.000000
2.07299995 -6.67070007 25.15379906 255 255 255 -1791.000000
1.05630004 -7.84149981 23.64959908 255 255 255 -1871.000000
1.05890000 -7.83039999 23.68120003 255 255 255 -415.000000
1.06700003 -7.82189989 23.67189980 255 255 255 -479.000000
1.08710003 -7.80819988 23.61840057 255 255 255 -975.000000
1.09710002 -7.80070019 23.59460068 255 255 255 -1103.000000
1.46560001 -7.54330015 22.78499985 255 255 255 -751.000000
1.47430003 -7.53630018 22.77330017 255 255 255 -639.000000
1.48389995 -7.53049994 22.75200081 255 255 255 -735.000000
1.49329996 -7.52379990 22.73579979 255 255 255 -879.000000
1.50150001 -7.51660013 22.72830009 255 255 255 -783.000000
1.51110005 -7.51079988 22.70779991 255 255 255 -655.000000
1.51919997 -7.50320005 22.70299911 255 255 255 -319.000000
1.52830005 -7.49690008 22.68770027 255 255 255 -191.000000
1.53550005 -7.48909998 22.68899918 255 255 255 -111.000000
1.54489994 -7.48280001 22.67210007 255 255 255 -127.000000
1.55289996 -7.47550011 22.66760063 255 255 255 33.000000
1.56159997 -7.46880007 22.65649986 255 255 255 -383.000000
1.57099998 -7.46269989 22.63940048 255 255 255 -815.000000
1.66079998 -7.39930010 22.50930023 255 255 255 -575.000000
1.83920002 -7.30560017 22.13489914 255 255 255 -1151.000000
1.85200000 -7.30399990 22.08349991 255 255 255 -79.000000
1.86049998 -7.29750013 22.07819939 255 255 255 -207.000000
1.86810005 -7.29029989 22.08090019 255 255 255 -223.000000
2.05390000 -6.62150002 25.07080078 255 255 255 -1807.000000
1.03750002 -7.77129984 23.63470078 255 255 255 -1359.000000
1.11909997 -7.72690010 23.38109970 255 255 255 -1647.000000
1.13110006 -7.72139978 23.34029961 255 255 255 -927.000000
1.14310002 -7.71549988 23.30100060 255 255 255 -575.000000
1.15460002 -7.70900011 23.26720047 255 255 255 -927.000000
1.16480005 -7.70270014 23.23979950 255 255 255 -607.000000
1.17560005 -7.69579983 23.21190071 255 255 255 -591.000000
1.18460000 -7.68830013 23.19650078 255 255 255 -1135.000000
1.19459999 -7.68170023 23.17200089 255 255 255 -815.000000
1.20369995 -7.67420006 23.15629959 255 255 255 -1007.000000
1.21099997 -7.66590023 23.15379906 255 255 255 -1199.000000
1.22300005 -7.66039991 23.11490059 255 255 255 -1375.000000
1.26489997 -7.63439989 23.00889969 255 255 255 -831.000000
1.27629995 -7.62860012 22.97550011 255 255 255 -607.000000
1.28649998 -7.62239981 22.94930077 255 255 255 -767.000000
1.29760003 -7.61630011 22.91900063 255 255 255 -751.000000
1.30669999 -7.60909986 22.90369987 255 255 255 -383.000000
1.33700001 -7.59019995 22.83180046 255 255 255 -751.000000
1.34630001 -7.58349991 22.81459999 255 255 255 -751.000000
1.35490000 -7.57609987 22.80430031 255 255 255 -543.000000
1.36380005 -7.56939983 22.78840065 255 255 255 -463.000000
1.37269998 -7.56230021 22.77529907 255 255 255 -255.000000
1.38080001 -7.55480003 22.76860046 255 255 255 -127.000000
1.39740002 -7.53970003 22.75320053 255 255 255 -239.000000
1.40540004 -7.53219986 22.74760056 255 255 255 -207.000000
1.41310000 -7.52390003 22.74659920 255 255 255 -31.000000
1.42120004 -7.51660013 22.74020004 255 255 255 -63.000000
1.42830002 -7.50820017 22.74320030 255 255 255 -175.000000
1.44009995 -7.50330019 22.70639992 255 255 255 -271.000000
1.44640005 -7.49510002 22.71319962 255 255 255 -607.000000
1.45420003 -7.48699999 22.71220016 255 255 255 -1375.000000
1.50030005 -7.46789980 22.57209969 255 255 255 -2047.000000
1.50329995 -7.45679998 22.61030006 255 255 255 -1055.000000
1.50929999 -7.44770002 22.62369919 255 255 255 -2047.000000
1.69920003 -7.32800007 22.29059982 255 255 255 -255.000000
1.71249998 -7.32509995 22.24239922 255 255 255 -319.000000
1.71870005 -7.31650019 22.25690079 255 255 255 -479.000000
1.81879997 -7.26630020 22.04680061 255 255 255 -1231.000000
1.82969999 -7.26200008 22.01880074 255 255 255 -575.000000
1.83739996 -7.25470018 22.02169991 255 255 255 -47.000000
1.84560001 -7.24840021 22.01759911 255 255 255 -383.000000
1.85150003 -7.23929977 22.03820038 255 255 255 -863.000000
2.03500009 -6.57159996 24.99390030 255 255 255 -1567.000000
0.60130000 -8.42430019 23.35289955 255 255 255 -1551.000000
1.74339998 -7.24660015 22.11260033 255 255 255 -847.000000
1.75469995 -7.24350023 22.07640076 255 255 255 -1375.000000
1.76610005 -7.23939991 22.04500008 255 255 255 -1151.000000
1.77849996 -7.23600006 22.00589943 255 255 255 -991.000000
1.78950000 -7.23229980 21.97489929 255 255 255 -1199.000000
1.79960001 -7.22720003 21.95520020 255 255 255 -735.000000
1.80929995 -7.22160006 21.94009972 255 255 255 -351.000000
1.81819999 -7.21589994 21.92959976 255 255 255 -463.000000
1.82550001 -7.20809984 21.93680000 255 255 255 -751.000000
1.99399996 -6.53259993 24.94140053 255 255 255 -1359.000000
2.00640011 -6.52880001 24.91519928 255 255 255 -735.000000
2.07419991 -6.47870016 24.94739914 255 255 255 -1135.000000
2.09069991 -6.48229980 24.86440086 255 255 255 -2047.000000
2.14569998 -6.52080011 24.43420029 255 255 255 -335.000000
2.26979995 -6.43109989 24.51429939 255 255 255 -2047.000000
1.17250001 -7.50339985 23.27350044 255 255 255 -1567.000000
1.77750003 -7.18499994 21.89489937 255 255 255 -1471.000000
1.78820002 -7.18090010 21.86800003 255 255 255 -1343.000000
1.79999995 -7.17740011 21.83379936 255 255 255 -799.000000
1.81009996 -7.17180014 21.81789970 255 255 255 -623.000000
1.82659996 -7.15850019 21.81349945 255 255 255 -1167.000000
1.83449996 -7.15070009 21.81889915 255 255 255 -1615.000000
1.77030003 -6.41849995 26.01959991 255 255 255 -1903.000000
1.97090006 -6.49749994 24.80109978 255 255 255 -2047.000000
1.98109996 -6.49069977 24.80080032 255 255 255 -303.000000
2.11170006 -6.46799994 24.44429970 255 255 255 -431.000000
0.49700001 -8.32219982 23.49370003 255 255 255 -2047.000000
1.35619998 -6.88920021 24.85820007 255 255 255 -447.000000
1.78970003 -7.13140011 21.74480057 255 255 255 -1295.000000
1.80089998 -7.12729979 21.71689987 255 255 255 -911.000000
1.81120002 -7.12169981 21.70109940 255 255 255 -815.000000
1.81949997 -7.11560011 21.69610023 255 255 255 -735.000000
1.82869995 -7.10960007 21.68720055 255 255 255 -703.000000
1.83620000 -7.10109997 21.69860077 255 255 255 -911.000000
1.84360003 -7.09420013 21.70219994 255 255 255 -1743.000000
1.71959996 -6.39039993 25.93160057 255 255 255 -2047.000000
1.73049998 -6.38320017 25.92819977 255 255 255 -975.000000
1.94599998 -6.46019983 24.68379974 255 255 255 -319.000000
0.54780000 -8.15799999 23.34630013 255 255 255 -2047.000000
1.74319994 -7.07940006 21.84309959 255 255 255 -2047.000000
1.76730001 -7.08820009 21.69680023 255 255 255 -815.000000
1.78030002 -7.08510017 21.65679932 255 255 255 -1247.000000
1.80700004 -7.09770012 21.48080063 255 255 255 -1615.000000
1.80390000 -7.07900000 21.58760071 255 255 255 -735.000000
1.81040001 -7.06939983 21.60840034 255 255 255 -527.000000
1.81879997 -7.06330013 21.60379982 255 255 255 -975.000000
1.82799995 -7.05709982 21.59630013 255 255 255 -799.000000
1.83510005 -7.04829979 21.61120033 255 255 255 -1151.000000
1.98020005 -6.99930000 21.26749992 255 255 255 -991.000000
1.98889995 -6.99259996 21.26810074 255 255 255 -1855.000000
0.50819999 -8.13319969 23.27079964 255 255 255 -1615.000000
1.78190005 -7.05130005 21.46509933 255 255 255 -2047.000000
1.79519999 -7.03369999 21.49729919 255 255 255 -847.000000
1.82930005 -7.00530005 21.49799919 255 255 255 -127.000000
1.83870006 -6.99889994 21.49180031 255 255 255 -159.000000
1.84630001 -6.99160004 21.49780083 255 255 255 -591.000000
1.85689998 -6.98670006 21.47900009 255 255 255 -2047.000000
2.04380012 -6.92080021 21.07819939 255 255 255 -2047.000000
1.84370005 -6.41940022 24.47120094 255 255 255 -687.000000
1.87240005 -6.41639996 24.38220024 255 255 255 -111.000000
0.44000000 -8.12250042 23.30470085 255 255 255 -543.000000
1.76670003 -6.98290014 21.51639938 255 255 255 -2047.000000
1.78209996 -6.98250008 21.45599937 255 255 255 -911.000000
1.79289997 -6.97830009 21.43309975 255 255 255 -783.000000
1.80350006 -6.97300005 21.41659927 255 255 255 -607.000000
1.81389999 -6.96750021 21.40229988 255 255 255 -575.000000
1.82749999 -6.96659994 21.35210037 255 255 255 -1071.000000
1.85179996 -6.95989990 21.28800011 255 255 255 -1071.000000
1.86109996 -6.93730021 21.36389923 255 255 255 -399.000000
1.86940002 -6.92999983 21.36750031 255 255 255 -127.000000
1.88000000 -6.92560005 21.34729958 255 255 255 -1279.000000
1.90929997 -6.94229984 21.14909935 255 255 255 -2031.000000
1.80110002 -6.40159988 24.32649994 255 255 255 -31.000000
1.80739999 -6.38889980 24.37019920 255 255 255 -15.000000
1.91569996 -6.09619999 25.54800034 255 255 255 -1647.000000
1.61280000 -6.94820023 21.96330070 255 255 255 -543.000000
1.62070000 -6.94049978 21.96739960 255 255 255 -319.000000
1.78489995 -6.93160009 21.35260010 255 255 255 -815.000000
1.79649997 -6.92829990 21.32349968 255 255 255 -1087.000000
1.80780005 -6.92390013 21.30010033 255 255 255 -799.000000
1.81719995 -6.91730022 21.29560089 255 255 255 -1023.000000
1.82700002 -6.91190004 21.28380013 255 255 255 -975.000000
1.83700001 -6.90609980 21.27289963 255 255 255 -815.000000
1.84829998 -6.90199995 21.24909973 255 255 255 -783.000000
1.86549997 -6.90490007 21.16860008 255 255 255 -399.000000
1.88209999 -6.90719986 21.09329987 255 255 255 -175.000000
1.87460005 -6.88180017 21.24749947 255 255 255 -815.000000
1.75860000 -6.36289978 24.29380035 255 255 255 -15.000000
1.76999998 -6.35720015 24.28190041 255 255 255 -975.000000
1.89639997 -6.04160023 25.49839973 255 255 255 -1823.000000
2.33189988 -5.81540012 25.39629936 255 255 255 -111.000000
1.50039995 -6.99380016 21.87059975 255 255 255 -1423.000000
1.24430001 -6.61059999 24.67049980 255 255 255 -383.000000
1.25800002 -6.60570002 24.63809967 255 255 255 -63.000000
1.26999998 -6.59870005 24.62220001 255 255 255 -1535.000000
1.28110003 -6.59219980 24.60799980 255 255 255 -2047.000000
1.78999996 -6.88280010 21.23500061 255 255 255 -1087.000000
1.79949999 -6.87690020 21.22669983 255 255 255 -1119.000000
1.81019998 -6.87179995 21.21059990 255 255 255 -927.000000
1.82079995 -6.86679983 21.19389915 255 255 255 -1007.000000
1.83190000 -6.86280012 21.17140007 255 255 255 -703.000000
1.84870005 -6.86499977 21.09650040 255 255 255 -399.000000
1.85650003 -6.85690022 21.10680008 255 255 255 -383.000000
1.85920000 -6.84340000 21.16200066 255 255 255 -527.000000
1.86640000 -6.83419991 21.17980003 255 255 255 -927.000000
1.87650001 -6.82889986 21.16760063 255 255 255 -1679.000000
1.85080004 -5.96960020 25.62770081 255 255 255 -2047.000000
0.48960000 -7.76160002 23.13590050 255 255 255 -447.000000
1.45650005 -6.94689989 21.92469978 255 255 255 -1295.000000
1.78480005 -6.83909988 21.13649940 255 255 255 -2047.000000
1.79419994 -6.83269978 21.13190079 255 255 255 -1151.000000
1.80599999 -6.82919979 21.10400009 255 255 255 -1663.000000
1.81620002 -6.82380009 21.09160042 255 255 255 -1183.000000
1.83399999 -6.82709980 21.00950050 255 255 255 -1071.000000
1.84790003 -6.80880022 21.04549980 255 255 255 -431.000000
1.85520005 -6.80009985 21.06069946 255 255 255 -911.000000
