3.03139997 -2.59910011 4.89809990 186 186 186
3.09680009 -2.76360011 4.72130013 154 154 154
4.08990002 -2.75460005 4.71390009 0 0 0
4.27580023 -2.49889994 5.01630020 2 2 2
4.44589996 -2.72250009 4.80520010 255 255 255
5.11609983 -2.13330007 5.57779980 43 43 43
5.19579983 -1.85570002 5.88999987 160 160 160
5.25000000 -1.72220004 6.04479980 106 106 106
5.26660013 -1.78789997 5.98150015 208 208 208
5.27939987 -1.79859996 5.97419977 203 203 203
5.29220009 -1.80890000 5.96750021 192 192 192
5.30490017 -1.81480002 5.96519995 190 190 190
5.33139992 -1.83140004 5.95629978 208 208 208
5.34439993 -1.83650005 5.95510006 197 197 197
5.31650019 -2.09890008 5.67439985 241 241 241
5.38800001 -1.83770001 5.96780014 217 217 217
5.40380001 -1.83399999 5.97679996 200 200 200
5.41960001 -1.83039999 5.98570013 194 194 194
5.43529987 -1.82350004 5.99800014 209 209 209
5.45200014 -1.81700003 6.01020002 174 174 174
5.47090006 -1.79970002 6.03450012 131 131 131
9.34580040 0.04320000 9.87440014 0 0 0
9.37570000 0.04320000 9.89459991 120 120 120
3.03819990 -2.62019992 4.85169983 187 187 187
3.08879995 -2.72519994 4.73829985 32 32 32
4.27750015 -2.47740006 5.01440001 21 21 21
4.44950008 -2.67950010 4.82740021 255 255 255
5.12039995 -2.11710000 5.56829977 156 156 156
5.19939995 -1.84340000 5.87480021 155 155 155
5.21309996 -1.84440005 5.87769985 138 138 138
5.25000000 -1.72920001 6.00780010 111 111 111
5.28000021 -1.80190003 5.94159985 200 200 200
5.29300022 -1.81159997 5.93550014 180 180 180
5.30530024 -1.81970000 5.93090010 205 205 205
5.31949997 -1.82420003 5.93060017 181 181 181
5.33209991 -1.83430004 5.92420006 190 190 190
5.34520006 -1.83910000 5.92329979 195 195 195
5.30940008 -2.07369995 5.67019987 250 250 250
5.32660007 -2.05859995 5.69119978 170 170 170
5.38920021 -1.83840001 5.93800020 190 190 190
5.40460014 -1.83620000 5.94530010 194 194 194
5.43610001 -1.82570004 5.96640015 198 198 198
5.45349979 -1.81630003 5.98180008 183 183 183
5.47170019 -1.80180001 6.00269985 138 138 138
9.39850044 0.07360000 9.88770008 132 132 132
9.46070004 -0.15870000 9.72879982 135 135 135
4.07989979 -2.71519995 4.70800018 246 246 246
4.27920008 -2.45589995 5.01240015 153 153 153
5.12459993 -2.10069990 5.55910015 235 235 235
5.20389986 -1.82659996 5.86439991 153 153 153
5.21640015 -1.83379996 5.86059999 156 156 156
5.24709988 -1.75109994 5.95480013 102 102 102
5.25659990 -1.78100002 5.92679977 165 165 165
5.26760006 -1.79659998 5.91400003 149 149 149
5.29360008 -1.81519997 5.90280008 175 175 175
5.30600023 -1.82270002 5.89879990 184 184 184
5.31949997 -1.83019996 5.89529991 185 185 185
5.33519983 -1.89189994 5.83690023 150 150 150
5.37550020 -1.84089994 5.90180016 198 198 198
5.39039993 -1.83860004 5.90899992 206 206 206
5.40600014 -1.83589995 5.91669989 213 213 213
5.42199993 -1.83120000 5.92679977 195 195 195
5.43730021 -1.82579994 5.93730021 195 195 195
5.45480013 -1.81599998 5.95300007 173 173 173
5.47380018 -1.79830003 5.97749996 145 145 145
9.08370018 -0.17649999 9.41110039 47 47 47
9.42560005 0.10990000 9.88869953 162 162 162
3.03139997 -2.58089995 4.84469986 192 192 192
4.28079987 -2.43740010 5.00729990 242 242 242
4.48759985 -2.67219996 4.79390001 255 255 255
5.12909985 -2.08279991 5.55130005 189 189 189
5.21070004 -1.79719996 5.86759996 0 0 0
5.22009993 -1.82169998 5.84520006 133 133 133
5.23409986 -1.82579994 5.84509993 134 134 134
5.25629997 -1.78900003 5.88929987 142 142 142
5.26719999 -1.80530000 5.87589979 193 193 193
5.27869987 -1.82179999 5.86250019 126 126 126
5.30730009 -1.82270002 5.87020016 148 148 148
5.31990004 -1.83459997 5.86189985 175 175 175
5.32110023 -2.03119993 5.66149998 234 234 234
5.37650013 -1.84239995 5.87160015 212 212 212
5.39139986 -1.83990002 5.87879992 198 198 198
5.40710020 -1.83659995 5.88730001 204 204 204
5.42329979 -1.83130002 5.89790010 191 191 191
5.43839979 -1.82669997 5.90749979 193 193 193
5.45590019 -1.81680000 5.92329979 177 177 177
5.47450018 -1.80089998 5.94560003 155 155 155
5.58640003 -2.00189996 5.78070021 79 79 79
9.45269966 0.14620000 9.88949966 0 0 0
9.47399998 0.13349999 9.89270020 58 58 58
5.13350010 -2.06550002 5.54279995 174 174 174
5.14879990 -2.05920005 5.55359983 183 183 183
5.22429991 -1.80639994 5.83330011 135 135 135
5.23729992 -1.81579995 5.82749987 134 134 134
5.25220013 -1.81669998 5.83090019 199 199 199
5.26380014 -1.82900000 5.82180023 146 146 146
5.27729988 -1.83539999 5.81930017 143 143 143
5.29220009 -1.83510005 5.82410002 152 152 152
5.32180023 -1.83179998 5.83640003 173 173 173
5.33430004 -1.84239995 5.82950020 180 180 180
5.37790012 -1.84169996 5.84380007 213 213 213
5.39270020 -1.84019995 5.85010004 164 164 164
5.40829992 -1.83720005 5.85799980 188 188 188
5.42469978 -1.83089995 5.86969995 174 174 174
5.44010019 -1.82519996 5.88049984 200 200 200
5.45720005 -1.81700003 5.89429998 163 163 163
5.47590017 -1.80069995 5.91709995 147 147 147
9.45759964 0.31920001 9.99320030 130 130 130
9.50070000 0.16900000 9.89229965 139 139 139
10.42370033 -1.09650004 9.54319954 34 34 34
5.24069977 -1.80490005 5.81080008 181 181 181
5.25339985 -1.81760001 5.80159998 220 220 220
5.26560020 -1.82650006 5.79619980 188 188 188
5.27850008 -1.83570004 5.79069996 148 148 148
5.29260015 -1.83910000 5.79139996 148 148 148
5.30649996 -1.83879995 5.79600000 167 167 167
5.32110023 -1.84109998 5.79799986 218 218 218
5.36369991 -1.84640002 5.80590010 201 201 201
5.37890005 -1.84309995 5.81400013 211 211 211
5.39389992 -1.84010005 5.82170010 213 213 213
5.40929985 -1.83850002 5.82830000 192 192 192
5.42589998 -1.83120000 5.84089994 181 181 181
5.44140005 -1.82490003 5.85220003 177 177 177
5.45870018 -1.81579995 5.86709976 156 156 156
5.47800016 -1.79690003 5.89239979 135 135 135
9.52600002 0.20280001 9.88930035 125 125 125
9.74090004 0.21130000 10.04069996 0 0 0
9.55780029 -0.11390000 9.64229965 0 0 0
10.46730042 -1.05420005 9.56219959 84 84 84
10.59710026 -1.11969995 9.61629963 92 92 92
4.48369980 -2.60759997 4.78900003 253 253 253
5.26719999 -1.82480001 5.76989985 176 176 176
5.28079987 -1.83099997 5.76770020 227 227 227
5.29449987 -1.83630002 5.76639986 237 237 237
5.30679989 -1.84379995 5.76249981 137 137 137
5.32189989 -1.84389997 5.76700020 186 186 186
5.31209993 -1.95920002 5.64799976 237 237 237
5.36490011 -1.84679997 5.77729988 225 225 225
5.37979984 -1.84449995 5.78420019 215 215 215
5.39499998 -1.84099996 5.79250002 207 207 207
5.41069984 -1.83790004 5.80060005 198 198 198
5.42689991 -1.83239996 5.81129980 190 190 190
9.44610023 0.46680000 10.01459980 92 92 92
9.53590012 0.21480000 9.85729980 0 0 0
9.57429981 0.22900000 9.89480019 93 93 93
10.37539959 -0.21780001 10.08850002 81 81 81
10.47309971 -1.04910004 9.52340031 0 0 0
4.48619986 -2.58699989 4.78679991 0 0 0
5.23430014 -1.77460003 5.78240013 149 149 149
5.24510002 -1.79589999 5.76410007 201 201 201
5.27790022 -1.85150003 5.71789980 206 206 206
5.29610014 -1.83469999 5.74009991 213 213 213
5.30889988 -1.84010005 5.73850012 208 208 208
5.31759977 -1.87049997 5.71070004 144 144 144
5.31750011 -1.93959999 5.64150000 253 253 253
5.36619997 -1.84679997 5.74930000 205 205 205
5.38140011 -1.84309995 5.75769997 219 219 219
5.42850018 -1.83060002 5.78509998 173 173 173
5.44420004 -1.82360005 5.79710007 183 183 183
5.45769978 -1.83089995 5.79409981 178 178 178
5.48150015 -1.79279995 5.83979988 117 117 117
9.60089970 0.26420000 9.89340019 131 131 131
4.50019979 -2.57080007 4.78210020 144 144 144
4.56010008 -2.58010006 4.78319979 255 255 255
5.23600006 -1.77250004 5.75659990 146 146 146
5.24749994 -1.79020000 5.74209976 177 177 177
5.25969982 -1.80530000 5.73050022 202 202 202
5.27080011 -1.81970000 5.71939993 207 207 207
5.30719995 -1.85440004 5.69540024 185 185 185
5.31020021 -1.91139996 5.63959980 209 209 209
5.32390022 -1.91530001 5.63980007 215 215 215
5.35069990 -1.85529995 5.70769978 157 157 157
5.38159990 -1.84809995 5.72440004 185 185 185
5.39699984 -1.84350002 5.73379993 179 179 179
5.41289997 -1.83899999 5.74319983 205 205 205
5.42929983 -1.83290005 5.75449991 166 166 166
5.44519997 -1.82509995 5.76739979 195 195 195
5.46290016 -1.81420004 5.78380013 151 151 151
5.48449993 -1.78550005 5.81930017 122 122 122
9.62849998 0.30090001 9.89369965 125 125 125
10.14890003 0.04770000 10.03859997 102 102 102
4.50229979 -2.55769992 4.77220011 252 252 252
5.22970009 -1.73819995 5.76060009 106 106 106
5.23899984 -1.76329994 5.73829985 170 170 170
5.25010014 -1.78359997 5.72119999 185 185 185
5.26070023 -1.80649996 5.70149994 172 172 172
5.27159977 -1.82239997 5.68879986 176 176 176
5.28299999 -1.83910000 5.67560005 168 168 168
5.29720020 -1.84189999 5.67689991 204 204 204
5.30859995 -1.92530000 5.59749985 180 180 180
5.33129978 -1.88660002 5.64279985 140 140 140
5.35200024 -1.85500002 5.68039989 187 187 187
5.36630011 -1.85759997 5.68219995 150 150 150
5.38269997 -1.84850001 5.69619989 205 205 205
5.39799976 -1.84480000 5.70459986 197 197 197
5.41419983 -1.83889997 5.71560001 197 197 197
5.42320013 -1.86469996 5.69290018 170 170 170
5.44659996 -1.82410002 5.74039984 151 151 151
5.46449995 -1.81270003 5.75740004 162 162 162
5.48659992 -1.78199995 5.79479980 122 122 122
9.68480015 0.33329999 9.90890026 72 72 72
9.78009987 -0.06420000 9.64470005 76 76 76
4.50439978 -2.54320002 4.76370001 164 164 164
4.58920002 -2.54760003 4.77419996 255 255 255
4.72819996 -3.23359990 4.11619997 183 183 183
5.23210001 -1.73230004 5.73880005 137 137 137
5.24079990 -1.76080000 5.71299982 164 164 164
5.25199986 -1.78009999 5.69700003 169 169 169
5.26170015 -1.80799997 5.67229986 169 169 169
5.27269983 -1.82270002 5.66079998 198 198 198
5.28529978 -1.83369994 5.65369987 182 182 182
5.29559994 -1.85549998 5.63509989 173 173 173
5.30609989 -1.87140000 5.62249994 185 185 185
5.31699991 -1.89110005 5.60629988 160 160 160
5.33379984 -1.88090003 5.62139988 189 189 189
5.35029984 -1.86880004 5.63829994 147 147 147
5.36679983 -1.86129999 5.65080023 160 160 160
5.38320017 -1.85200000 5.66489983 166 166 166
5.39909983 -1.84529996 5.67649984 181 181 181
5.41499996 -1.84089994 5.68569994 197 197 197
5.43209982 -1.83159995 5.70020008 161 161 161
5.46570015 -1.81260002 5.72959995 146 146 146
5.49020004 -1.77199996 5.77729988 107 107 107
9.79810047 -0.04240000 9.62720013 17 17 17
10.48799992 -0.70480001 9.60340023 91 91 91
4.60400009 -2.52959991 4.77150011 255 255 255
4.72970009 -3.22989988 4.09989977 157 157 157
5.23460007 -1.72599995 5.71750021 132 132 132
5.24259996 -1.75820005 5.68800020 145 145 145
5.25220013 -1.78550005 5.66379976 145 145 145
5.26319981 -1.80659997 5.64620018 188 188 188
5.27409983 -1.82239997 5.63380003 200 200 200
5.28539991 -1.83930004 5.62039995 147 147 147
5.29650021 -1.85749996 5.60570002 165 165 165
5.30900002 -1.86350000 5.60349989 171 171 171
5.32340002 -1.86670005 5.60459995 230 230 230
5.33760023 -1.86860001 5.60699987 156 156 156
5.35300016 -1.86179996 5.61829996 203 203 203
5.36780024 -1.86199999 5.62260008 197 197 197
5.38339996 -1.85679996 5.63240004 189 189 189
5.39949989 -1.84889996 5.64510012 175 175 175
5.41580009 -1.84290004 5.65600014 200 200 200
5.43319988 -1.83190000 5.67229986 155 155 155
5.44969988 -1.82140005 5.68769979 173 173 173
5.48979998 -1.77900004 5.74200010 62 62 62
9.80920029 0.41810000 9.96259975 86 86 86
9.69989967 0.02770000 9.57100010 94 94 94
4.52180004 -2.50659990 4.75619984 241 241 241
4.61880016 -2.51349998 4.76679993 230 230 230
4.73169994 -3.22189999 4.08809996 83 83 83
5.23589993 -1.72580004 5.68989992 119 119 119
5.24380016 -1.75860000 5.65999985 145 145 145
5.25330019 -1.78659999 5.63520002 151 151 151
5.26399994 -1.80890000 5.61639977 173 173 173
5.27540016 -1.82229996 5.60650015 203 203 203
5.28690004 -1.83809996 5.59439993 194 194 194
5.29939985 -1.84930003 5.58710003 212 212 212
5.31220007 -1.85450006 5.58570004 211 211 211
5.32670021 -1.85669994 5.58780003 211 211 211
5.34079981 -1.85940003 5.58939981 205 205 205
5.35470009 -1.86010003 5.59280014 202 202 202
5.36929989 -1.86080003 5.59649992 202 202 202
5.38479996 -1.85630000 5.60570002 204 204 204
5.40030003 -1.85109997 5.61549997 191 191 191
5.41629982 -1.84630001 5.62510014 168 168 168
5.43370008 -1.83519995 5.64130020 152 152 152
5.45090008 -1.82159996 5.65990019 173 173 173
5.46950006 -1.80729997 5.67969990 150 150 150
9.88090038 0.47060001 10.00329971 92 92 92
9.71450043 0.04560000 9.54810047 84 84 84
4.22300005 -1.82850003 5.36350012 232 232 232
4.52430010 -2.48850012 4.75110006 185 185 185
4.73330021 -3.21700001 4.07320023 140 140 140
5.23589993 -1.73280001 5.65509987 136 136 136
5.24380016 -1.76520002 5.62570000 153 153 153
5.25489998 -1.78489995 5.60960007 165 165 165
5.26580000 -1.80620003 5.59189987 177 177 177
5.27699995 -1.82050002 5.58120012 193 193 193
5.28919983 -1.83329999 5.57219982 219 219 219
5.30159998 -1.84480000 5.56459999 239 239 239
5.31449986 -1.84940004 5.56379986 234 234 234
5.32830000 -1.85500002 5.56250000 228 228 228
5.34229994 -1.85800004 5.56370020 235 235 235
5.35589981 -1.86000001 5.56580019 217 217 217
5.37069988 -1.86000001 5.57019997 217 217 217
5.38490009 -1.86099994 5.57359982 206 206 206
5.40119982 -1.85259998 5.58669996 194 194 194
5.41720009 -1.84739995 5.59670019 197 197 197
5.43380022 -1.83990002 5.60909986 167 167 167
5.45090008 -1.82710004 5.62680006 149 149 149
5.47020006 -1.80939996 5.65000010 136 136 136
4.63619995 -2.48390007 4.75239992 223 223 223
4.64919996 -2.47869992 4.76000023 244 244 244
4.73559999 -3.20689988 4.06360006 215 215 215
5.23719978 -1.73259997 5.62790012 119 119 119
5.24620008 -1.75940001 5.60440016 163 163 163
5.25619984 -1.78489995 5.58239985 167 167 167
5.26709986 -1.80589998 5.56510019 184 184 184
5.27839994 -1.81939995 5.55520010 171 171 171
5.29040003 -1.83340001 5.54500008 224 224 224
5.30299997 -1.84399998 5.53840017 237 237 237
5.31589985 -1.84850001 5.53779984 222 222 222
5.32969999 -1.85420001 5.53630018 233 233 233
5.34369993 -1.85759997 5.53719997 216 216 216
5.37169981 -1.86129999 5.54190016 161 161 161
5.38700008 -1.85730004 5.55039978 205 205 205
5.40250015 -1.85210001 5.56010008 200 200 200
5.41809988 -1.84899998 5.56790018 205 205 205
5.43380022 -1.84549999 5.57609987 174 174 174
5.44770002 -1.84580004 5.58010006 221 221 221
5.46960020 -1.81729996 5.61450005 135 135 135
9.92020035 0.87080002 10.25660038 99 99 99
4.65159988 -2.46609998 4.74940014 250 250 250
4.73780012 -3.19790006 4.05289984 233 233 233
5.23829985 -1.73319995 5.59989977 150 150 150
5.24730015 -1.76010001 5.57639980 162 162 162
5.25719976 -1.78579998 5.55429983 157 157 157
5.26819992 -1.80710006 5.53690004 183 183 183
5.27950001 -1.82009995 5.52750015 188 188 188
5.29169989 -1.83299994 5.51849985 185 185 185
5.30459976 -1.84200001 5.51350021 207 207 207
5.31710005 -1.84860003 5.51090002 211 211 211
5.33090019 -1.85430002 5.50930023 220 220 220
5.34480000 -1.85810006 5.50969982 180 180 180
5.37270021 -1.86220002 5.51410007 205 205 205
5.38829994 -1.85689998 5.52390003 208 208 208
5.40320015 -1.85440004 5.53079987 197 197 197
5.41919994 -1.84940004 5.54040003 170 170 170
5.43559980 -1.84270000 5.55200005 177 177 177
5.45279980 -1.82939994 5.57000017 154 154 154
5.47240019 -1.81029999 5.59450006 131 131 131
9.95199966 0.96050000 10.29950047 79 79 79
4.41260004 -2.03649998 5.10529995 255 255 255
4.55639982 -2.43210006 4.74189997 217 217 217
4.65450001 -2.44829988 4.74389982 183 183 183
4.73960018 -3.19199991 4.03900003 255 255 255
5.23950005 -1.73350000 5.57240009 138 138 138
5.24819994 -1.76209998 5.54729986 147 147 147
5.25860023 -1.78520000 5.52799988 161 161 161
5.26919985 -1.80809999 5.50899982 180 180 180
5.27979994 -1.82500005 5.49569988 200 200 200
5.29269981 -1.83399999 5.49079990 185 185 185
5.30530024 -1.84469998 5.48409986 206 206 206
5.31809998 -1.84949994 5.48320007 214 214 214
5.33199978 -1.85500002 5.48190022 223 223 223
5.34549999 -1.86049998 5.48059988 224 224 224
5.37379980 -1.86290002 5.48670006 235 235 235
5.38889980 -1.85959995 5.49440002 200 200 200
5.40439987 -1.85459995 5.50379992 185 185 185
5.42089987 -1.84730005 5.51580000 191 191 191
5.43699980 -1.84200001 5.52580023 187 187 187
4.16160011 -1.86829996 5.20249987 86 86 86
4.41559982 -1.99800003 5.11800003 90 90 90
4.55889988 -2.41520000 4.73530006 130 130 130
4.66900015 -2.43420005 4.73689985 255 255 255
4.74319983 -3.17269993 4.03859997 181 181 181
5.24020004 -1.73670006 5.54220009 147 147 147
5.24870014 -1.76569998 5.51679993 162 162 162
5.25909996 -1.78890002 5.49739981 150 150 150
5.26959991 -1.81210005 5.47819996 178 178 178
5.27580023 -1.85099995 5.44269991 200 200 200
5.29360008 -1.83560002 5.46250010 198 198 198
5.30639982 -1.84519994 5.45699978 214 214 214
5.31899977 -1.85090005 5.45510006 211 211 211
5.33269978 -1.85730004 5.45300007 200 200 200
5.35939980 -1.86629999 5.45219994 222 222 222
5.37430000 -1.86570001 5.45720005 211 211 211
5.38990021 -1.86049998 5.46680021 204 204 204
5.40129995 -1.87370002 5.45769978 188 188 188
5.40619993 -1.91709995 5.41790009 247 247 247
5.45669985 -1.82299995 5.52269983 168 168 168
5.47520018 -1.80890000 5.54180002 127 127 127
4.16289997 -1.85339999 5.19140005 163 163 163
4.57369995 -2.40389991 4.72550011 255 255 255
4.68429995 -2.41899991 4.73120022 233 233 233
4.73509979 -3.16129994 4.02790022 208 208 208
5.24020004 -1.74339998 5.50860023 139 139 139
5.24919987 -1.76970005 5.48600006 156 156 156
5.26020002 -1.78960001 5.47009993 171 171 171
5.27099991 -1.81149995 5.45219994 173 173 173
5.29430008 -1.83800006 5.43359995 193 193 193
5.30700016 -1.84829998 5.42729998 210 210 210
5.31930017 -1.85560000 5.42390013 198 198 198
5.33279991 -1.86269999 5.42100000 188 188 188
5.35909986 -1.87320006 5.41870022 183 183 183
5.37319994 -1.87619996 5.42010021 166 166 166
5.38360023 -1.89390004 5.40640020 236 236 236
5.39709997 -1.89750004 5.40710020 223 223 223
5.42309999 -1.84809995 5.46159983 182 182 182
5.44019985 -1.83840001 5.47590017 172 172 172
5.45730019 -1.82539999 5.49350023 177 177 177
4.52260017 -2.24920011 4.84229994 255 255 255
4.68680000 -2.40520000 4.72170019 205 205 205
5.24139977 -1.74360001 5.48159981 150 150 150
5.25029993 -1.77010000 5.45889997 161 161 161
5.26079988 -1.79310000 5.44000006 169 169 169
5.27110004 -1.81690001 5.42040014 162 162 162
5.29489994 -1.84119999 5.40399981 197 197 197
5.30740023 -1.85239995 5.39690018 210 210 210
5.31990004 -1.85850000 5.39470005 199 199 199
5.34560013 -1.87660003 5.38500023 199 199 199
5.35790014 -1.88409996 5.38159990 205 205 205
5.37279987 -1.88349998 5.38649988 193 193 193
5.38730001 -1.88290000 5.39130020 191 191 191
5.40570021 -1.86459994 5.41400003 161 161 161
5.42360020 -1.85119998 5.43200016 182 182 182
5.44070005 -1.84150004 5.44630003 180 180 180
5.45830011 -1.82609999 5.46610022 164 164 164
4.29750013 -2.14569998 4.87580013 76 76 76
4.43249989 -2.00460005 5.03889990 255 255 255
4.53700018 -2.23869991 4.83090019 255 255 255
4.70230007 -2.38730001 4.71850014 255 255 255
5.24149990 -1.74960005 5.44899988 138 138 138
5.25029993 -1.77670002 5.42579985 144 144 144
5.26119995 -1.79709995 5.40959978 163 163 163
5.27169991 -1.82019997 5.39069986 159 159 159
5.28299999 -1.83309996 5.38170004 186 186 186
5.30749989 -1.85739994 5.36579990 189 189 189
5.32000017 -1.86370003 5.36329985 188 188 188
5.34679985 -1.87660003 5.35890007 214 214 214
5.35990000 -1.88039994 5.35920000 235 235 235
5.37430000 -1.88230002 5.36149979 213 213 213
5.38689995 -1.88999999 5.35809994 195 195 195
5.40479994 -1.87370002 5.37860012 131 131 131
5.42320013 -1.85819995 5.39860010 159 159 159
5.44119978 -1.84430003 5.41709995 186 186 186
5.47849989 -1.81009996 5.46029997 130 130 130
5.64400005 -2.40939999 4.95889997 255 255 255
4.18120003 -1.84010005 5.12989998 161 161 161
4.28639984 -2.10859990 4.88579988 15 15 15
4.43429995 -1.99389994 5.02449989 255 255 255
4.71750021 -2.37109995 4.71360016 255 255 255
4.72510004 -3.09669995 4.02769995 162 162 162
5.24179983 -1.75440001 5.41779995 143 143 143
5.25089979 -1.77980006 5.39639997 161 161 161
5.26170015 -1.80050004 5.37989998 147 147 147
5.27180004 -1.82589996 5.35890007 164 164 164
5.28289986 -1.83959997 5.34910011 171 171 171
5.29500008 -1.85220003 5.34070015 175 175 175
5.30119991 -1.89349997 5.30380011 124 124 124
5.32019997 -1.86839998 5.33260012 203 203 203
5.31960011 -1.94140005 5.26429987 200 200 200
5.34730005 -1.87979996 5.32969999 183 183 183
5.36089993 -1.88139999 5.33209991 159 159 159
5.37550020 -1.88199997 5.33589983 218 218 218
5.38999987 -1.88119996 5.34079981 187 187 187
5.40649986 -1.87140000 5.35489988 164 164 164
5.42320013 -1.86319995 5.36740017 127 127 127
5.43820000 -1.86230004 5.37279987 162 162 162
5.45870018 -1.83459997 5.40479994 143 143 143
5.47919989 -1.81210005 5.43190002 142 142 142
5.64750004 -2.40089989 4.94350004 136 136 136
4.28819990 -2.07369995 4.89510012 221 221 221
4.43610001 -1.98339999 5.01000023 255 255 255
4.60550022 -2.22300005 4.80980015 255 255 255
4.73350000 -2.35200000 4.71159983 228 228 228
5.24189997 -1.76010001 5.38590002 138 138 138
5.25099993 -1.78530002 5.36479998 144 144 144
5.26079988 -1.81120002 5.34329987 138 138 138
5.27019978 -1.83949995 5.31939983 151 151 151
5.28219986 -1.84889996 5.31400013 165 165 165
5.29510021 -1.85749996 5.30950022 167 167 167
5.30800009 -1.86650002 5.30480003 148 148 148
5.32030010 -1.87349999 5.30170012 174 174 174
5.32289982 -1.93130004 5.24870014 206 206 206
5.34899998 -1.87750006 5.30620003 192 192 192
5.36310005 -1.87650001 5.31110001 230 230 230
5.37760019 -1.87800002 5.31389999 233 233 233
5.39230013 -1.87629998 5.31969976 207 207 207
5.40770006 -1.87109995 5.32910013 221 221 221
5.42280006 -1.87020004 5.33440018 153 153 153
5.44000006 -1.85979998 5.34919977 174 174 174
5.45879984 -1.83899999 5.37410021 133 133 133
5.47989988 -1.81410003 5.40350008 143 143 143
5.65119982 -2.39219999 4.92850018 18 18 18
4.18380022 -1.82969999 5.08979988 178 178 178
4.28989983 -2.04870009 4.89480019 215 215 215
4.43800020 -1.96949995 4.99870014 245 245 245
4.73699999 -2.33080006 4.70900011 252 252 252
4.74100018 -3.07110000 4.01550007 229 229 229
5.25029993 -1.79530001 5.32900000 134 134 134
5.25969982 -1.82319999 5.30550003 147 147 147
5.27190018 -1.83700001 5.29610014 188 188 188
5.28420019 -1.84510005 5.29190016 197 197 197
5.29629993 -1.85749996 5.28380013 198 198 198
5.30940008 -1.86520004 5.28020000 188 188 188
5.32170010 -1.87230003 5.27720022 177 177 177
5.32789993 -1.91320002 5.24109983 207 207 207
5.35020018 -1.87730002 5.28060007 180 180 180
5.36409998 -1.87750006 5.28429985 216 216 216
5.37879992 -1.87779999 5.28840017 223 223 223
5.39389992 -1.87399995 5.29619980 182 182 182
5.40740013 -1.87759995 5.29680014 196 196 196
5.42570019 -1.86249995 5.31619978 189 189 189
5.44210005 -1.85590005 5.32709980 176 176 176
5.45839977 -1.84590006 5.34119987 136 136 136
5.48010015 -1.81780005 5.37360001 149 149 149
4.29150009 -2.03290009 4.88579988 221 221 221
4.43970013 -1.95959997 4.98360014 173 173 173
4.74030018 -2.31089997 4.70510006 255 255 255
4.74259996 -3.06620002 4.00070000 255 255 255
5.23439980 -1.73350000 5.35559988 79 79 79
5.23899984 -1.78770006 5.30670023 157 157 157
5.24790001 -1.81389999 5.28490019 141 141 141
5.26100016 -1.82260001 5.28039980 137 137 137
5.27339983 -1.83539999 5.27190018 240 240 240
5.28529978 -1.84539998 5.26590014 168 168 168
5.29820013 -1.85389996 5.26160002 185 185 185
5.31120014 -1.86259997 5.25719976 201 201 201
5.32429981 -1.86570001 5.25799990 218 218 218
5.33290005 -1.89530003 5.23320007 198 198 198
5.35129976 -1.87740004 5.25479984 179 179 179
5.36439991 -1.88119996 5.25509977 197 197 197
5.37960005 -1.87940001 5.26109982 219 219 219
5.39370012 -1.88049996 5.26410007 180 180 180
5.41009998 -1.87070000 5.27790022 185 185 185
5.42679977 -1.86269999 5.29020023 188 188 188
5.44339991 -1.85510004 5.30200005 181 181 181
5.46029997 -1.84249997 5.31860018 143 143 143
5.48110008 -1.81889999 5.34649992 128 128 128
4.19950008 -1.81930006 5.05109978 255 255 255
4.29320002 -2.00909996 4.88420010 203 203 203
4.38780022 -1.94669998 4.96400023 182 182 182
4.74380016 -2.29040003 4.70170021 230 230 230
4.75629997 -2.29200006 4.70260000 0 0 0
4.74510002 -3.05460000 3.99230003 255 255 255
5.23460007 -1.73920000 5.32410002 110 110 110
5.24109983 -1.78310001 5.28539991 128 128 128
5.25080013 -1.80530000 5.26760006 177 177 177
5.26259995 -1.82050002 5.25680017 192 192 192
5.27489996 -1.83410001 5.24760008 207 207 207
5.28700018 -1.84309995 5.24259996 195 195 195
5.30000019 -1.85109997 5.23880005 218 218 218
5.31269979 -1.86109996 5.23309994 219 219 219
5.32490015 -1.86819994 5.23000002 222 222 222
5.33769989 -1.87839997 5.22429991 158 158 158
5.35239983 -1.87800002 5.22870016 211 211 211
5.36600018 -1.87930000 5.23140001 221 221 221
5.38129997 -1.87679994 5.23810005 221 221 221
5.39589977 -1.87580001 5.24319983 214 214 214
5.41090012 -1.87259996 5.25050020 193 193 193
5.42740011 -1.86520004 5.26200008 201 201 201
5.44420004 -1.85669994 5.27470016 180 180 180
5.46159983 -1.84230006 5.29309988 144 144 144
5.48129988 -1.82270002 5.31680012 163 163 163
4.20079994 -1.81210005 5.03310013 161 161 161
4.21490002 -1.82770002 5.01999998 199 199 199
4.45679998 -1.94400001 4.95149994 0 0 0
4.74830008 -2.26009989 4.70739985 189 189 189
4.76000023 -2.27010012 4.70039988 209 209 209
4.74739981 -3.04430008 3.98259997 255 255 255
5.23360014 -1.75080001 5.28709984 135 135 135
5.24289989 -1.77999997 5.26270008 170 170 170
5.25250006 -1.80250001 5.24469995 173 173 173
5.26480007 -1.81540000 5.23610020 194 194 194
5.27710009 -1.82889998 5.22709990 177 177 177
5.28830004 -1.84200001 5.21820021 202 202 202
5.30130005 -1.85060000 5.21379995 217 217 217
5.31400013 -1.86010003 5.20870018 217 217 217
5.32630014 -1.86730003 5.20539999 240 240 240
5.34089994 -1.86880004 5.20809984 244 244 244
5.35430002 -1.87460005 5.20660019 225 225 225
5.36780024 -1.87619996 5.20900011 236 236 236
5.38280010 -1.87539995 5.21390009 226 226 226
5.39779997 -1.87249994 5.22090006 219 219 219
5.41289997 -1.86889994 5.22849989 196 196 196
5.42859983 -1.86520004 5.23649979 186 186 186
5.44560003 -1.85549998 5.25029993 172 172 172
5.48339987 -1.81860006 5.29500008 138 138 138
4.21630001 -1.80920005 5.01259995 241 241 241
4.76319981 -2.25149989 4.69500017 248 248 248
4.77670002 -2.24489999 4.70380020 190 190 190
4.75010014 -3.03099990 3.97580004 228 228 228
5.23320007 -1.75919998 5.25320005 143 143 143
5.24420023 -1.77929997 5.23780012 161 161 161
5.25460005 -1.79770005 5.22380018 179 179 179
5.26639986 -1.81330001 5.21269989 203 203 203
5.27850008 -1.82780004 5.20270014 201 201 201
5.28950024 -1.84189999 5.19290018 187 187 187
5.30189991 -1.85319996 5.18599987 213 213 213
5.31519985 -1.86000001 5.18349981 184 184 184
5.32760000 -1.86640000 5.18100023 169 169 169
5.34200001 -1.86909997 5.18260002 201 201 201
5.35570002 -1.87320006 5.18260002 185 185 185
5.36899996 -1.87609994 5.18380022 191 191 191
5.38380003 -1.87590003 5.18820000 227 227 227
5.39849997 -1.87440002 5.19369984 226 226 226
5.41379976 -1.86989999 5.20219994 196 196 196
5.42959976 -1.86570001 5.21049976 184 184 184
5.44659996 -1.85609996 5.22419977 171 171 171
5.46409988 -1.84130001 5.24270010 150 150 150
5.47669983 -1.85150003 5.23729992 161 161 161
4.46080017 -1.91520000 4.92990017 255 255 255
4.77089977 -2.19449997 4.72559977 72 72 72
4.78009987 -2.22569990 4.69880009 235 235 235
4.79449987 -2.21499991 4.71150017 150 150 150
4.75250006 -3.02040005 3.96639991 71 71 71
5.23449993 -1.75820005 5.22870016 146 146 146
5.24569988 -1.77789998 5.21369982 166 166 166
5.25589991 -1.79729998 5.19869995 187 187 187
5.26760006 -1.81299996 5.18769979 173 173 173
5.27890015 -1.83159995 5.17379999 165 165 165
5.29050016 -1.84280002 5.16669989 140 140 140
5.30310011 -1.85280001 5.16109991 166 166 166
5.31580019 -1.86269999 5.15560007 165 165 165
5.32880020 -1.86629999 5.15590000 143 143 143
5.35669994 -1.87399995 5.15670013 152 152 152
5.38490009 -1.87619996 5.16270018 198 198 198
5.39970016 -1.87409997 5.16879988 181 181 181
5.41450024 -1.87179995 5.17500019 168 168 168
5.43039989 -1.86699998 5.18400002 139 139 139
5.44199991 -1.88080001 5.17500019 223 223 223
5.46299982 -1.85070002 5.20809984 131 131 131
5.48570013 -1.81860006 5.24359989 122 122 122
4.23339987 -1.79209995 4.98080015 246 246 246
4.21770000 -1.79489994 4.98629999 165 165 165
4.78770018 -2.17030001 4.72770023 255 255 255
4.79680014 -2.20510006 4.69780016 255 255 255
5.23600006 -1.75680006 5.20450020 164 164 164
5.24620008 -1.78120005 5.18520021 171 171 171
5.25640011 -1.80050004 5.17040014 181 181 181
5.26719999 -1.82070005 5.15500021 136 136 136
5.27950001 -1.83440006 5.14599991 147 147 147
5.29160023 -1.84329998 5.14120007 227 227 227
5.30389977 -1.85450006 5.13439989 171 171 171
5.31720018 -1.86150002 5.13170004 187 187 187
5.33020020 -1.86520004 5.13189983 234 234 234
5.34429979 -1.86870003 5.13259983 247 247 247
5.35830021 -1.87199998 5.13350010 247 247 247
5.37190008 -1.87329996 5.13609982 240 240 240
5.38630009 -1.87469995 5.13889980 240 240 240
5.40030003 -1.87629998 5.14150000 220 220 220
5.41440010 -1.87699997 5.14489985 208 208 208
5.43190002 -1.86539996 5.16029978 178 178 178
5.44850016 -1.85780001 5.17189980 136 136 136
5.46549988 -1.84490001 5.18839979 141 141 141
5.48740005 -1.81649995 5.22020006 140 140 140
4.23479986 -1.78330004 4.96449995 233 233 233
4.23260021 -1.78579998 4.97149992 0 0 0
4.47779989 -1.89569998 4.90150023 255 255 255
4.80280018 -2.16470003 4.71239996 166 166 166
4.81339979 -2.18700004 4.69430017 255 255 255
5.25729990 -1.80209994 5.14370012 175 175 175
5.26840019 -1.82050002 5.13019991 168 168 168
5.28079987 -1.83340001 5.12179995 152 152 152
5.29199982 -1.84679997 5.11280012 222 222 222
5.30530024 -1.85319996 5.11059999 160 160 160
5.31839991 -1.86109996 5.10710001 172 172 172
5.33150005 -1.86440003 5.10769987 213 213 213
5.34530020 -1.86940002 5.10699987 189 189 189
5.35949993 -1.87170005 5.10879993 170 170 170
5.37309980 -1.87290001 5.11159992 155 155 155
5.38749981 -1.87469995 5.11399984 162 162 162
5.40240002 -1.87220001 5.12039995 202 202 202
5.41730022 -1.86919999 5.12729979 217 217 217
5.43359995 -1.86300004 5.13749981 191 191 191
5.45039988 -1.85450006 5.14989996 190 190 190
5.46780014 -1.84010005 5.16779995 130 130 130
5.48899984 -1.81449997 5.19670010 105 105 105
5.67810011 -2.32909989 4.80229998 28 28 28
3.87310004 -1.74249995 4.94939995 200 200 200
4.23400021 -1.78040004 4.95200014 255 255 255
4.82219982 -2.12490010 4.72879982 0 0 0
4.82980013 -2.16829991 4.69129992 255 255 255
4.84359980 -2.16569996 4.69640017 188 188 188
5.23719978 -1.76279998 5.14830017 172 172 172
5.24730015 -1.78770006 5.12860012 162 162 162
5.26959991 -1.82029998 5.10529995 159 159 159
5.28140020 -1.83640003 5.09410000 190 190 190
5.29320002 -1.84669995 5.08799982 219 219 219
5.30630016 -1.85389996 5.08510017 218 218 218
5.32009983 -1.85870004 5.08449984 227 227 227
5.33269978 -1.86399996 5.08319998 221 221 221
5.34709978 -1.86640000 5.08500004 235 235 235
5.36110020 -1.86919999 5.08629990 244 244 244
5.37449980 -1.87150002 5.08799982 236 236 236
5.38889980 -1.87320006 5.09049988 234 234 234
5.40369987 -1.87140000 5.09630013 208 208 208
5.41890001 -1.86740005 5.10410023 205 205 205
5.43489981 -1.86230004 5.11310005 143 143 143
5.45230007 -1.85119998 5.12799978 180 180 180
5.47060013 -1.83290005 5.14949989 125 125 125
5.49490023 -1.79439998 5.19070005 107 107 107
5.67869997 -2.33049989 4.77759981 255 255 255
4.22069979 -1.97130001 4.75379992 0 0 0
4.23519993 -1.78989995 4.91900015 68 68 68
4.84619999 -2.15440011 4.68389988 245 245 245
5.23719978 -1.76870000 5.11770010 139 139 139
5.24849987 -1.78729999 5.10400009 181 181 181
5.25860023 -1.80700004 5.08909988 158 158 158
5.26859999 -1.83130002 5.07009983 109 109 109
5.28230000 -1.83749998 5.06820011 234 234 234
5.29419994 -1.84739995 5.06260014 243 243 243
5.30760002 -1.85319996 5.06090021 219 219 219
5.32119989 -1.85889995 5.05950022 244 244 244
5.33419991 -1.86240005 5.05999994 229 229 229
5.34859991 -1.86500001 5.06160021 241 241 241
5.36219978 -1.86960006 5.06120014 228 228 228
5.37580013 -1.87090003 5.06379986 236 236 236
5.39069986 -1.87039995 5.06839991 240 240 240
5.40509987 -1.87020004 5.07259989 218 218 218
5.42030001 -1.86609995 5.08050013 201 201 201
5.43660021 -1.85979998 5.09070015 168 168 168
5.45349979 -1.85060000 5.10360003 170 170 170
5.47259998 -1.82920003 5.12799978 150 150 150
4.86229992 -2.13730001 4.67929983 238 238 238
5.23789978 -1.77149999 5.09009981 148 148 148
5.24930000 -1.78939998 5.07719994 167 167 167
5.25939989 -1.80890000 5.06260014 195 195 195
5.27199984 -1.82019997 5.05579996 219 219 219
5.28420019 -1.83389997 5.04689980 228 228 228
5.29580021 -1.84480000 5.04029989 240 240 240
5.30889988 -1.85239995 5.03700018 223 223 223
5.32229996 -1.85870004 5.03509998 240 240 240
5.33529997 -1.86220002 5.03550005 225 225 225
5.34950018 -1.86590004 5.03599977 230 230 230
5.36369991 -1.86800003 5.03809977 231 231 231
5.37709999 -1.86989999 5.04010010 243 243 243
5.39200020 -1.86969995 5.04440022 228 228 228
5.40660000 -1.86829996 5.04960012 205 205 205
5.43800020 -1.85829997 5.06729984 185 185 185
5.45510006 -1.84850001 5.08069992 168 168 168
5.47469997 -1.82509995 5.10680008 166 166 166
5.49300003 -1.81159997 5.12400007 76 76 76
5.23210001 -1.72940004 5.10059977 79 79 79
5.23899984 -1.77180004 5.06500006 178 178 178
5.25029993 -1.78989995 5.05189991 187 187 187
5.26100016 -1.80680001 5.03980017 204 204 204
5.27330017 -1.81910002 5.03219986 212 212 212
5.28550005 -1.83290005 5.02320004 208 208 208
5.29680014 -1.84580004 5.01480007 230 230 230
5.31020021 -1.85160005 5.01329994 212 212 212
5.32350016 -1.85829997 5.01100016 240 240 240
5.33650017 -1.86210001 5.01109982 236 236 236
5.35080004 -1.86479998 5.01259995 229 229 229
5.36490011 -1.86730003 5.01410007 227 227 227
5.37839985 -1.86919999 5.01620007 225 225 225
5.39319992 -1.86930001 5.02019978 224 224 224
5.40799999 -1.86689997 5.02640009 224 224 224
5.43879986 -1.85969996 5.04129982 156 156 156
5.45590019 -1.85010004 5.05450010 148 148 148
5.47520018 -1.82760000 5.07959986 128 128 128
5.49650002 -1.80200005 5.10809994 121 121 121
5.66620016 -2.29119992 4.73699999 240 240 240
4.25349998 -1.75380003 4.88040018 248 248 248
4.90990019 -2.09529996 4.67999983 248 248 248
5.23400021 -1.72570002 5.07910013 97 97 97
5.24039984 -1.77049994 5.04139996 174 174 174
5.25139999 -1.79009998 5.02710009 198 198 198
5.26240015 -1.80530000 5.01660013 199 199 199
5.27440023 -1.81920004 5.00750017 208 208 208
5.28649998 -1.83340001 4.99819994 202 202 202
5.29780006 -1.84619999 4.98990011 233 233 233
5.31110001 -1.85280001 4.98769999 222 222 222
5.32439995 -1.85959995 4.98519993 236 236 236
5.33760023 -1.86220002 4.98649979 231 231 231
5.35209990 -1.86430001 4.98850012 235 235 235
5.36600018 -1.86730003 4.98979998 241 241 241
5.37970018 -1.86829996 4.99259996 232 232 232
5.39440012 -1.86870003 4.99630022 224 224 224
5.40959978 -1.86489999 5.00369978 214 214 214
5.44089985 -1.85560000 5.02059984 177 177 177
5.45839977 -1.84389997 5.03569984 169 169 169
5.47700024 -1.82470000 5.05760002 125 125 125
5.49870014 -1.79740000 5.08750010 33 33 33
5.42420006 -2.33170009 4.60300016 213 213 213
4.25479984 -1.74730003 4.86210012 255 255 255
4.78340006 -2.92930007 3.89870000 54 54 54
4.91470003 -2.06900001 4.68090010 93 93 93
4.92710018 -2.07310009 4.67990017 244 244 244
4.94040012 -2.07380009 4.68219995 122 122 122
5.23519993 -1.72549999 5.05450010 44 44 44
5.24079990 -1.77429998 5.01340008 191 191 191
5.25239992 -1.79089999 5.00180006 200 200 200
5.26350021 -1.80569994 4.99179983 196 196 196
5.27559996 -1.81889999 4.98330021 196 196 196
5.28770018 -1.83319998 4.97399998 203 203 203
5.29920006 -1.84469998 4.96700001 224 224 224
5.31209993 -1.85309994 4.96309996 216 216 216
5.32560015 -1.85909998 4.96140003 240 240 240
5.33879995 -1.86170006 4.96260023 245 245 245
5.35330009 -1.86370003 4.96479988 231 231 231
5.36709976 -1.86740005 4.96530008 242 242 242
5.38110018 -1.86699998 4.96939993 227 227 227
5.39589977 -1.86679995 4.97359991 227 227 227
5.41060019 -1.86559999 4.97870016 208 208 208
5.42530012 -1.86380005 4.98439980 219 219 219
5.44220018 -1.85450006 4.99709988 199 199 199
5.45720005 -1.85380006 5.00190020 185 185 185
5.47910023 -1.82050002 5.03679991 135 135 135
5.43030024 -2.31159997 4.59940004 21 21 21
4.27150011 -1.74399996 4.83400011 240 240 240
4.25629997 -1.73549998 4.84859991 199 199 199
4.78590012 -2.91820002 3.88969994 174 174 174
4.94490004 -2.05019999 4.68050003 246 246 246
5.23460007 -1.73459995 5.02139997 80 80 80
5.24170017 -1.77530003 4.98789978 166 166 166
5.25349998 -1.79110003 4.97720003 208 208 208
5.26429987 -1.80719995 4.96600008 194 194 194
5.27640009 -1.82050002 4.95760012 194 194 194
5.28859997 -1.83459997 4.94850016 203 203 203
5.30039978 -1.84440005 4.94299984 212 212 212
5.31339979 -1.85259998 4.93930006 220 220 220
5.32719994 -1.85689998 4.93919992 233 233 233
5.34030008 -1.85969996 4.94019985 243 243 243
5.35470009 -1.86249995 4.94159985 236 236 236
5.36859989 -1.86549997 4.94280005 232 232 232
5.38240004 -1.86619997 4.94589996 240 240 240
5.39739990 -1.86520004 4.95079994 240 240 240
5.44239998 -1.85860002 4.96899986 196 196 196
5.46040010 -1.84500003 4.98559999 174 174 174
5.48129988 -1.81599998 5.01650000 153 153 153
5.44670010 -2.30369997 4.58830023 255 255 255
4.78830004 -2.90680003 3.88080001 233 233 233
5.23479986 -1.73940003 4.99259996 103 103 103
5.24289989 -1.77540004 4.96350002 170 170 170
5.25409985 -1.79390001 4.95030022 214 214 214
5.26560020 -1.80620003 4.94259977 202 202 202
5.27759981 -1.82019997 4.93359995 200 200 200
5.29010010 -1.83239996 4.92630005 196 196 196
5.30140018 -1.84480000 4.91849995 224 224 224
5.31470013 -1.85140002 4.91620016 213 213 213
5.32840014 -1.85630000 4.91559982 217 217 217
5.34140015 -1.85959995 4.91620016 223 223 223
5.35589981 -1.86199999 4.91790009 233 233 233
5.37020016 -1.86329997 4.92070007 222 222 222
5.38369989 -1.86530006 4.92250013 231 231 231
5.39860010 -1.86459994 4.92719984 223 223 223
5.42850018 -1.85899997 4.94019985 201 201 201
5.44589996 -1.84819996 4.95419979 178 178 178
5.46320009 -1.83759999 4.96810007 176 176 176
5.48260021 -1.81480002 4.99310017 149 149 149
5.45069981 -2.29159999 4.57709980 201 201 201
5.64459991 -2.23600006 4.68380022 220 220 220
4.79250002 -1.87860000 4.75290012 255 255 255
4.79069996 -2.89669991 3.87080002 253 253 253
4.97910023 -2.01440001 4.67250013 216 216 216
4.99370003 -2.00929999 4.67999983 237 237 237
5.23600006 -1.73940003 4.96810007 122 122 122
5.24370003 -1.77699995 4.93779993 173 173 173
5.25519991 -1.79390001 4.92609978 206 206 206
5.26650000 -1.80760002 4.91720009 192 192 192
5.27869987 -1.82040000 4.90929985 201 201 201
5.29099989 -1.83369994 4.90100002 191 191 191
5.30229998 -1.84580004 4.89359999 214 214 214
5.31570005 -1.85210001 4.89160013 224 224 224
5.32919979 -1.85759997 4.89039993 231 231 231
5.34270000 -1.85899997 4.89270020 233 233 233
5.35729980 -1.86020005 4.89550018 236 236 236
5.37139988 -1.86300004 4.89690018 229 229 229
5.38500023 -1.86450005 4.89930010 241 241 241
5.39979982 -1.86399996 4.90369987 208 208 208
5.48409986 -1.81340003 4.96999979 144 144 144
4.79330015 -2.88450003 3.86269999 255 255 255
5.23600006 -1.74530005 4.93849993 128 128 128
5.24440002 -1.77909994 4.91169977 162 162 162
5.25610018 -1.79519999 4.90080023 197 197 197
5.26770020 -1.80710006 4.89359999 197 197 197
5.27990007 -1.82000005 4.88560009 186 186 186
5.29209995 -1.83360004 4.87709999 206 206 206
5.30359983 -1.84480000 4.87050009 210 210 210
5.31680012 -1.85210001 4.86759996 224 224 224
5.33029985 -1.85780001 4.86630011 229 229 229
5.34369993 -1.85909998 4.86870003 226 226 226
5.35830021 -1.86080003 4.87109995 229 229 229
5.37260008 -1.86259997 4.87330008 227 227 227
5.38619995 -1.86380005 4.87589979 228 228 228
5.39729977 -1.88010001 4.86509991 208 208 208
5.41559982 -1.86259997 4.88479996 208 208 208
5.43170023 -1.85459995 4.89610004 199 199 199
5.44850016 -1.84609997 4.90780020 187 187 187
5.48689985 -1.80620003 4.95230007 151 151 151
4.79610014 -2.87089992 3.85570002 255 255 255
5.23719978 -1.74489999 4.91470003 127 127 127
5.24529982 -1.78009999 4.88679981 181 181 181
5.25699997 -1.79620004 4.87589979 193 193 193
5.26849985 -1.80850005 4.86829996 201 201 201
5.28100014 -1.82009995 4.86159992 206 206 206
5.29330015 -1.83319998 4.85360003 195 195 195
5.30469990 -1.84490001 4.84660006 233 233 233
5.31769991 -1.85280001 4.84320021 235 235 235
5.33160019 -1.85699999 4.84320021 235 235 235
5.34480000 -1.85930002 4.84469986 227 227 227
5.35960007 -1.86010003 4.84789991 226 226 226
5.37370014 -1.86249995 4.84959984 232 232 232
5.38749981 -1.86280000 4.85290003 221 221 221
5.41730022 -1.85969996 4.86359978 228 228 228
5.43260002 -1.85539997 4.87139988 205 205 205
5.45009995 -1.84420002 4.88560009 184 184 184
5.46799994 -1.83120000 4.90150023 157 157 157
4.79790020 -2.86430001 3.84260011 255 255 255
5.10389996 -1.85969996 4.76200008 160 160 160
5.23740005 -1.74960005 4.88640022 130 130 130
5.24590015 -1.78279996 4.86040020 173 173 173
5.25769997 -1.79859996 4.84989977 205 205 205
5.26919985 -1.81040001 4.84280014 206 206 206
5.28179979 -1.82140005 4.83659983 204 204 204
5.29370022 -1.83640003 4.82700014 208 208 208
5.30579996 -1.84500003 4.82280016 222 222 222
5.31890011 -1.85239995 4.81979990 238 238 238
5.33260012 -1.85730004 4.81920004 214 214 214
5.34600019 -1.85860002 4.82159996 225 225 225
5.36079979 -1.85930002 4.82480001 220 220 220
5.37519979 -1.86029994 4.82779980 233 233 233
5.40339994 -1.86280000 4.83309984 217 217 217
5.41890001 -1.85730004 4.84200001 221 221 221
5.43400002 -1.85399997 4.84880018 194 194 194
5.49030018 -1.80069995 4.90889978 158 158 158
5.63210011 -2.19600010 4.62099981 154 154 154
4.80089998 -2.84949994 3.83660007 255 255 255
5.09649992 -1.91009998 4.69420004 183 183 183
5.11770010 -1.87080002 4.73210001 130 130 130
5.13299990 -1.85979998 4.74490023 136 136 136
5.23769999 -1.75380003 4.85869980 163 163 163
5.24660015 -1.78509998 4.83449984 182 182 182
5.25799990 -1.80250001 4.82259989 190 190 190
5.26910019 -1.81640005 4.81370020 191 191 191
5.28200006 -1.82599998 4.80880022 198 198 198
5.29489994 -1.83599997 4.80359983 211 211 211
5.30660009 -1.84630001 4.79799986 207 207 207
5.31949997 -1.85469997 4.79419994 225 225 225
5.33360004 -1.85759997 4.79540014 231 231 231
5.34740019 -1.85739994 4.79899979 233 233 233
5.36180019 -1.85969996 4.80089998 225 225 225
5.37480021 -1.86689997 4.79829979 229 229 229
5.43520021 -1.85370004 4.82530022 194 194 194
5.45270014 -1.84220004 4.83970022 181 181 181
5.47130013 -1.82599998 4.85830021 155 155 155
4.80319977 -2.83969998 3.82629991 255 255 255
5.11899996 -1.86960006 4.70989990 121 121 121
5.15259981 -1.83589995 4.74580002 210 210 210
5.16830015 -1.82949996 4.75479984 244 244 244
5.22119999 -1.84609997 4.75339985 219 219 219
5.24639988 -1.79159999 4.80499983 173 173 173
5.25750017 -1.81050003 4.79190016 166 166 166
5.26940012 -1.82079995 4.78620005 198 198 198
5.28230000 -1.82959998 4.78210020 207 207 207
5.29600000 -1.83570004 4.78030014 213 213 213
5.30740023 -1.84780002 4.77309990 205 205 205
5.32079983 -1.85380006 4.77150011 223 223 223
5.33479977 -1.85710001 4.77229977 234 234 234
5.34829998 -1.85810006 4.77479982 232 232 232
5.35839987 -1.88010001 4.75909996 204 204 204
5.39080000 -1.86240005 4.78240013 227 227 227
5.40609980 -1.86020005 4.78830004 215 215 215
5.42140007 -1.85590005 4.79589987 216 216 216
5.43690014 -1.85080004 4.80420017 200 200 200
5.45400000 -1.84089994 4.81710005 187 187 187
5.47209978 -1.82720006 4.83330011 140 140 140
5.49370003 -1.79550004 4.86560011 132 132 132
4.80530024 -2.83069992 3.81529999 255 255 255
5.20050001 -1.81130004 4.75379992 255 255 255
5.21579981 -1.80799997 4.76020002 203 203 203
5.23099995 -1.80089998 4.76970005 164 164 164
5.23999977 -1.83019996 4.74749994 176 176 176
5.25710011 -1.81840003 4.76140022 195 195 195
5.27040005 -1.82120001 4.76240015 220 220 220
5.28369999 -1.82790005 4.76000023 219 219 219
5.29670000 -1.83790004 4.75500011 208 208 208
5.30870008 -1.84689999 4.75050020 206 206 206
5.32180023 -1.85430002 4.74760008 221 221 221
5.33559990 -1.85810006 4.74790001 240 240 240
5.34829998 -1.86310005 4.74700022 216 216 216
5.36339998 -1.86220002 4.75169992 223 223 223
5.37820005 -1.86119998 4.75640011 235 235 235
5.39190006 -1.86230004 4.75899982 245 245 245
5.40719986 -1.85990000 4.76499987 224 224 224
5.42259979 -1.85529995 4.77290010 219 219 219
5.43820000 -1.84979999 4.78149986 202 202 202
5.45520020 -1.84029996 4.79400015 180 180 180
5.47410011 -1.82350004 4.81300020 153 153 153
5.49410009 -1.79820001 4.83930016 117 117 117
5.61609983 -2.16300011 4.57469988 255 255 255
4.80789995 -2.81870008 3.80679989 235 235 235
5.21950006 -1.79419994 4.74889994 230 230 230
5.23180008 -1.80250001 4.74490023 234 234 234
5.24450016 -1.81280005 4.73939991 160 160 160
5.25810003 -1.81889999 4.73759985 213 213 213
5.27139997 -1.82159996 4.73859978 224 224 224
5.28469992 -1.82879996 4.73589993 232 232 232
5.29790020 -1.83690000 4.73239994 221 221 221
5.30999994 -1.84570003 4.72819996 218 218 218
5.32320023 -1.85239995 4.72590017 233 233 233
5.33680010 -1.85739994 4.72520018 232 232 232
5.36499977 -1.85969996 4.73059988 247 247 247
5.37909985 -1.86210001 4.73220015 220 220 220
5.39270020 -1.86360002 4.73439980 200 200 200
5.40780020 -1.86179996 4.73990011 189 189 189
5.42329979 -1.85699999 4.74800014 202 202 202
5.43930006 -1.84959996 4.75829983 187 187 187
5.45690012 -1.83800006 4.77260017 180 180 180
5.47489977 -1.82449996 4.78849983 145 145 145
5.49669981 -1.79209995 4.82100010 120 120 120
4.81090021 -2.80390000 3.80069995 169 169 169
5.22499990 -1.77069998 4.74590015 69 69 69
5.23439980 -1.79439998 4.72860003 192 192 192
5.24690008 -1.80610001 4.72189999 213 213 213
5.26030016 -1.81320000 4.71929979 205 205 205
5.27299976 -1.81900001 4.71759987 241 241 241
5.28630018 -1.82589996 4.71509981 244 244 244
5.29890013 -1.83739996 4.70879984 229 229 229
5.31069994 -1.84749997 4.70330000 226 226 226
5.32439995 -1.85169995 4.70330000 219 219 219
5.33799982 -1.85689998 4.70240021 220 220 220
5.36619997 -1.85899997 4.70790005 191 191 191
5.38040018 -1.86099994 4.70989990 223 223 223
5.39440012 -1.86059999 4.71379995 255 255 255
5.40929985 -1.86010003 4.71820021 219 219 219
5.42490005 -1.85430002 4.72700024 194 194 194
5.44010019 -1.85049999 4.73409986 205 205 205
5.45809984 -1.83729994 4.74970007 181 181 181
5.47660017 -1.82179999 4.76739979 151 151 151
5.49879980 -1.78750002 4.80140018 85 85 85
5.60739994 -2.15170002 4.53599977 220 220 220
4.81169987 -2.80450010 3.78150010 104 104 104
5.22840023 -1.75839996 4.73320007 98 98 98
5.23829985 -1.77980006 4.71789980 218 218 218
5.24970007 -1.79719996 4.70639992 198 198 198
5.26179981 -1.81079996 4.69810009 233 233 233
5.27460003 -1.81610000 4.69680023 230 230 230
5.28770018 -1.82439995 4.69320011 229 229 229
5.30009985 -1.83659995 4.68620014 213 213 213
5.31190014 -1.84650004 4.68109989 220 220 220
5.32539988 -1.85230005 4.67959976 239 239 239
5.33820009 -1.86080003 4.67589998 216 216 216
5.35260010 -1.85769999 4.68209982 233 233 233
5.36770010 -1.85720003 4.68629980 255 255 255
5.38170004 -1.85959995 4.68790007 214 214 214
5.39569998 -1.85920000 4.69189978 244 244 244
5.41099977 -1.85699999 4.69759989 210 210 210
5.42700005 -1.85010004 4.70739985 211 211 211
5.44189978 -1.84739995 4.71350002 168 168 168
5.45919991 -1.83690000 4.72669983 189 189 189
5.47849989 -1.81799996 4.74720001 140 140 140
5.49879980 -1.79200006 4.77379990 133 133 133
5.55179977 -2.15479994 4.49469995 226 226 226
5.59959984 -2.13260007 4.52650023 153 153 153
4.70260000 -2.55739999 3.94610000 0 0 0
5.23099995 -1.75070000 4.71649981 132 132 132
5.23909998 -1.78090000 4.69369984 176 176 176
5.25169992 -1.79270005 4.68699980 186 186 186
5.26329994 -1.80850005 4.67689991 234 234 234
5.27600002 -1.81470001 4.67490005 234 234 234
5.28879976 -1.82430005 4.67019987 220 220 220
5.30119991 -1.83669996 4.66309977 210 210 210
5.31279993 -1.84759998 4.65710020 229 229 229
5.32600021 -1.85409999 4.65500021 218 218 218
5.33669996 -1.87269998 4.64260006 207 207 207
