-1.93320000 2.47359991 22.25989914 255 255 255 369.000000
-1.92540002 2.47700000 22.26219940 255 255 255 385.000000
-1.91700006 2.48000002 22.26129913 255 255 255 401.000000
-1.91040003 2.48510003 22.27960014 255 255 255 -159.000000
-1.90409994 2.49070001 22.30130005 255 255 255 -1295.000000
-2.17740011 2.92869997 26.06509972 255 255 255 -1887.000000
-2.16109991 2.93939996 26.09950066 255 255 255 -655.000000
-2.14479995 2.93449998 26.02379990 255 255 255 33.000000
-2.13450003 2.93630004 26.01110077 255 255 255 -1503.000000
-1.75240004 2.48140001 21.85600090 255 255 255 -2047.000000
-1.74689996 2.48720002 21.88470078 255 255 255 -543.000000
-1.73920000 2.49060011 21.89010048 255 255 255 -1167.000000
-1.74479997 3.07739997 26.20079994 255 255 255 -415.000000
-1.73500001 3.07999992 26.20289993 255 255 255 273.000000
-0.76819998 2.82100010 23.14069939 255 255 255 -1583.000000
-0.66740000 3.26550007 26.78310013 255 255 255 -895.000000
-0.65640002 3.26370001 26.77050018 255 255 255 -1759.000000
-0.55309999 2.93639994 24.09499931 255 255 255 -1343.000000
-0.54310000 2.93409991 24.07939911 255 255 255 33.000000
-0.53359997 2.93359995 24.07789993 255 255 255 433.000000
-0.52440000 2.93350005 24.08060074 255 255 255 193.000000
-0.51499999 2.93409991 24.08860016 255 255 255 -943.000000
-0.47290000 2.90689993 23.88139915 255 255 255 113.000000
-0.36719999 3.19269991 26.32239914 255 255 255 -943.000000
-0.35720000 3.19079995 26.31430054 255 255 255 849.000000
-0.34680000 3.18880010 26.30570030 255 255 255 -1711.000000
-0.32359999 3.26060009 26.92399979 255 255 255 -1071.000000
-0.31070000 3.23769999 26.74410057 255 255 255 -543.000000
-0.30170000 3.24769998 26.83559990 255 255 255 -2047.000000
-0.29080001 3.24119997 26.79129982 255 255 255 -1615.000000
-0.27950001 3.23169994 26.72229958 255 255 255 -1407.000000
-0.26960000 3.23160005 26.73170090 255 255 255 -2047.000000
-0.25970000 3.23429990 26.76339912 255 255 255 -2047.000000
-0.24879999 3.23070002 26.74430084 255 255 255 -2047.000000
-0.23649999 3.20199990 26.51740074 255 255 255 -1103.000000
-0.21760000 3.22469997 26.72669983 255 255 255 -463.000000
0.28140000 2.75419998 23.58690071 255 255 255 -319.000000
-3.66289997 2.26629996 26.42480087 255 255 255 -959.000000
-3.08369994 2.13019991 23.35120010 255 255 255 -1871.000000
-3.07610011 2.13610005 23.35050011 255 255 255 -287.000000
-3.26670003 2.43829989 25.68470001 255 255 255 -1215.000000
-3.26180005 2.44729996 25.71339989 255 255 255 -847.000000
-3.25090003 2.67449999 26.91110039 255 255 255 -1167.000000
-3.23600006 2.67560005 26.86280060 255 255 255 -2047.000000
-2.78150010 2.32329988 23.22150040 255 255 255 -719.000000
-3.15149999 2.71320009 26.76729965 255 255 255 -2047.000000
-2.92190003 2.79749990 26.45999908 255 255 255 -335.000000
-2.91330004 2.80369997 26.46839905 255 255 255 -847.000000
-2.66319990 2.76679993 25.43199921 255 255 255 -479.000000
-2.65370011 2.77080011 25.42659950 255 255 255 305.000000
-2.64619994 2.77769995 25.44540024 255 255 255 -2047.000000
-2.69300008 2.85599995 26.07609940 255 255 255 -63.000000
-2.68339992 2.86059999 26.07539940 255 255 255 -799.000000
-2.69199991 2.97720003 26.83119965 255 255 255 -1919.000000
-2.62570000 2.93429995 26.86660004 255 255 255 -2047.000000
-2.17939997 2.58200002 23.25720024 255 255 255 -1055.000000
-2.17470002 2.59060001 23.30039978 255 255 255 -2047.000000
-1.97829998 2.51580000 22.26009941 255 255 255 -2047.000000
-1.96490002 2.51230001 22.20079994 255 255 255 -527.000000
-1.95570004 2.51449990 22.19120026 255 255 255 -63.000000
-1.94640005 2.51659989 22.18120003 255 255 255 241.000000
-1.93780005 2.51920009 22.17600060 255 255 255 177.000000
-1.93009996 2.52320004 22.18359947 255 255 255 1.000000
-1.92279994 2.52760005 22.19459915 255 255 255 -431.000000
-1.91600001 2.53270006 22.21190071 255 255 255 -1967.000000
-2.15059996 2.99009991 25.94549942 255 255 255 -751.000000
-0.77899998 2.87870002 23.14290047 255 255 255 -1055.000000
-0.77050000 2.88170004 23.16500092 255 255 255 -2047.000000
-0.62199998 3.32699990 26.75110054 255 255 255 -2047.000000
-0.55049998 2.99460006 24.08049965 255 255 255 -2047.000000
-0.53930002 2.98670006 24.02000046 255 255 255 -63.000000
-0.52960002 2.98539996 24.01300049 255 255 255 481.000000
-0.52020001 2.98519993 24.01429939 255 255 255 433.000000
-0.51059997 2.98480010 24.01479912 255 255 255 -239.000000
-0.49919999 2.97379994 23.92989922 255 255 255 -47.000000
-0.48930001 2.97110009 23.91180038 255 255 255 849.000000
-0.36070001 3.25489998 26.29700089 255 255 255 433.000000
-0.35069999 3.25410008 26.29850006 255 255 255 305.000000
-0.34349999 3.28489995 26.55579948 255 255 255 -1935.000000
-0.33309999 3.28640008 26.57640076 255 255 255 -479.000000
-0.30140001 3.28119993 26.56030083 255 255 255 97.000000
-0.28150001 3.28699994 26.62570000 255 255 255 -1055.000000
0.29589999 2.80690002 23.55310059 255 255 255 -175.000000
-3.70700002 2.31559992 26.42270088 255 255 255 -1823.000000
-3.67109990 2.31800008 26.28450012 255 255 255 -447.000000
-3.12430000 2.17829990 23.37820053 255 255 255 -351.000000
-3.11780000 2.18519998 23.38689995 255 255 255 -2047.000000
-2.68129992 2.82520008 25.40819931 255 255 255 -351.000000
-2.67079997 2.82909989 25.39900017 255 255 255 -751.000000
-2.72670007 3.02719998 26.78219986 255 255 255 -831.000000
-2.65910006 2.98480010 26.81469917 255 255 255 -1503.000000
-2.20530009 2.63890004 23.28720093 255 255 255 -879.000000
-1.96889997 2.55719995 22.11269951 255 255 255 -175.000000
-1.95910001 2.55890012 22.09880066 255 255 255 97.000000
-1.95009995 2.56110001 22.09029961 255 255 255 81.000000
-1.94149995 2.56410003 22.08900070 255 255 255 81.000000
-1.93340003 2.56760001 22.09189987 255 255 255 49.000000
-1.92560005 2.57150006 22.09819984 255 255 255 -255.000000
-1.92030001 2.57890010 22.13459969 255 255 255 -2047.000000
-2.35209990 3.19420004 27.34989929 255 255 255 -2047.000000
-2.34100008 3.19689989 27.34070015 255 255 255 -2047.000000
-1.83749998 2.56730008 21.85309982 255 255 255 -79.000000
-1.82290006 3.16370010 25.99099922 255 255 255 -719.000000
-1.60699999 2.88129997 23.57539940 255 255 255 -1439.000000
-0.78880000 2.93179989 23.10919952 255 255 255 -2047.000000
-0.53539997 3.03789997 23.95179939 255 255 255 -591.000000
-0.52539998 3.03550005 23.93600082 255 255 255 145.000000
-0.51550001 3.03340006 23.92259979 255 255 255 209.000000
-0.50550002 3.03119993 23.90900040 255 255 255 257.000000
-0.49599999 3.03259993 23.92309952 255 255 255 -719.000000
-0.36350000 3.30390000 26.16110039 255 255 255 -479.000000
-0.35249999 3.30049992 26.14170074 255 255 255 -175.000000
-0.34259999 3.30209994 26.16169930 255 255 255 -335.000000
-0.33210000 3.30240011 26.17200089 255 255 255 -1887.000000
-0.28690001 3.26349998 25.89760017 255 255 255 17.000000
-0.27640000 3.25690007 25.85409927 255 255 255 401.000000
0.31040001 2.85929990 23.51819992 255 255 255 -543.000000
0.94080001 2.86190009 25.25970078 255 255 255 -2047.000000
0.94980001 2.85680008 25.25070000 255 255 255 -223.000000
1.19480002 2.88730001 26.35810089 255 255 255 -1215.000000
-2.78340006 2.94400001 25.99959946 255 255 255 129.000000
-2.70199990 2.88750005 25.41609955 255 255 255 -479.000000
-2.69090009 2.89080000 25.40200043 255 255 255 369.000000
-2.68569994 2.89969993 25.43980026 255 255 255 -799.000000
-2.70390010 3.03239989 26.77949905 255 255 255 -591.000000
-2.69350004 3.03640008 26.77370071 255 255 255 -2047.000000
-2.23460007 2.69980001 23.35070038 255 255 255 -1007.000000
-2.55649996 3.20880008 27.48460007 255 255 255 -1215.000000
-1.97220004 2.60150003 22.02249908 255 255 255 -431.000000
-1.96200001 2.60229993 22.00180054 255 255 255 49.000000
-1.95319998 2.60520005 21.99939919 255 255 255 129.000000
-1.94449997 2.60800004 21.99580002 255 255 255 161.000000
-1.93640006 2.61170006 22.00049973 255 255 255 -127.000000
-1.92949998 2.61710000 22.01840019 255 255 255 -367.000000
-2.12940001 3.11109996 25.78680038 255 255 255 -239.000000
-2.11949992 3.11400008 25.78420067 255 255 255 129.000000
-2.10940003 3.11730003 25.78339958 255 255 255 -719.000000
-0.80769998 2.98090005 23.04780006 255 255 255 -2047.000000
-0.52249998 3.09310007 23.92009926 255 255 255 -31.000000
-0.51249999 3.09109998 23.90760040 255 255 255 145.000000
-0.50290000 3.09220004 23.91970062 255 255 255 -207.000000
-0.40360001 3.31699991 25.72419930 255 255 255 -63.000000
-0.36420000 3.33459997 25.88769913 255 255 255 -431.000000
-0.35370001 3.33340001 25.88570023 255 255 255 -143.000000
-0.34259999 3.32900000 25.85869980 255 255 255 337.000000
-0.33180001 3.32150006 25.80780029 255 255 255 385.000000
-0.31760001 3.51130009 27.30830002 255 255 255 -2047.000000
-0.24150001 3.36739993 26.24290085 255 255 255 -1023.000000
-0.16050000 3.45149994 26.98530006 255 255 255 -1583.000000
-0.14960000 3.45140004 26.99659920 255 255 255 -815.000000
0.03680000 3.37150002 26.60239983 255 255 255 -2047.000000
0.32510000 2.91319990 23.49589920 255 255 255 -783.000000
0.95520002 2.91969991 25.22540092 255 255 255 -335.000000
0.96469998 2.91569996 25.22649956 255 255 255 -2047.000000
1.18669999 2.93950009 26.17259979 255 255 255 -1583.000000
1.20799994 2.96259999 26.42160034 255 255 255 -2047.000000
-2.83769989 2.98060012 25.94899940 255 255 255 -1503.000000
-2.82960010 2.98699999 25.96120071 255 255 255 225.000000
-2.71830010 2.94540000 25.38450050 255 255 255 -463.000000
-2.70889997 2.95000005 25.38360023 255 255 255 81.000000
-2.73900008 3.11640000 26.93989944 255 255 255 -1807.000000
-1.98350000 2.64150000 21.92740059 255 255 255 -383.000000
-1.97370005 2.64289999 21.91209984 255 255 255 145.000000
-1.96350002 2.64409995 21.89480019 255 255 255 113.000000
-1.95430005 2.64650011 21.88719940 255 255 255 321.000000
-1.94599998 2.65000010 21.89030075 255 255 255 305.000000
-1.93809998 2.65420008 21.89809990 255 255 255 17.000000
-1.93069994 2.65899992 21.91169930 255 255 255 -239.000000
-1.92320001 2.66350007 21.92280006 255 255 255 -1519.000000
-1.90359998 2.65120006 21.79630089 255 255 255 -543.000000
-1.89400005 2.65300012 21.78549957 255 255 255 -2047.000000
-2.12190008 3.16689992 25.68860054 255 255 255 -1727.000000
-2.11190009 3.17109990 25.69470024 255 255 255 177.000000
-2.09200001 3.17740011 25.69389915 255 255 255 353.000000
-1.55250001 2.73420000 21.62109947 255 255 255 -2047.000000
-1.53770006 2.72650003 21.54190063 255 255 255 -975.000000
-1.49699998 2.76180005 21.71629906 255 255 255 -879.000000
-1.48839998 2.76410007 21.71780014 255 255 255 -687.000000
-0.59649998 3.18989992 24.18420029 255 255 255 -2047.000000
-0.58579999 3.18750000 24.16839981 255 255 255 -751.000000
-0.52810001 3.14249992 23.83930016 255 255 255 145.000000
-0.51870000 3.14520001 23.86249924 255 255 255 145.000000
-0.39700001 3.36849999 25.62879944 255 255 255 -639.000000
-0.38650000 3.36479998 25.60680008 255 255 255 -159.000000
-0.37580001 3.36579990 25.62179947 255 255 255 -63.000000
-0.36550000 3.36870003 25.65019989 255 255 255 -31.000000
-0.35589999 3.37500000 25.70529938 255 255 255 -1103.000000
-0.32240000 3.58979988 27.38150024 255 255 255 -1135.000000
0.04870000 3.42709994 26.52700043 255 255 255 -799.000000
0.95910001 2.98099995 25.18580055 255 255 255 -415.000000
1.18869996 2.98930001 26.01409912 255 255 255 -495.000000
1.19869995 2.98510003 26.01910019 255 255 255 -863.000000
1.23780000 2.91120005 25.62260056 255 255 255 -511.000000
-2.88709998 3.02579999 25.93440056 255 255 255 81.000000
-2.87709999 3.03099990 25.93359947 255 255 255 -2047.000000
-2.73510003 3.00340009 25.35610008 255 255 255 -1183.000000
-2.72490001 3.00780010 25.35250092 255 255 255 193.000000
-1.97679996 2.68700004 21.82600021 255 255 255 -127.000000
-1.96599996 2.68729997 21.80190086 255 255 255 -143.000000
-1.95669997 2.68959999 21.79389954 255 255 255 -95.000000
-1.94780004 2.69260001 21.79210091 255 255 255 -127.000000
-1.93789995 2.69420004 21.77919960 255 255 255 49.000000
-1.92840004 2.69589996 21.76740074 255 255 255 -143.000000
-1.92550004 2.70700002 21.83180046 255 255 255 -2047.000000
-2.08360004 3.23390007 25.60289955 255 255 255 465.000000
-2.07389998 3.23760009 25.60720062 255 255 255 -463.000000
-1.57029998 2.77659988 21.56049919 255 255 255 -463.000000
-1.56159997 2.77870011 21.55920029 255 255 255 -2047.000000
-1.55620003 2.78800011 21.61330032 255 255 255 -543.000000
-1.54779994 2.79099989 21.61890030 255 255 255 -383.000000
-1.53960001 2.79410005 21.62599945 255 255 255 -79.000000
-1.53050005 2.79699993 21.63030052 255 255 255 -831.000000
-1.52030003 2.79670000 21.61079979 255 255 255 -1247.000000
-0.58300000 3.24149990 24.12120056 255 255 255 -2047.000000
-0.54360002 3.18969989 23.74230003 255 255 255 -255.000000
-0.37840000 3.40269995 25.41419983 255 255 255 -399.000000
-0.09460000 3.49609995 26.36359978 255 255 255 -719.000000
-0.08380000 3.49410009 26.36050034 255 255 255 -591.000000
0.06060000 3.48670006 26.48520088 255 255 255 -31.000000
0.33939999 3.47370005 26.83799934 255 255 255 -1615.000000
0.35110000 3.47420001 26.86319923 255 255 255 -1935.000000
0.36240000 3.47379994 26.88139915 255 255 255 -1791.000000
0.33579999 3.03020000 23.48600006 255 255 255 289.000000
0.42559999 3.03329992 23.69039917 255 255 255 -367.000000
0.44540000 3.03340006 23.73299980 255 255 255 -1375.000000
0.96249998 3.04150009 25.14089966 255 255 255 -207.000000
1.25740004 2.94610000 25.43250084 255 255 255 -1119.000000
-3.07369995 3.11809993 26.59620094 255 255 255 -1039.000000
-2.90350008 3.06760001 25.80340004 255 255 255 -543.000000
-2.86229992 3.05599999 25.61720085 255 255 255 -223.000000
-2.84890008 3.05699992 25.58320045 255 255 255 177.000000
-2.83559990 3.05850005 25.55310059 255 255 255 177.000000
-2.82620001 3.06469989 25.56110001 255 255 255 -255.000000
-2.81469989 3.06760001 25.54389954 255 255 255 -1263.000000
-2.80259991 3.07069993 25.52659988 255 255 255 -959.000000
-2.79380012 3.07730007 25.53899956 255 255 255 -623.000000
-2.75200009 3.06240010 25.33460045 255 255 255 -543.000000
-2.74130011 3.06710005 25.33069992 255 255 255 -95.000000
-1.98730004 2.72589993 21.72750092 255 255 255 -1567.000000
-1.97510004 2.72440004 21.68969917 255 255 255 -335.000000
-1.96420002 2.72460008 21.66550064 255 255 255 97.000000
-1.95500004 2.72720003 21.65970039 255 255 255 113.000000
-1.94570005 2.72979999 21.65469933 255 255 255 -223.000000
-1.93690002 2.73270011 21.65239906 255 255 255 -351.000000
-1.92910004 2.73709989 21.66239929 255 255 255 -111.000000
-1.92279994 2.74399996 21.69160080 255 255 255 -559.000000
-2.10279989 3.29469991 25.59959984 255 255 255 -2047.000000
-2.09209991 3.29719996 25.59399986 255 255 255 417.000000
-2.08130002 3.30080009 25.59560013 255 255 255 753.000000
-2.07119989 3.30380011 25.59490013 255 255 255 369.000000
-2.06209993 3.30879998 25.60899925 255 255 255 177.000000
-2.05170012 3.31299996 25.61549950 255 255 255 481.000000
-2.04189992 3.31730008 25.62430000 255 255 255 -207.000000
-0.94080001 3.14080000 23.00410080 255 255 255 -1375.000000
-0.93089998 3.14100003 23.00040054 255 255 255 -111.000000
-0.57340002 3.25659990 23.79059982 255 255 255 -751.000000
-0.56220001 3.24900007 23.73769951 255 255 255 273.000000
-0.55170000 3.24760008 23.72960091 255 255 255 545.000000
-0.54030001 3.24160004 23.68840027 255 255 255 273.000000
-0.40030000 3.42249990 25.07760048 255 255 255 -415.000000
-0.38940001 3.42050004 25.06859970 255 255 255 -207.000000
-0.37889999 3.42429996 25.10260010 255 255 255 -431.000000
0.34390000 3.53369999 26.77960014 255 255 255 -255.000000
0.35360000 3.51929998 26.69009972 255 255 255 -1071.000000
0.34050000 3.08809996 23.47599983 255 255 255 -1311.000000
0.35049999 3.08730006 23.48920059 255 255 255 -847.000000
0.95499998 3.10619998 25.09600067 255 255 255 -2047.000000
0.96590000 3.10349989 25.10860062 255 255 255 -223.000000
1.20299995 3.08879995 25.75139999 255 255 255 -911.000000
1.21659994 3.06360006 25.61969948 255 255 255 -2047.000000
1.22479999 3.05399990 25.57950020 255 255 255 49.000000
-2.82259989 1.68239999 18.29689980 255 255 255 -2047.000000
-2.81579995 1.68760002 18.29150009 255 255 255 -943.000000
-3.43740010 2.32559991 23.48259926 255 255 255 -143.000000
-3.11759996 3.18740010 26.68919945 255 255 255 -1151.000000
-3.10890007 3.19449997 26.70179939 255 255 255 -831.000000
-3.10109997 3.20230007 26.72109985 255 255 255 -1007.000000
-2.82060003 3.11479998 25.42169952 255 255 255 -1279.000000
-2.81089997 3.12050009 25.42620087 255 255 255 -159.000000
-2.79579997 3.11940002 25.37739944 255 255 255 -95.000000
-2.78150010 3.11969995 25.33880043 255 255 255 -79.000000
-2.76690006 3.12019992 25.30069923 255 255 255 385.000000
-1.96679997 2.76819992 21.58180046 255 255 255 -863.000000
-1.95580006 2.76850009 21.55879974 255 255 255 -511.000000
-1.94630003 2.77049994 21.54960060 255 255 255 -495.000000
-1.93690002 2.77270007 21.54220009 255 255 255 -719.000000
-1.92770004 2.77559996 21.53949928 255 255 255 -831.000000
-1.91939998 2.77920008 21.54319954 255 255 255 -735.000000
-1.91199994 2.78449988 21.55979919 255 255 255 -607.000000
-2.11470008 3.34389997 25.50819969 255 255 255 -511.000000
-2.10360003 3.34610009 25.50000000 255 255 255 17.000000
-2.09330010 3.35060000 25.50819969 255 255 255 17.000000
-2.08389997 3.35509992 25.51770020 255 255 255 -655.000000
-1.66330004 2.84829998 21.46240044 255 255 255 81.000000
-1.65409994 2.85069990 21.46120071 255 255 255 -1743.000000
-0.57980001 3.30270004 23.69269943 255 255 255 -1183.000000
-0.56910002 3.30100012 23.68280029 255 255 255 481.000000
-0.55900002 3.30049992 23.68129921 255 255 255 721.000000
-0.54869998 3.30069995 23.68449974 255 255 255 545.000000
-0.53839999 3.30240011 23.69919968 255 255 255 -303.000000
-0.41209999 3.44359994 24.76819992 255 255 255 -127.000000
-0.40169999 3.44759989 24.80249977 255 255 255 -383.000000
-0.39190000 3.45180011 24.83769989 255 255 255 -431.000000
-0.38190001 3.45880008 24.89419937 255 255 255 -639.000000
-0.37130001 3.46250010 24.92670059 255 255 255 -2047.000000
0.35519999 3.14650011 23.48810005 255 255 255 225.000000
0.38460001 3.13720012 23.47559929 255 255 255 -591.000000
0.96780002 3.16470003 25.06760025 255 255 255 -1535.000000
0.97780001 3.16030002 25.06579971 255 255 255 49.000000
1.13460004 3.31439996 26.61160088 255 255 255 -1471.000000
1.21150005 3.12840009 25.56130028 255 255 255 -1167.000000
-2.86319995 1.70200002 18.27379990 255 255 255 -639.000000
-2.85529995 1.70640004 18.26040077 255 255 255 -2047.000000
-3.05410004 3.00580001 25.12529945 255 255 255 273.000000
-3.04259992 3.00979996 25.11140060 255 255 255 1.000000
-3.03360009 3.01580000 25.11569977 255 255 255 -319.000000
-3.02250004 3.02020001 25.10490036 255 255 255 -895.000000
-2.95869994 3.04789996 25.06159973 255 255 255 -2047.000000
-3.11549997 3.34279990 27.10930061 255 255 255 -1951.000000
-2.85209990 3.19050002 25.53129959 255 255 255 -207.000000
-2.83109999 3.18309999 25.43199921 255 255 255 -1679.000000
-2.79889989 3.16330004 25.23360062 255 255 255 -415.000000
-2.78570008 3.16560006 25.21019936 255 255 255 241.000000
-2.77390003 3.16849995 25.19379997 255 255 255 497.000000
-2.76419997 3.17379999 25.19720078 255 255 255 113.000000
-1.95710003 2.80999994 21.46249962 255 255 255 -1647.000000
-1.94620001 2.81019998 21.44000053 255 255 255 -847.000000
-1.93570006 2.81150007 21.42480087 255 255 255 -623.000000
-1.92680001 2.81430006 21.42210007 255 255 255 -639.000000
-1.91729999 2.81680012 21.41670036 255 255 255 -271.000000
-1.90559995 2.81629992 21.38879967 255 255 255 1.000000
-1.89890003 2.82209992 21.40990067 255 255 255 -623.000000
-2.13520002 3.38669991 25.39579964 255 255 255 -207.000000
-2.12540007 3.39120007 25.40460014 255 255 255 -79.000000
-2.11439991 3.39359999 25.39830017 255 255 255 -431.000000
-1.71790004 2.87829995 21.39690018 255 255 255 -175.000000
-1.70959997 2.88210011 21.40530014 255 255 255 -2047.000000
-1.32000005 3.71560001 26.40430069 255 255 255 -1007.000000
-0.98830003 3.24970007 22.98159981 255 255 255 -1903.000000
-0.68629998 3.78460002 26.66600037 255 255 255 -1183.000000
-0.58749998 3.35450006 23.63820076 255 255 255 129.000000
-0.57700002 3.35470009 23.64119911 255 255 255 641.000000
-0.56639999 3.35430002 23.64069939 255 255 255 689.000000
-0.55640000 3.35479999 23.64629936 255 255 255 465.000000
-0.54600000 3.35529995 23.65200043 255 255 255 -735.000000
0.98049998 3.22300005 25.03980064 255 255 255 -1871.000000
0.98970002 3.21650004 25.02009964 255 255 255 129.000000
1.15779996 3.36479998 26.52949905 255 255 255 -1807.000000
1.16830003 3.35820007 26.51569939 255 255 255 -2047.000000
-2.89720011 1.72650003 18.24519920 255 255 255 -751.000000
-3.90639997 2.82649994 26.72489929 255 255 255 -751.000000
-3.01819992 2.84430003 23.80999947 255 255 255 -1359.000000
-2.78929996 3.20989990 25.07519913 255 255 255 -1535.000000
-2.77740002 3.21280003 25.05900002 255 255 255 305.000000
-2.76580000 3.21670008 25.04929924 255 255 255 337.000000
-2.75670004 3.22250009 25.05710030 255 255 255 -383.000000
-1.92879999 2.85770011 21.34320068 255 255 255 -703.000000
-1.91880000 2.85999990 21.33639908 255 255 255 -255.000000
-1.90929997 2.86179996 21.32710075 255 255 255 -287.000000
-1.90020001 2.86500001 21.32719994 255 255 255 -383.000000
-1.89110005 2.86899996 21.33239937 255 255 255 -335.000000
-1.88339996 2.87350011 21.34379959 255 255 255 -479.000000
-1.40279996 3.75480008 26.28910065 255 255 255 -1663.000000
-1.39119995 3.75589991 26.28669930 255 255 255 -2047.000000
-1.38119996 3.76169991 26.31660080 255 255 255 -1007.000000
-1.37279999 3.77209997 26.37890053 255 255 255 -1135.000000
-1.36170006 3.77440000 26.38470078 255 255 255 -991.000000
-1.00960004 3.29480004 22.90710068 255 255 255 -2047.000000
-1.00129998 3.30130005 22.94650078 255 255 255 -367.000000
-0.58550000 3.40980005 23.61140060 255 255 255 273.000000
-0.57470000 3.40879989 23.60610008 255 255 255 849.000000
-0.56400001 3.40879989 23.60779953 255 255 255 705.000000
-0.55379999 3.40910006 23.61240005 255 255 255 305.000000
-0.51459998 3.50270009 24.27379990 255 255 255 -1455.000000
-0.50370002 3.50070000 24.26339912 255 255 255 -783.000000
-0.49280000 3.50009990 24.26250076 255 255 255 -223.000000
-0.48190001 3.50029993 24.26740074 255 255 255 -159.000000
-0.47130001 3.50119996 24.27750015 255 255 255 -447.000000
-0.46100000 3.50419998 24.30229950 255 255 255 -751.000000
-0.45030001 3.50769997 24.33119965 255 255 255 1.000000
-0.19939999 3.84060001 26.81920052 255 255 255 -2047.000000
-0.18780001 3.84159994 26.83589935 255 255 255 -975.000000
-0.12260000 3.66599989 25.65950012 255 255 255 -831.000000
-0.11150000 3.66560006 25.66699982 255 255 255 545.000000
-0.09980000 3.66420007 25.66810036 255 255 255 -623.000000
0.37369999 3.25699997 23.44619942 255 255 255 -79.000000
0.39420000 3.25440001 23.46459961 255 255 255 -719.000000
0.99100000 3.27810001 24.98399925 255 255 255 -1231.000000
1.00189996 3.27349997 24.98279953 255 255 255 33.000000
-2.93079996 1.75999999 18.25209999 255 255 255 -687.000000
-2.74250007 1.94760001 18.33300018 255 255 255 -1631.000000
-3.05430007 2.88479996 23.77090073 255 255 255 -399.000000
-2.72420001 3.05979991 23.71619987 255 255 255 -1839.000000
-2.91589999 3.31010008 25.57189941 255 255 255 -159.000000
-2.78660011 3.24699998 24.88829994 255 255 255 449.000000
-2.77710009 3.25340009 24.89800072 255 255 255 321.000000
-2.76629996 3.25740004 24.89089966 255 255 255 273.000000
-2.74349999 3.26570010 24.87719917 255 255 255 177.000000
-2.73350000 3.27080011 24.87899971 255 255 255 -1247.000000
-2.72259998 3.22309995 24.99480057 255 255 255 17.000000
-2.71219993 3.22799993 24.99469948 255 255 255 -1855.000000
-1.93970001 2.83170009 20.87490082 255 255 255 -1743.000000
-1.93149996 2.83590007 20.88240051 255 255 255 -1935.000000
-1.92929995 2.89960003 21.25480080 255 255 255 -943.000000
-1.91949999 2.90109992 21.24360085 255 255 255 -367.000000
-1.90939999 2.90289998 21.23329926 255 255 255 -543.000000
-1.89880002 2.90479994 21.22290039 255 255 255 -351.000000
-1.89010000 2.90790009 21.22340012 255 255 255 -351.000000
-1.88100004 2.91140008 21.22629929 255 255 255 -383.000000
-1.87170005 2.91450000 21.22590065 255 255 255 -255.000000
-1.86360002 2.91840005 21.23320007 255 255 255 -31.000000
-1.85409999 2.92090011 21.22940063 255 255 255 369.000000
-1.02550006 3.35290003 22.91909981 255 255 255 -879.000000
-0.91030002 3.31890011 22.63520050 255 255 255 -415.000000
-0.59359998 3.46359992 23.57329941 255 255 255 -847.000000
-0.58319998 3.46339989 23.57360077 255 255 255 449.000000
-0.57239997 3.46300006 23.57259941 255 255 255 673.000000
-0.56160003 3.46359992 23.57810020 255 255 255 689.000000
-0.55159998 3.46569991 23.59460068 255 255 255 -703.000000
-0.55150002 3.53439999 24.06459999 255 255 255 -975.000000
-0.51770002 3.52769995 24.02700043 255 255 255 -1407.000000
-0.50819999 3.53660011 24.09099960 255 255 255 -95.000000
-0.49770001 3.53830004 24.10569954 255 255 255 -255.000000
-0.47440001 3.52780008 24.04109955 255 255 255 -2047.000000
-0.10300000 3.73429990 25.70129967 255 255 255 -431.000000
-0.06830000 3.72580004 25.67560005 255 255 255 -2047.000000
-0.05630000 3.72460008 25.67930031 255 255 255 353.000000
-0.04490000 3.72350001 25.68309975 255 255 255 -79.000000
0.11470000 3.30609989 22.98110008 255 255 255 -799.000000
0.12510000 3.30349994 22.97649956 255 255 255 -1727.000000
1.01339996 3.33220005 24.95599937 255 255 255 -2047.000000
-2.96560001 1.79419994 18.26549911 255 255 255 -399.000000
-3.08949995 2.93840003 23.79409981 255 255 255 -1311.000000
-2.76290011 3.10940003 23.72739983 255 255 255 -2047.000000
-2.75279999 3.11380005 23.72330093 255 255 255 -703.000000
-2.95989990 3.36590004 25.60230064 255 255 255 -687.000000
-2.75119996 3.31539989 24.79080009 255 255 255 -687.000000
-2.73830009 3.31750011 24.76930046 255 255 255 -143.000000
-2.73629999 3.26390004 24.87229919 255 255 255 -879.000000
-2.72379994 3.26650000 24.85460091 255 255 255 -143.000000
-2.71250010 3.27010012 24.84490013 255 255 255 177.000000
-2.70210004 3.27480006 24.84420013 255 255 255 -47.000000
-2.69090009 3.27920008 24.84000015 255 255 255 -463.000000
-2.67549992 3.27800012 24.79420090 255 255 255 -2047.000000
-1.94920003 2.88479996 20.87849998 255 255 255 -1455.000000
-1.93920004 2.88689995 20.86989975 255 255 255 -2047.000000
-1.91929996 2.94180012 21.14949989 255 255 255 -687.000000
-1.90820003 2.94300008 21.13400078 255 255 255 -447.000000
-1.89890003 2.94530010 21.12919998 255 255 255 -431.000000
-1.88909996 2.94790006 21.12490082 255 255 255 -31.000000
-1.88000000 2.95129991 21.12700081 255 255 255 113.000000
-1.87199998 2.95560002 21.13660049 255 255 255 81.000000
-1.86370003 2.96020007 21.14769936 255 255 255 -79.000000
-1.51230001 3.47979999 23.78910065 255 255 255 -655.000000
-1.06089997 3.40440011 22.89800072 255 255 255 -2047.000000
-0.73259997 3.36520004 22.51860046 255 255 255 289.000000
-0.59189999 3.52029991 23.55710030 255 255 255 -639.000000
-0.58069998 3.51589990 23.52930069 255 255 255 497.000000
-0.56980002 3.51550007 23.52820015 255 255 255 705.000000
-0.55900002 3.51690006 23.53960037 255 255 255 305.000000
-0.55250001 3.54209995 23.70999908 255 255 255 -591.000000
-0.54390001 3.55809999 23.81940079 255 255 255 -159.000000
-0.53310001 3.55999994 23.83469963 255 255 255 -95.000000
-0.52179998 3.55620003 23.81220055 255 255 255 -431.000000
-0.50940001 3.54699993 23.75340080 255 255 255 -943.000000
-0.50220001 3.57279992 23.92880058 255 255 255 -2047.000000
-0.12930000 3.80159998 25.69370079 255 255 255 -2047.000000
-0.11740000 3.80340004 25.71619987 255 255 255 -1695.000000
0.13570000 3.35750008 22.95949936 255 255 255 -1039.000000
0.14630000 3.35669994 22.96730042 255 255 255 97.000000
0.15570000 3.33839989 22.85530090 255 255 255 -1503.000000
0.16550000 3.32529998 22.77960014 255 255 255 -879.000000
-3.12299991 1.72379994 18.35050011 255 255 255 -1903.000000
-3.00279999 1.82009995 18.25510025 255 255 255 -1455.000000
-2.99880004 1.82749999 18.26889992 255 255 255 -1647.000000
-2.81439996 1.98609996 18.23800087 255 255 255 -1999.000000
-3.11350012 2.98130012 23.73080063 255 255 255 -543.000000
-2.78629994 3.15730000 23.68889999 255 255 255 -2047.000000
-2.76780009 3.15219998 23.61370087 255 255 255 -1183.000000
-2.70609999 3.26670003 24.05340004 255 255 255 -767.000000
-2.73909998 3.35999990 24.63039970 255 255 255 -2047.000000
-2.71309996 3.36369991 24.58569908 255 255 255 225.000000
-2.70110011 3.36719990 24.57509995 255 255 255 -47.000000
-2.69090009 3.37210011 24.57640076 255 255 255 -239.000000
-2.65499997 3.22449994 24.08090019 255 255 255 -687.000000
-2.70569992 3.32179999 24.73360062 255 255 255 -1263.000000
-2.69260001 3.32360005 24.71089935 255 255 255 -415.000000
-2.66779995 3.32879996 24.67720032 255 255 255 -319.000000
-2.65809989 3.33450007 24.68479919 255 255 255 -751.000000
-1.95640004 2.93549991 20.86350060 255 255 255 -1279.000000
-1.94980001 2.94219995 20.88839912 255 255 255 -2015.000000
-1.93110001 2.98329997 21.08690071 255 255 255 -1855.000000
-1.91929996 2.98350000 21.06500053 255 255 255 -351.000000
-1.90960002 2.98550010 21.05750084 255 255 255 -159.000000
-1.89940000 2.98760009 21.04910088 255 255 255 -79.000000
-1.88979995 2.99040008 21.04700089 255 255 255 -31.000000
-1.88100004 2.99359989 21.04850006 255 255 255 97.000000
-1.87160003 2.99670005 21.04850006 255 255 255 -47.000000
-1.86329997 3.00189996 21.06290054 255 255 255 -287.000000
-2.16199994 3.72440004 25.85770035 255 255 255 -1567.000000
-2.01650000 3.75230002 25.78000069 255 255 255 -1951.000000
-1.93270004 3.90370011 26.57010078 255 255 255 -255.000000
-1.92190003 3.91020012 26.59420013 255 255 255 -543.000000
-1.90810001 3.90879989 26.56629944 255 255 255 -2047.000000
-1.52059996 3.53239989 23.74690056 255 255 255 -799.000000
-1.07219994 3.44659996 22.80439949 255 255 255 -639.000000
-1.06140006 3.44630003 22.79630089 255 255 255 -1199.000000
-1.05009997 3.44670010 22.79210091 255 255 255 -1087.000000
-1.03960001 3.44650006 22.78479958 255 255 255 -271.000000
-1.02900004 3.44670010 22.78019905 255 255 255 -415.000000
-0.94749999 3.42580009 22.60519981 255 255 255 -543.000000
-0.74610001 3.43149996 22.58379936 255 255 255 -2047.000000
-0.73570001 3.43140006 22.58219910 255 255 255 -255.000000
-0.79320002 3.92770004 25.84359932 255 255 255 -1055.000000
-0.77840000 3.91219997 25.74119949 255 255 255 193.000000
-0.76650000 3.91350007 25.74889946 255 255 255 -847.000000
-0.59990001 3.56739998 23.47649956 255 255 255 -63.000000
-0.58850002 3.56579995 23.46719933 255 255 255 113.000000
-0.57779998 3.56529999 23.46570015 255 255 255 177.000000
-0.56669998 3.56469989 23.46339989 255 255 255 49.000000
-0.55580002 3.56599998 23.47360039 255 255 255 -111.000000
-0.54570001 3.56920004 23.49690056 255 255 255 -143.000000
-0.53590000 3.57769990 23.55470085 255 255 255 -447.000000
-0.52710003 3.59340000 23.66090012 255 255 255 -639.000000
-0.48800001 3.54789996 23.36980057 255 255 255 -2047.000000
-0.12130000 3.87080002 25.72850037 255 255 255 -431.000000
1.02559996 3.45260000 24.89590073 255 255 255 81.000000
1.03719997 3.44950008 24.90579987 255 255 255 305.000000
1.04809999 3.44709992 24.91819954 255 255 255 289.000000
1.05939996 3.44490004 24.93339920 255 255 255 241.000000
-3.23200011 1.68820000 18.39900017 255 255 255 -1263.000000
-3.04150009 1.84669995 18.25349998 255 255 255 -431.000000
-2.85419989 2.00690007 18.21240044 255 255 255 -1263.000000
-3.24950004 3.00749993 23.92460060 255 255 255 -2047.000000
-3.14680004 3.03309989 23.73929977 255 255 255 -2047.000000
-2.80029988 3.21070004 23.65460014 255 255 255 -1359.000000
-2.72309995 3.32680011 24.05830002 255 255 255 -1583.000000
-2.67919993 3.41729999 24.42760086 255 255 255 17.000000
-2.66580009 3.41820002 24.40060043 255 255 255 417.000000
-2.68820000 3.27119994 24.05430031 255 255 255 -2047.000000
-2.67829990 3.27629995 24.05680084 255 255 255 -831.000000
-2.70469999 3.36279988 24.58309937 255 255 255 -1375.000000
-2.68160009 3.37030005 24.56660080 255 255 255 -367.000000
-2.66919994 3.37280011 24.55010033 255 255 255 -159.000000
-2.65580010 3.37409997 24.52459908 255 255 255 33.000000
-2.63179994 3.38000011 24.49900055 255 255 255 -319.000000
-2.62199998 3.38560009 24.50600052 255 255 255 -847.000000
-2.04320002 2.98399997 21.00000000 255 255 255 -2047.000000
-1.93180001 3.02640009 21.01339912 255 255 255 -1103.000000
-1.92089999 3.02649999 20.99270058 255 255 255 -207.000000
-1.91020000 3.02800012 20.98089981 255 255 255 -31.000000
-1.90030003 3.03049994 20.97610092 255 255 255 49.000000
-1.89119995 3.03340006 20.97529984 255 255 255 273.000000
-1.88189995 3.03670001 20.97669983 255 255 255 209.000000
-1.87269998 3.04069996 20.98209953 255 255 255 33.000000
-1.86420000 3.04469991 20.98950005 255 255 255 -447.000000
-1.85319996 3.04469991 20.96879959 255 255 255 -671.000000
-2.19460011 3.83590007 26.16799927 255 255 255 -63.000000
-2.17790008 3.85430002 26.24690056 255 255 255 -2047.000000
-1.80350006 4.00909996 26.62159920 255 255 255 -2047.000000
-1.10270000 3.51329994 22.88069916 255 255 255 -1759.000000
-1.09189999 3.51519990 22.88629913 255 255 255 -2047.000000
-0.99580002 3.48550010 22.64450073 255 255 255 -703.000000
-0.98470002 3.48569989 22.64060020 255 255 255 -2047.000000
-0.96160001 3.47880006 22.58609962 255 255 255 -879.000000
-0.73799998 3.49390006 22.61940002 255 255 255 -783.000000
-0.58200002 3.59249997 23.25839996 255 255 255 49.000000
-0.57139999 3.59279990 23.26180077 255 255 255 -207.000000
-0.56099999 3.59669995 23.28870010 255 255 255 -239.000000
-0.55080003 3.60260010 23.32900047 255 255 255 -431.000000
-0.48359999 3.59299994 23.28199959 255 255 255 -1663.000000
-0.11310000 3.93810010 25.74959946 255 255 255 -687.000000
-3.10750008 1.84899998 18.26169968 255 255 255 -1103.000000
-3.32550001 3.05119991 24.02050018 255 255 255 177.000000
-2.83500004 3.25510001 23.62910080 255 255 255 -239.000000
-2.62039995 3.42659998 24.36039925 255 255 255 -1775.000000
-2.60899997 3.43000007 24.35239983 255 255 255 17.000000
-2.59660006 3.43269992 24.33810043 255 255 255 49.000000
-2.58450007 3.43569994 24.32629967 255 255 255 -79.000000
-1.94289994 3.04749990 20.83839989 255 255 255 -831.000000
-1.93390000 3.06999993 20.94729996 255 255 255 -1919.000000
-1.92229998 3.07030010 20.92690086 255 255 255 -111.000000
-1.91199994 3.07240009 20.91930008 255 255 255 -31.000000
-1.90219998 3.07430005 20.91189957 255 255 255 49.000000
-1.89250004 3.07719994 20.91010094 255 255 255 193.000000
-1.88279998 3.08039999 20.91029930 255 255 255 321.000000
-1.87409997 3.08439994 20.91670036 255 255 255 177.000000
-1.86500001 3.08759999 20.91819954 255 255 255 -287.000000
-1.85640001 3.09270000 20.93210030 255 255 255 -2047.000000
-2.22760010 4.02549982 26.91950035 255 255 255 -1727.000000
-0.97390002 3.52710009 22.53709984 255 255 255 -735.000000
-0.96310002 3.52609992 22.52630043 255 255 255 -127.000000
-0.95190001 3.52679992 22.52519989 255 255 255 -1471.000000
-0.74049997 3.55809999 22.66550064 255 255 255 -511.000000
-0.64029998 3.61019993 22.99340057 255 255 255 -447.000000
-0.62949997 3.61109996 22.99930000 255 255 255 -143.000000
-0.60820001 3.61599994 23.03179932 255 255 255 -111.000000
-0.59770000 3.61789989 23.04509926 255 255 255 17.000000
-0.58740002 3.62120008 23.06730080 255 255 255 -127.000000
-0.57679999 3.62570000 23.09770012 255 255 255 -335.000000
-0.56680000 3.63010001 23.12709999 255 255 255 -335.000000
-0.55650002 3.63540006 23.16230011 255 255 255 -431.000000
-0.38049999 3.74959993 23.94750023 255 255 255 -1327.000000
0.16599999 3.48930001 22.71170044 255 255 255 -559.000000
0.34180000 3.50780010 23.06719971 255 255 255 1.000000
0.57840002 3.52489996 23.56450081 255 255 255 -735.000000
0.58960003 3.52559996 23.58950043 255 255 255 -959.000000
0.60110003 3.52620006 23.61440086 255 255 255 -671.000000
0.61240000 3.52579999 23.63279915 255 255 255 -223.000000
0.62470001 3.53189993 23.69440079 255 255 255 -831.000000
0.63669997 3.53449988 23.73349953 255 255 255 -559.000000
0.64870000 3.53640008 23.76869965 255 255 255 -543.000000
0.68390000 3.54040003 23.86190033 255 255 255 -287.000000
0.69529998 3.54089999 23.88699913 255 255 255 -207.000000
0.70709997 3.54180002 23.91670036 255 255 255 -399.000000
0.83810002 3.55469990 24.26930046 255 255 255 -1311.000000
0.87830001 3.57399988 24.47920036 255 255 255 -2047.000000
1.06920004 3.77659988 26.18989944 255 255 255 -1599.000000
-3.12380004 1.89170003 18.23749924 255 255 255 -1391.000000
-3.11870003 1.89870000 18.24449921 255 255 255 -335.000000
-3.10940003 1.90339994 18.22859955 255 255 255 -463.000000
-2.87170005 3.30040002 23.61370087 255 255 255 -559.000000
-2.69180012 3.42280006 23.78969955 255 255 255 -719.000000
-2.68039989 3.42630005 23.78120041 255 255 255 -1391.000000
-2.63720012 3.37940001 23.79929924 255 255 255 -1391.000000
-2.56259990 3.48790002 24.20030022 255 255 255 577.000000
-2.55119991 3.49200010 24.19659996 255 255 255 401.000000
-2.53970003 3.49580002 24.19160080 255 255 255 -527.000000
-2.45350003 3.45400000 23.78129959 255 255 255 -1375.000000
-2.31229997 3.54780006 23.99930000 255 255 255 -431.000000
-1.92770004 3.10179996 20.80260086 255 255 255 113.000000
-1.91999996 3.10809994 20.82320023 255 255 255 145.000000
-1.91299999 3.11470008 20.84690094 255 255 255 257.000000
-1.90310001 3.11750007 20.84460068 255 255 255 257.000000
-1.89370000 3.12150002 20.84939957 255 255 255 241.000000
-1.88520002 3.12590003 20.85869980 255 255 255 97.000000
-1.87660003 3.13019991 20.86720085 255 255 255 -127.000000
-1.86839998 3.13619995 20.88579941 255 255 255 -1087.000000
-2.29080009 4.06689978 26.85659981 255 255 255 -1679.000000
-2.29299998 4.09639978 27.02770042 255 255 255 -927.000000
-2.28010011 4.09859991 27.01840019 255 255 255 -2047.000000
-2.23810005 4.10179996 26.96870041 255 255 255 -2047.000000
-2.22659993 4.10769987 26.98399925 255 255 255 -1311.000000
-1.15890002 3.62700009 22.90290070 255 255 255 -975.000000
-1.14800000 3.62789989 22.90150070 255 255 255 -2047.000000
-0.94150001 3.57089996 22.44269943 255 255 255 -1215.000000
-0.89529997 4.11899996 25.83189964 255 255 255 -2047.000000
-0.72710001 3.59929991 22.56539917 255 255 255 -1055.000000
-0.72369999 3.63579988 22.79299927 255 255 255 -2047.000000
-0.71429998 3.64490008 22.84900093 255 255 255 -991.000000
-0.70249999 3.64350009 22.83970070 255 255 255 -815.000000
-0.69029999 3.63569999 22.79050064 255 255 255 -735.000000
-0.67900002 3.63520002 22.78689957 255 255 255 -431.000000
-0.66780001 3.63639998 22.79389954 255 255 255 -79.000000
-0.65689999 3.63700008 22.79820061 255 255 255 161.000000
-0.64609998 3.63890004 22.81019974 255 255 255 193.000000
-0.63559997 3.64369988 22.84029961 255 255 255 -207.000000
-0.62570000 3.64919996 22.87540054 255 255 255 -127.000000
-0.61519998 3.65319991 22.90110016 255 255 255 -15.000000
-0.60530001 3.66090012 22.95000076 255 255 255 -639.000000
-0.59560001 3.66810012 22.99670029 255 255 255 -2047.000000
-0.57450002 3.67689991 23.05400085 255 255 255 -1455.000000
-0.46100000 3.65799999 22.95840073 255 255 255 -2047.000000
-0.37650001 3.80990005 23.94849968 255 255 255 -1391.000000
0.33960000 3.52410007 22.79070091 255 255 255 305.000000
0.35210001 3.53690004 22.88979912 255 255 255 145.000000
0.36359999 3.54320002 22.94639969 255 255 255 -239.000000
0.37549999 3.54789996 22.99390030 255 255 255 -639.000000
0.38679999 3.54940009 23.02009964 255 255 255 -399.000000
0.39800000 3.55159998 23.05089951 255 255 255 -559.000000
0.45600000 3.56410003 23.21920013 255 255 255 -511.000000
0.97149998 3.67759991 24.92259979 255 255 255 -191.000000
1.08260000 3.85080004 26.24559975 255 255 255 -991.000000
1.09459996 3.84470010 26.23550034 255 255 255 -2047.000000
-2.99440002 2.06010008 18.17670059 255 255 255 -2047.000000
-3.38290000 3.14249992 23.94490051 255 255 255 97.000000
-2.89759994 3.35080004 23.59630013 255 255 255 -367.000000
-2.69079995 3.48029995 23.74370003 255 255 255 -15.000000
-2.64800000 3.43470001 23.76889992 255 255 255 -399.000000
-2.63569999 3.43770003 23.75650024 255 255 255 -2047.000000
-2.51920009 3.53080010 23.98399925 255 255 255 -1791.000000
-2.47670007 3.55069995 23.99920082 255 255 255 -223.000000
-2.46320009 3.55159998 23.97570038 255 255 255 -303.000000
-2.31340003 3.68169999 24.37870026 255 255 255 -2047.000000
-2.30049992 3.68429995 24.36879921 255 255 255 -143.000000
-1.94180000 3.14700007 20.77179909 255 255 255 177.000000
-1.93139994 3.14930010 20.76569939 255 255 255 417.000000
-1.92170000 3.15159988 20.76049995 255 255 255 753.000000
-1.91209996 3.15510011 20.76219940 255 255 255 417.000000
-1.90310001 3.15980005 20.77169991 255 255 255 49.000000
-1.89429998 3.16400003 20.77919960 255 255 255 193.000000
-1.88540006 3.16779995 20.78440094 255 255 255 -271.000000
-1.87829995 3.17600012 20.81710052 255 255 255 -2047.000000
-2.36290002 4.17290020 27.17219925 255 255 255 -767.000000
-2.33960009 4.15719986 27.04579926 255 255 255 -1471.000000
-2.31780005 4.14569998 26.94569969 255 255 255 -2047.000000
-0.83929998 3.85940003 23.82979965 255 255 255 -1871.000000
-0.73760003 3.64700007 22.50979996 255 255 255 -319.000000
-0.70670003 3.65980005 22.58580017 255 255 255 -111.000000
-0.69569999 3.66219997 22.59970093 255 255 255 -127.000000
-0.68540001 3.66529989 22.61840057 255 255 255 1.000000
-0.67470002 3.66799998 22.63500023 255 255 255 -31.000000
-0.66430002 3.67379999 22.67079926 255 255 255 -127.000000
-0.65399998 3.67840004 22.69879913 255 255 255 -223.000000
-0.64389998 3.68510008 22.74040031 255 255 255 -735.000000
-0.57630002 3.75419998 23.17280006 255 255 255 -1359.000000
-0.08590000 3.53049994 22.00029945 255 255 255 113.000000
-0.07550000 3.53270006 22.02169991 255 255 255 65.000000
-0.06460000 3.53419995 22.04010010 255 255 255 401.000000
-0.04360000 3.53620005 22.07029915 255 255 255 465.000000
-0.03250000 3.53710008 22.08550072 255 255 255 353.000000
0.15220000 3.56649995 22.45269966 255 255 255 193.000000
0.18539999 3.56629992 22.48999977 255 255 255 17.000000
0.19660001 3.56649995 22.50419998 255 255 255 81.000000
0.20730001 3.56640005 22.51679993 255 255 255 257.000000
0.60659999 3.68309999 23.83119965 255 255 255 193.000000
0.61780000 3.68050003 23.83510017 255 255 255 -143.000000
1.00510001 3.73519993 24.94199944 255 255 255 -447.000000
-3.13669991 1.99730003 18.19589996 255 255 255 -1071.000000
-3.12739992 2.00209999 18.18120003 255 255 255 -495.000000
-3.03460002 2.07920003 18.14990044 255 255 255 -895.000000
-3.95350003 2.85150003 24.19409943 255 255 255 -255.000000
-3.41249990 3.18889999 23.91440010 255 255 255 -1503.000000
-3.49920011 3.65540004 26.26250076 255 255 255 -879.000000
-2.92600012 3.40400004 23.59849930 255 255 255 -655.000000
-2.65709996 3.48860002 23.72830009 255 255 255 -335.000000
-2.44869995 3.61640000 23.94440079 255 255 255 305.000000
-2.43639994 3.61859989 23.93140030 255 255 255 433.000000
-2.42440009 3.62179995 23.92440033 255 255 255 161.000000
-2.41280007 3.62520003 23.91889954 255 255 255 -799.000000
-2.37179995 3.62639999 23.84539986 255 255 255 -383.000000
-1.95560002 3.19180012 20.73959923 255 255 255 -319.000000
-1.94449997 3.19300008 20.72590065 255 255 255 17.000000
-1.93429995 3.19479990 20.71719933 255 255 255 145.000000
-1.92369998 3.19670010 20.70899963 255 255 255 401.000000
-1.91349995 3.19980001 20.70779991 255 255 255 449.000000
-1.90419996 3.20320010 20.70940018 255 255 255 321.000000
-1.89489996 3.20670009 20.71229935 255 255 255 129.000000
-1.88610005 3.21210003 20.72629929 255 255 255 -479.000000
-2.42230010 4.25409985 27.32150078 255 255 255 -1071.000000
-0.88470000 3.65319991 22.23620033 255 255 255 193.000000
-0.76690000 3.67720008 22.35300064 255 255 255 -415.000000
-0.75529999 3.67720008 22.35120010 255 255 255 -63.000000
-0.74470001 3.67919993 22.36230087 255 255 255 49.000000
-0.73439997 3.68260002 22.38139915 255 255 255 193.000000
-0.69370002 3.70600009 22.51969910 255 255 255 -495.000000
-0.68379998 3.71160007 22.55340004 255 255 255 -847.000000
-0.61250001 3.83159995 23.28510094 255 255 255 -1935.000000
-0.56400001 3.81369996 23.18090057 255 255 255 -1743.000000
-3.08969998 2.10759997 18.20820045 255 255 255 -2047.000000
-4.00349998 2.89070010 24.19700050 255 255 255 -2047.000000
-3.30890012 3.28819990 23.74390030 255 255 255 -1263.000000
-3.30019999 3.29559994 23.75320053 255 255 255 -2047.000000
-3.63129997 3.68199992 26.38599968 255 255 255 -1007.000000
-3.55620003 3.69919991 26.26169968 255 255 255 -1071.000000
-2.95350003 3.45639992 23.59449959 255 255 255 -527.000000
-3.30380011 3.92810011 26.68650055 255 255 255 -2047.000000
-2.38940001 3.67790008 23.81130028 255 255 255 225.000000
-2.37249994 3.67289996 23.75309944 255 255 255 -319.000000
-1.94659996 3.23740005 20.67180061 255 255 255 -191.000000
-1.93579996 3.23909998 20.66169930 255 255 255 145.000000
-1.92499995 3.24140000 20.65509987 255 255 255 289.000000
-1.91470003 3.24329996 20.64710045 255 255 255 369.000000
-1.90489995 3.24600005 20.64500046 255 255 255 321.000000
-1.89559996 3.25090003 20.65530014 255 255 255 65.000000
-1.88619995 3.25440001 20.65810013 255 255 255 -143.000000
-1.87790000 3.25990009 20.67379951 255 255 255 -1071.000000
-0.32839999 3.59629989 21.58289909 255 255 255 -15.000000
-3.13260007 2.11630011 18.15220070 255 255 255 -2047.000000
-4.04209995 2.93560004 24.18390083 255 255 255 -1679.000000
-3.43280005 3.29410005 23.79879951 255 255 255 33.000000
-3.42170000 3.30029988 23.79509926 255 255 255 -1295.000000
-3.34109998 3.33899999 23.74250031 255 255 255 -1087.000000
-3.33030009 3.34450006 23.73769951 255 255 255 -1279.000000
-2.98219991 3.50999999 23.59860039 255 255 255 -319.000000
-2.28239989 3.51559997 22.44109917 255 255 255 -2047.000000
-2.39470005 3.73169994 23.76740074 255 255 255 -1231.000000
-2.38120008 3.73239994 23.74559975 255 255 255 65.000000
-2.36870003 3.73510003 23.73670006 255 255 255 449.000000
-2.35719991 3.73860002 23.73360062 255 255 255 273.000000
-2.34430003 3.74020004 23.71800041 255 255 255 -1119.000000
-2.30679989 3.79299998 23.92560005 255 255 255 -719.000000
-2.29550004 3.79780006 23.93070030 255 255 255 -447.000000
-2.28390002 3.80189991 23.93169975 255 255 255 -287.000000
-1.93649995 3.28290009 20.60309982 255 255 255 -303.000000
-1.92540002 3.28379989 20.58909988 255 255 255 113.000000
-1.91499996 3.28570008 20.58139992 255 255 255 225.000000
-1.90460002 3.28880000 20.58040047 255 255 255 209.000000
-1.89499998 3.29220009 20.58250046 255 255 255 33.000000
-1.88549995 3.29570007 20.58510017 255 255 255 -63.000000
-1.87660003 3.30150008 20.60129929 255 255 255 -319.000000
-2.21840000 4.21479988 26.02199936 255 255 255 -671.000000
-0.51779997 3.62590003 21.38400078 255 255 255 -1599.000000
-0.50660002 3.62369990 21.37269974 255 255 255 -1055.000000
-0.42070001 3.63140011 21.43650055 255 255 255 417.000000
-0.41000000 3.63380003 21.45350075 255 255 255 81.000000
-0.33460000 3.64150000 21.52449989 255 255 255 -1631.000000
-4.08220005 2.98160005 24.18029976 255 255 255 -623.000000
-3.00860000 3.56100011 23.58510017 255 255 255 97.000000
-2.99740005 3.56699991 23.58639908 255 255 255 -1135.000000
-2.28250003 3.55920005 22.35400009 255 255 255 -1775.000000
-2.36279988 3.79430008 23.70159912 255 255 255 -239.000000
-2.33599997 3.79629993 23.66349983 255 255 255 433.000000
-2.32389998 3.79959989 23.65920067 255 255 255 113.000000
-2.31559992 3.81030011 23.69939995 255 255 255 -335.000000
-2.30649996 3.81739998 23.72030067 255 255 255 -431.000000
-2.29679990 3.82500005 23.74270058 255 255 255 -447.000000
-2.28810000 3.83400011 23.77429962 255 255 255 -335.000000
-2.28040004 3.84360003 23.81069946 255 255 255 -1487.000000
-1.93610001 3.32389998 20.52989960 255 255 255 -527.000000
-1.92499995 3.32480001 20.51609993 255 255 255 -255.000000
-1.91359997 3.32640004 20.50559998 255 255 255 -127.000000
-1.90339994 3.32890010 20.50180054 255 255 255 -63.000000
-1.89359999 3.33209991 20.50279999 255 255 255 -175.000000
-1.88370001 3.33649993 20.50959969 255 255 255 -239.000000
-1.87440002 3.34019995 20.51399994 255 255 255 -207.000000
