-6.99800014 -3.89590001 1.29359996 187 187 187 945.000000
-6.98859978 -3.90689993 1.29489994 196 196 196 1089.000000
-6.97730017 -3.91729999 1.29670000 170 170 170 673.000000
-6.96680021 -3.92829990 1.29820001 198 198 198 1121.000000
-6.95539999 -3.93880010 1.29999995 178 178 178 801.000000
-6.94239998 -3.94829988 1.30229998 174 174 174 737.000000
-6.92329979 -3.95600009 1.30610001 176 176 176 769.000000
-6.90290022 -3.96289992 1.31019998 208 208 208 1281.000000
-6.88980007 -3.97219992 1.31260002 178 178 178 801.000000
-6.86999989 -3.98000002 1.31649995 174 174 174 737.000000
-6.84170008 -3.98410010 1.32270002 150 150 150 353.000000
-6.80789995 -3.98589993 1.33029997 187 187 187 945.000000
-6.76259995 -3.98399997 1.34080005 171 171 171 689.000000
-6.69920015 -3.97560000 1.35590005 143 143 143 241.000000
-6.92159986 -3.58570004 1.32029998 161 161 161 529.000000
-6.96899986 -3.62350011 1.30680001 167 167 167 625.000000
-6.99240017 -3.64890003 1.29949999 173 173 173 721.000000
-7.00629997 -3.67109990 1.29460001 176 176 176 769.000000
-7.01770020 -3.69149995 1.29040003 180 180 180 833.000000
-7.03009987 -3.71230006 1.28590000 172 172 172 705.000000
-7.03669977 -3.73079991 1.28299999 181 181 181 849.000000
-7.04160023 -3.74830008 1.28050005 198 198 198 1121.000000
-7.04160023 -3.76349998 1.27929997 231 231 231 1649.000000
-7.04540014 -3.78029990 1.27709997 193 193 193 1041.000000
-7.04080009 -3.79390001 1.27699995 211 211 211 1329.000000
-7.04300022 -3.80929995 1.27530003 187 187 187 945.000000
-7.03819990 -3.82249999 1.27530003 203 203 203 1201.000000
-7.03410006 -3.83649993 1.27520001 198 198 198 1121.000000
-7.02829981 -3.84829998 1.27559996 213 213 213 1361.000000
-7.01919985 -3.85969996 1.27670002 222 222 222 1505.000000
-7.01350021 -3.87260008 1.27699995 195 195 195 1073.000000
-7.00619984 -3.88429999 1.27779996 209 209 209 1297.000000
-6.99679995 -3.89569998 1.27900004 194 194 194 1057.000000
-6.98929977 -3.90739989 1.27980006 196 196 196 1089.000000
-6.97879982 -3.91820002 1.28139997 183 183 183 881.000000
-6.96859980 -3.92930007 1.28289998 189 189 189 977.000000
-6.95489979 -3.93889999 1.28520000 183 183 183 881.000000
-6.93900013 -3.94720006 1.28820002 187 187 187 945.000000
-6.92519999 -3.95700002 1.29059994 190 190 190 993.000000
-6.90460014 -3.96390009 1.29480004 200 200 200 1153.000000
-6.88969994 -3.97250009 1.29760003 186 186 186 929.000000
-6.86950016 -3.98009992 1.30159998 179 179 179 817.000000
-6.84030008 -3.98379993 1.30789995 160 160 160 513.000000
-6.80779982 -3.98609996 1.31509995 164 164 164 577.000000
-6.76189995 -3.98399997 1.32560003 162 162 162 545.000000
-6.92780018 -3.58879995 1.30340004 161 161 161 529.000000
-6.97469997 -3.62630010 1.29009998 180 180 180 833.000000
-6.99709988 -3.65129995 1.28320003 162 162 162 545.000000
-7.00850010 -3.67230010 1.27900004 187 187 187 945.000000
-7.02209997 -3.69379997 1.27429998 170 170 170 673.000000
-7.03160000 -3.71329999 1.27059996 180 180 180 833.000000
-7.03819990 -3.73169994 1.26769996 186 186 186 929.000000
-7.04390001 -3.74950004 1.26499999 204 204 204 1217.000000
-7.04549980 -3.76550007 1.26339996 200 200 200 1153.000000
-7.04570007 -3.78069997 1.26220000 200 200 200 1153.000000
-7.04260015 -3.79489994 1.26170003 208 208 208 1281.000000
-7.04370022 -3.80990005 1.26030004 192 192 192 1025.000000
-7.03940010 -3.82319999 1.26020002 189 189 189 977.000000
-7.03560019 -3.83730006 1.25999999 181 181 181 849.000000
-7.03009987 -3.84929991 1.26030004 214 214 214 1377.000000
-7.02129984 -3.86089993 1.26139998 221 221 221 1489.000000
-7.01459980 -3.87330008 1.26189995 198 198 198 1121.000000
-7.00729990 -3.88509989 1.26259995 211 211 211 1329.000000
-6.99779987 -3.89630008 1.26390004 195 195 195 1073.000000
-6.99149990 -3.90860009 1.26440001 203 203 203 1201.000000
-6.98070002 -3.91919994 1.26610005 189 189 189 977.000000
-6.96509981 -3.92810011 1.26890004 237 237 237 1745.000000
-6.95660019 -3.93980002 1.26989996 194 194 194 1057.000000
-6.94299984 -3.94899988 1.27230000 190 190 190 993.000000
-6.92560005 -3.95740008 1.27559996 197 197 197 1105.000000
-6.90780020 -3.96539998 1.27900004 182 182 182 865.000000
-6.89309978 -3.97410011 1.28170002 175 175 175 753.000000
-6.86850023 -3.97989988 1.28680003 197 197 197 1105.000000
-6.84210014 -3.98480010 1.29240000 157 157 157 465.000000
-6.80340004 -3.98469996 1.30100000 153 153 153 401.000000
-6.76039982 -3.98370004 1.31070006 165 165 165 593.000000
-6.93510008 -3.59240007 1.28629994 172 172 172 705.000000
-6.97790003 -3.62809992 1.27419996 169 169 169 657.000000
-6.99870014 -3.65229988 1.26769996 156 156 156 449.000000
-7.01160002 -3.67389989 1.26320004 190 190 190 993.000000
-7.02440023 -3.69510007 1.25870001 196 196 196 1089.000000
-7.03259993 -3.71399999 1.25539994 185 185 185 913.000000
-7.03929996 -3.73239994 1.25250006 204 204 204 1217.000000
-7.04460001 -3.75009990 1.25000000 198 198 198 1121.000000
-7.04790020 -3.76679993 1.24800003 204 204 204 1217.000000
-7.04969978 -3.78270006 1.24640000 189 189 189 977.000000
-7.04530001 -3.79629993 1.24619997 208 208 208 1281.000000
-7.04510021 -3.81069994 1.24520004 204 204 204 1217.000000
-7.04040003 -3.82389998 1.24520004 205 205 205 1233.000000
-7.03730011 -3.83829999 1.24479997 173 173 173 721.000000
-7.03200006 -3.85039997 1.24500000 220 220 220 1473.000000
-7.02190018 -3.86139989 1.24640000 210 210 210 1313.000000
-7.01590014 -3.87409997 1.24679995 206 206 206 1249.000000
-7.00960016 -3.88619995 1.24730003 214 214 214 1377.000000
-7.00080013 -3.89790010 1.24839997 200 200 200 1153.000000
-6.99069977 -3.90849996 1.24979997 204 204 204 1217.000000
-6.97980022 -3.91910005 1.25139999 191 191 191 1009.000000
-6.96810007 -3.92960000 1.25329995 208 208 208 1281.000000
-6.95709991 -3.94029999 1.25489998 195 195 195 1073.000000
-6.94220018 -3.94899988 1.25759995 185 185 185 913.000000
-6.92719984 -3.95830011 1.26030004 187 187 187 945.000000
-6.90889978 -3.96609998 1.26380002 175 175 175 753.000000
-6.89279985 -3.97420001 1.26680005 192 192 192 1025.000000
-6.87449980 -3.98250008 1.27020001 174 174 174 737.000000
-6.84600019 -3.98659992 1.27629995 148 148 148 321.000000
-6.80350018 -3.98499990 1.28579998 150 150 150 353.000000
-6.76210022 -3.98460007 1.29499996 193 193 193 1041.000000
-6.94500017 -3.59719992 1.26859999 147 147 147 305.000000
-6.98110008 -3.62980008 1.25829995 160 160 160 513.000000
-7.00159979 -3.65389991 1.25189996 173 173 173 721.000000
-7.01310015 -3.67490005 1.24779999 175 175 175 753.000000
-7.02320004 -3.69470000 1.24409997 198 198 198 1121.000000
-7.03359985 -3.71460009 1.24030006 182 182 182 865.000000
-7.03959990 -3.73289990 1.23759997 225 225 225 1553.000000
-7.04580021 -3.75090003 1.23490000 196 196 196 1089.000000
-7.04540014 -3.76589990 1.23380005 231 231 231 1649.000000
-7.05119991 -3.78360009 1.23119998 178 178 178 801.000000
-7.04839993 -3.79789996 1.23070002 200 200 200 1153.000000
-7.04759979 -3.81209993 1.22979999 212 212 212 1345.000000
-7.04150009 -3.82459998 1.23020005 190 190 190 993.000000
-7.04069996 -3.83999991 1.22920001 190 190 190 993.000000
-7.03289986 -3.85100007 1.23000002 216 216 216 1409.000000
-7.02419996 -3.86260009 1.23109996 200 200 200 1153.000000
-7.01749992 -3.87500000 1.23160005 185 185 185 913.000000
-7.00880003 -3.88619995 1.23269999 198 198 198 1121.000000
-7.00150013 -3.89840007 1.23339999 205 205 205 1233.000000
-6.99209976 -3.90930009 1.23469996 192 192 192 1025.000000
-6.98110008 -3.91989994 1.23629999 187 187 187 945.000000
-6.96950006 -3.93050003 1.23810005 191 191 191 1009.000000
-6.95620012 -3.94020009 1.24030006 184 184 184 897.000000
-6.94189978 -3.94919991 1.24280000 217 217 217 1425.000000
-6.92679977 -3.95840001 1.24549997 189 189 189 977.000000
-6.90799999 -3.96600008 1.24899995 179 179 179 817.000000
-6.89179993 -3.97410011 1.25199997 200 200 200 1153.000000
-6.87099981 -3.98149991 1.25610006 205 205 205 1233.000000
-6.84420013 -3.98609996 1.26160002 170 170 170 673.000000
-6.80480003 -3.98580003 1.27030003 149 149 149 337.000000
-6.76079988 -3.98440003 1.27999997 194 194 194 1057.000000
-6.95539999 -3.60229993 1.25080001 157 157 157 465.000000
-6.98360014 -3.63120008 1.24249995 197 197 197 1105.000000
-7.00530005 -3.65580010 1.23599994 183 183 183 881.000000
-7.01259995 -3.67490005 1.23300004 167 167 167 625.000000
-7.02500010 -3.69580007 1.22870004 181 181 181 849.000000
-7.03660011 -3.71620011 1.22469997 176 176 176 769.000000
-7.03970003 -3.73309994 1.22270000 217 217 217 1425.000000
-7.04909992 -3.75259995 1.21920002 187 187 187 945.000000
-7.04839993 -3.76749992 1.21829998 196 196 196 1089.000000
-7.05310011 -3.78469992 1.21589994 174 174 174 737.000000
-7.04939985 -3.79859996 1.21570003 210 210 210 1313.000000
-7.04869986 -3.81279993 1.21480000 205 205 205 1233.000000
-7.04230022 -3.82520008 1.21519995 184 184 184 897.000000
-7.04160023 -3.84069991 1.21420002 187 187 187 945.000000
-7.03579998 -3.85249996 1.21459997 210 210 210 1313.000000
-7.02449989 -3.86299992 1.21630001 211 211 211 1329.000000
-7.01919985 -3.87599993 1.21640003 192 192 192 1025.000000
-7.00820017 -3.88619995 1.21809995 213 213 213 1361.000000
-7.00339985 -3.89940000 1.21819997 197 197 197 1105.000000
-6.99209976 -3.90960002 1.21990001 197 197 197 1105.000000
-6.98290014 -3.92090011 1.22109997 189 189 189 977.000000
-6.97009993 -3.93099999 1.22309995 202 202 202 1185.000000
-6.95739985 -3.94090009 1.22520006 181 181 181 849.000000
-6.94430017 -3.95040011 1.22730005 205 205 205 1233.000000
-6.92630005 -3.95849991 1.23070002 183 183 183 881.000000
-6.90999985 -3.96709991 1.23360002 183 183 183 881.000000
-6.89120007 -3.97420001 1.23720002 185 185 185 913.000000
-6.87099981 -3.98169994 1.24109995 206 206 206 1249.000000
-6.84140015 -3.98539996 1.24720001 178 178 178 801.000000
-6.80100012 -3.98460007 1.25600004 146 146 146 289.000000
-6.75799990 -3.98359990 1.26540005 206 206 206 1249.000000
-6.96490002 -3.60689998 1.23329997 195 195 195 1073.000000
-6.98559999 -3.63240004 1.22700000 205 205 205 1233.000000
-7.00379992 -3.65540004 1.22140002 197 197 197 1105.000000
-7.01490021 -3.67619991 1.21749997 163 163 163 561.000000
-7.03030014 -3.69840002 1.21249998 163 163 163 561.000000
-7.03739977 -3.71679997 1.20959997 188 188 188 961.000000
-7.04290009 -3.73480010 1.20710003 219 219 219 1457.000000
-7.04969978 -3.75309992 1.20430005 192 192 192 1025.000000
-7.04909992 -3.76810002 1.20330000 227 227 227 1585.000000
-7.05690002 -3.78660011 1.20029998 175 175 175 753.000000
-7.05060005 -3.79940009 1.20070004 207 207 207 1265.000000
-7.05249977 -3.81469989 1.19910002 184 184 184 897.000000
-7.04409981 -3.82629991 1.20000005 187 187 187 945.000000
-7.04440022 -3.84209991 1.19879997 180 180 180 833.000000
-7.03840017 -3.85389996 1.19920003 202 202 202 1185.000000
-7.02820015 -3.86479998 1.20060003 179 179 179 817.000000
-7.02129984 -3.87709999 1.20120001 190 190 190 993.000000
-7.00899982 -3.88680005 1.20309997 219 219 219 1457.000000
-7.00400019 -3.89989996 1.20330000 200 200 200 1153.000000
-6.99410009 -3.91070008 1.20459998 183 183 183 881.000000
-6.98439980 -3.92170000 1.20589995 198 198 198 1121.000000
-6.97069979 -3.93149996 1.20819998 196 196 196 1089.000000
-6.95940018 -3.94199991 1.20990002 185 185 185 913.000000
-6.94619989 -3.95140004 1.21210003 207 207 207 1265.000000
-6.92880011 -3.95980000 1.21519995 185 185 185 913.000000
-6.90950012 -3.96709991 1.21879995 173 173 173 721.000000
-6.89139986 -3.97449994 1.22220004 193 193 193 1041.000000
-6.87060022 -3.98180008 1.22619998 206 206 206 1249.000000
-6.84210014 -3.98589993 1.23199999 179 179 179 817.000000
-6.79909992 -3.98420000 1.24129999 143 143 143 241.000000
-6.75850010 -3.98410010 1.25000000 196 196 196 1089.000000
-6.96120024 -3.60549998 1.21910000 186 186 186 929.000000
-6.98530006 -3.63240004 1.21200001 214 214 214 1377.000000
-7.00729990 -3.65730000 1.20560002 177 177 177 785.000000
-7.01630020 -3.67709994 1.20220006 163 163 163 561.000000
-7.03100014 -3.69899988 1.19749999 178 178 178 801.000000
-7.03929996 -3.71799994 1.19430006 181 181 181 849.000000
-7.04339981 -3.73530006 1.19219995 243 243 243 1841.000000
-7.05329990 -3.75489998 1.18869996 171 171 171 689.000000
-7.05179977 -3.76950002 1.18789995 213 213 213 1361.000000
-7.05970001 -3.78810000 1.18490005 193 193 193 1041.000000
-7.05079985 -3.79970002 1.18589997 236 236 236 1729.000000
-7.05639982 -3.81660008 1.18350005 189 189 189 977.000000
-7.04920006 -3.82870007 1.18410003 179 179 179 817.000000
-7.04559994 -3.84290004 1.18390000 176 176 176 769.000000
-7.04029989 -3.85489988 1.18410003 225 225 225 1553.000000
-7.03070021 -3.86610007 1.18529999 188 188 188 961.000000
-7.02299976 -3.87809992 1.18610001 225 225 225 1553.000000
-7.01310015 -3.88870001 1.18739998 198 198 198 1121.000000
-7.00409985 -3.90030003 1.18850005 189 189 189 977.000000
-6.99370003 -3.91079998 1.19000006 188 188 188 961.000000
-6.98420000 -3.92190003 1.19120002 204 204 204 1217.000000
-6.97230005 -3.93239999 1.19299996 195 195 195 1073.000000
-6.95909977 -3.94210005 1.19509995 187 187 187 945.000000
-6.94490004 -3.95110011 1.19749999 205 205 205 1233.000000
-6.92910004 -3.96009994 1.20029998 195 195 195 1073.000000
-6.91249990 -3.96860003 1.20319998 173 173 173 721.000000
-6.89219999 -3.97510004 1.20710003 195 195 195 1073.000000
-6.86660004 -3.98060012 1.21210003 216 216 216 1409.000000
-6.84280014 -3.98639989 1.21679997 172 172 172 705.000000
-6.80000019 -3.98480010 1.22599995 144 144 144 257.000000
-6.75759983 -3.98399997 1.23500001 202 202 202 1185.000000
-6.96479988 -3.60739994 1.20309997 189 189 189 977.000000
-6.99189997 -3.63569999 1.19540000 183 183 183 881.000000
-7.00680017 -3.65730000 1.19070005 205 205 205 1233.000000
-7.02010012 -3.67910004 1.18640006 179 179 179 817.000000
-7.03259993 -3.70000005 1.18229997 173 173 173 721.000000
-7.04239988 -3.71959996 1.17879999 173 173 173 721.000000
-7.04720020 -3.73720002 1.17649996 202 202 202 1185.000000
-7.05630016 -3.75650001 1.17320001 150 150 150 353.000000
-7.05539989 -3.77130008 1.17229998 193 193 193 1041.000000
-7.06409979 -3.79029989 1.16919994 174 174 174 737.000000
-7.05970001 -3.80380011 1.16910005 180 180 180 833.000000
-7.05469990 -3.81609988 1.16919994 190 190 190 993.000000
-7.04780006 -3.82830000 1.16980004 193 193 193 1041.000000
-7.04710007 -3.84380007 1.16880000 207 207 207 1265.000000
-7.04150009 -3.85570002 1.16919994 208 208 208 1281.000000
-7.03259993 -3.86710000 1.17019999 185 185 185 913.000000
-7.02390003 -3.87870002 1.17120004 208 208 208 1281.000000
-7.01480007 -3.88969994 1.17229998 197 197 197 1105.000000
-7.00509977 -3.90089989 1.17359996 175 175 175 753.000000
-6.99660015 -3.91219997 1.17460001 179 179 179 817.000000
-6.98320007 -3.92179990 1.17670000 191 191 191 1009.000000
-6.97429991 -3.93339992 1.17780006 172 172 172 705.000000
-6.96010017 -3.94280005 1.18009996 182 182 182 865.000000
-6.94719982 -3.95230007 1.18219995 195 195 195 1073.000000
-6.92810011 -3.96000004 1.18570006 183 183 183 881.000000
-6.91190004 -3.96860003 1.18850005 183 183 183 881.000000
-6.89489985 -3.97639990 1.19149995 175 175 175 753.000000
-6.87109995 -3.98259997 1.19610000 180 180 180 833.000000
-6.84259987 -3.98659992 1.20179999 178 178 178 801.000000
-6.79670000 -3.98379993 1.21159995 149 149 149 337.000000
-6.75489998 -3.98329997 1.22039998 193 193 193 1041.000000
-6.96850014 -3.60929990 1.18710005 188 188 188 961.000000
-6.99340010 -3.63669991 1.18009996 163 163 163 561.000000
-7.00979996 -3.65890002 1.17509997 202 202 202 1185.000000
-7.02229977 -3.68030000 1.17100000 180 180 180 833.000000
-7.03459978 -3.70110011 1.16700006 168 168 168 641.000000
-7.04409981 -3.72059989 1.16359997 170 170 170 673.000000
-7.05019999 -3.73880005 1.16100001 192 192 192 1025.000000
-7.05880022 -3.75790000 1.15789998 187 187 187 945.000000
-7.05959988 -3.77340007 1.15660000 200 200 200 1153.000000
-7.05830002 -3.78800011 1.15579998 217 217 217 1425.000000
-7.05940008 -3.80390000 1.15450001 194 194 194 1057.000000
-7.05830002 -3.81789994 1.15369999 189 189 189 977.000000
-7.05329990 -3.83089995 1.15380001 200 200 200 1153.000000
-7.05009985 -3.84529996 1.15349996 201 201 201 1169.000000
-7.03950024 -3.85500002 1.15499997 235 235 235 1713.000000
-7.03450012 -3.86820006 1.15509999 200 200 200 1153.000000
-7.02549982 -3.87969995 1.15610003 208 208 208 1281.000000
-7.01630020 -3.89059997 1.15730000 190 190 190 993.000000
-7.00670004 -3.90179992 1.15849996 206 206 206 1249.000000
-6.99690008 -3.91260004 1.15980005 187 187 187 945.000000
-6.98360014 -3.92219996 1.16190004 215 215 215 1393.000000
-6.97380018 -3.93350005 1.16320002 171 171 171 689.000000
-6.95949984 -3.94280005 1.16550004 179 179 179 817.000000
-6.94770002 -3.95280004 1.16729999 190 190 190 993.000000
-6.92950010 -3.96079993 1.17050004 183 183 183 881.000000
-6.91109991 -3.96860003 1.17379999 180 180 180 833.000000
-6.89260006 -3.97580004 1.17719996 208 208 208 1281.000000
-6.87020016 -3.98250008 1.18139994 190 190 190 993.000000
-6.83699989 -3.98480010 1.18809998 198 198 198 1121.000000
-6.79710007 -3.98429990 1.19640005 143 143 143 241.000000
-6.75099993 -3.98210001 1.20609999 179 179 179 817.000000
-6.90530014 -3.56419992 1.18799996 189 189 189 977.000000
-6.96810007 -3.60940003 1.17219996 188 188 188 961.000000
-6.99660015 -3.63840008 1.16429996 177 177 177 785.000000
-7.01049995 -3.65949988 1.15999997 199 199 199 1137.000000
-7.02510023 -3.68179989 1.15550005 171 171 171 689.000000
-7.03579998 -3.70190001 1.15190005 168 168 168 641.000000
-7.04449987 -3.72099996 1.14870000 165 165 165 593.000000
-7.05210018 -3.73990011 1.14590001 198 198 198 1121.000000
-7.05840015 -3.75799990 1.14330006 180 180 180 833.000000
-7.06169987 -3.77460003 1.14150000 211 211 211 1329.000000
-7.05789995 -3.78800011 1.14129996 240 240 240 1793.000000
-7.06160021 -3.80509996 1.13929999 198 198 198 1121.000000
-7.05620003 -3.81730008 1.13960004 207 207 207 1265.000000
-7.05149984 -3.83039999 1.13960004 186 186 186 929.000000
-7.04839993 -3.84480000 1.13929999 222 222 222 1505.000000
-7.03779984 -3.85459995 1.14069998 252 252 252 1985.000000
-7.03560019 -3.86890006 1.14020002 202 202 202 1185.000000
-7.02470016 -3.87960005 1.14170003 211 211 211 1329.000000
-7.01739979 -3.89129996 1.14240003 213 213 213 1361.000000
-7.00680017 -3.90210009 1.14380002 187 187 187 945.000000
-6.99669981 -3.91280007 1.14510000 189 189 189 977.000000
-6.98659992 -3.92370009 1.14649999 194 194 194 1057.000000
-6.97650003 -3.93479991 1.14779997 181 181 181 849.000000
-6.96070004 -3.94359994 1.15050006 191 191 191 1009.000000
-6.94560003 -3.95219994 1.15300000 219 219 219 1457.000000
-6.93020010 -3.96140003 1.15550005 172 172 172 705.000000
-6.91260004 -3.96939993 1.15859997 179 179 179 817.000000
-6.89519978 -3.97709990 1.16170001 183 183 183 881.000000
-6.87160015 -3.98329997 1.16620004 174 174 174 737.000000
-6.83790016 -3.98539996 1.17289996 187 187 187 945.000000
-6.79680014 -3.98440003 1.18139994 155 155 155 433.000000
-6.75279999 -3.98309994 1.19040000 175 175 175 753.000000
-6.91099977 -3.56699991 1.17139995 176 176 176 769.000000
-6.97139978 -3.61120009 1.15639997 197 197 197 1105.000000
-7.00000000 -3.64019990 1.14859998 181 181 181 849.000000
-7.01490021 -3.66170001 1.14409995 192 192 192 1025.000000
-7.02629995 -3.68260002 1.14030004 174 174 174 737.000000
-7.03819990 -3.70330000 1.13650000 159 159 159 497.000000
-7.04860020 -3.72309995 1.13300002 155 155 155 433.000000
-7.05660009 -3.74210000 1.13010001 184 184 184 897.000000
-7.05889988 -3.75839996 1.12849998 181 181 181 849.000000
-7.06250000 -3.77519989 1.12660003 215 215 215 1393.000000
-7.05900002 -3.78880000 1.12639999 235 235 235 1713.000000
-7.06020021 -3.80480003 1.12500000 216 216 216 1409.000000
-7.05740023 -3.81800008 1.12469995 208 208 208 1281.000000
-7.05350018 -3.83150005 1.12450004 194 194 194 1057.000000
-7.04729986 -3.84459996 1.12489998 215 215 215 1393.000000
-7.03879976 -3.85529995 1.12590003 255 255 255 2033.000000
-7.03469992 -3.86879992 1.12580001 213 213 213 1361.000000
-7.02390003 -3.87949991 1.12720001 231 231 231 1649.000000
-7.01919985 -3.89229989 1.12730002 207 207 207 1265.000000
-7.00939989 -3.90339994 1.12860000 173 173 173 721.000000
-6.99840021 -3.91370010 1.13010001 189 189 189 977.000000
-6.98780012 -3.92440009 1.13150001 204 204 204 1217.000000
-6.97679996 -3.93519998 1.13310003 178 178 178 801.000000
-6.96250010 -3.94449997 1.13530004 185 185 185 913.000000
-6.94540024 -3.95239997 1.13829994 208 208 208 1281.000000
-6.93120003 -3.96199989 1.14049995 182 182 182 865.000000
-6.91109991 -3.96910000 1.14409995 180 180 180 833.000000
-6.89599991 -3.97760010 1.14670002 191 191 191 1009.000000
-6.87179995 -3.98370004 1.15120006 168 168 168 641.000000
-6.83589983 -3.98490000 1.15840006 201 201 201 1169.000000
-6.79720020 -3.98490000 1.16620004 156 156 156 449.000000
-6.74459982 -3.98029995 1.17709994 163 163 163 561.000000
-6.91349983 -3.56850004 1.15569997 166 166 166 609.000000
-6.97410011 -3.61269999 1.14069998 178 178 178 801.000000
-7.00209999 -3.64140010 1.13320005 189 189 189 977.000000
-7.01929998 -3.66400003 1.12829995 182 182 182 865.000000
-7.02880001 -3.68400002 1.12500000 181 181 181 849.000000
-7.03889990 -3.70379996 1.12160003 173 173 173 721.000000
-7.04899979 -3.72350001 1.11819994 183 183 183 881.000000
-7.05719995 -3.74270010 1.11530006 186 186 186 929.000000
-7.05929995 -3.75880003 1.11380005 198 198 198 1121.000000
-7.06160021 -3.77500010 1.11220002 202 202 202 1185.000000
-7.06040001 -3.78959990 1.11140001 251 251 251 1969.000000
-7.06160021 -3.80559993 1.11010003 218 218 218 1441.000000
-7.05670023 -3.81800008 1.11020005 217 217 217 1425.000000
-7.05229998 -3.83130002 1.11020005 187 187 187 945.000000
-7.04799986 -3.84520006 1.11010003 215 215 215 1393.000000
-7.04040003 -3.85619998 1.11090004 222 222 222 1505.000000
-7.03490019 -3.86910009 1.11109996 215 215 215 1393.000000
-7.02419996 -3.87989998 1.11249995 225 225 225 1553.000000
-7.02029991 -3.89299989 1.11240005 200 200 200 1153.000000
-7.01000023 -3.90400004 1.11380005 194 194 194 1057.000000
-7.00050020 -3.91479993 1.11500001 185 185 185 913.000000
-6.98780012 -3.92470002 1.11689997 197 197 197 1105.000000
-6.97739983 -3.93569994 1.11819994 182 182 182 865.000000
-6.96260023 -3.94479990 1.12059999 182 182 182 865.000000
-6.94379997 -3.95199990 1.12390006 236 236 236 1729.000000
-6.92929983 -3.96149993 1.12619996 174 174 174 737.000000
-6.91239977 -3.96989989 1.12909997 171 171 171 689.000000
-6.89599991 -3.97790003 1.13180006 191 191 191 1009.000000
-6.86980009 -3.98320007 1.13670003 184 184 184 897.000000
-6.83629990 -3.98530006 1.14330006 194 194 194 1057.000000
-6.79879999 -3.98569989 1.15079999 161 161 161 529.000000
-6.74109983 -3.97919989 1.16270006 164 164 164 577.000000
-6.92180014 -3.57259989 1.13859999 153 153 153 401.000000
-6.97940016 -3.61540008 1.12450004 165 165 165 593.000000
-7.00460005 -3.64280009 1.11769998 183 183 183 881.000000
-7.01859999 -3.66389990 1.11360002 197 197 197 1105.000000
-7.03049994 -3.68499994 1.10979998 165 165 165 593.000000
-7.03950024 -3.70429993 1.10669994 168 168 168 641.000000
-7.04949999 -3.72399998 1.10339999 202 202 202 1185.000000
-7.05849981 -3.74349999 1.10029995 179 179 179 817.000000
-7.06190014 -3.76020002 1.09850001 200 200 200 1153.000000
-7.06599998 -3.77719998 1.09660006 185 185 185 913.000000
-7.06080008 -3.78999996 1.09669995 251 251 251 1969.000000
-7.06169987 -3.80590010 1.09549999 213 213 213 1361.000000
-7.05670023 -3.81830001 1.09560001 232 232 232 1665.000000
-7.04990005 -3.83049989 1.09609997 246 246 246 1889.000000
-7.04960012 -3.84610009 1.09519994 213 213 213 1361.000000
-7.03999996 -3.85630012 1.09640002 221 221 221 1489.000000
-7.03529978 -3.86949992 1.09640002 218 218 218 1441.000000
-7.02969980 -3.88240004 1.09669995 204 204 204 1217.000000
-7.01819992 -3.89240003 1.09829998 214 214 214 1377.000000
-7.01039982 -3.90440011 1.09909999 192 192 192 1025.000000
-7.00129986 -3.91549993 1.10020006 218 218 218 1441.000000
-6.98810005 -3.92510009 1.10210001 220 220 220 1473.000000
-6.97790003 -3.93619990 1.10339999 178 178 178 801.000000
-6.96400023 -3.94569993 1.10560000 190 190 190 993.000000
-6.94610023 -3.95320010 1.10860002 189 189 189 977.000000
-6.93079996 -3.96239996 1.11109996 178 178 178 801.000000
-6.91359997 -3.97059989 1.11399996 165 165 165 593.000000
-6.89610004 -3.97819996 1.11699998 189 189 189 977.000000
-6.87029982 -3.98359990 1.12179995 177 177 177 785.000000
-6.83820009 -3.98629999 1.12790000 181 181 181 849.000000
-6.79979992 -3.98639989 1.13549995 156 156 156 449.000000
-6.73820019 -3.97839999 1.14810002 169 169 169 657.000000
-6.93149996 -3.57739997 1.12129998 163 163 163 561.000000
-6.98000002 -3.61590004 1.10940003 165 165 165 593.000000
-7.00360012 -3.64260006 1.10309994 194 194 194 1057.000000
-7.02299976 -3.66619992 1.09780002 195 195 195 1073.000000
-7.03249979 -3.68610001 1.09459996 165 165 165 593.000000
-7.04020023 -3.70490003 1.09179997 159 159 159 497.000000
-7.05469990 -3.72659993 1.08759999 187 187 187 945.000000
-7.05900002 -3.74390006 1.08560002 167 167 167 625.000000
-7.06430006 -3.76149988 1.08340001 217 217 217 1425.000000
-7.06699991 -3.77789998 1.08179998 183 183 183 881.000000
-7.06050014 -3.79020000 1.08220005 236 236 236 1729.000000
-7.06139994 -3.80599999 1.08099997 210 210 210 1313.000000
-7.05749989 -3.81879997 1.08089995 213 213 213 1361.000000
-7.05079985 -3.83109999 1.08140004 232 232 232 1665.000000
-7.04860020 -3.84590006 1.08080006 203 203 203 1201.000000
-7.04510021 -3.85870004 1.08070004 200 200 200 1153.000000
-7.03679991 -3.87039995 1.08150005 198 198 198 1121.000000
-7.03060007 -3.88310003 1.08190000 185 185 185 913.000000
-7.01749992 -3.89229989 1.08389997 249 249 249 1937.000000
-7.01100016 -3.90490007 1.08430004 187 187 187 945.000000
-7.00169992 -3.91589999 1.08550000 201 201 201 1169.000000
-6.98719978 -3.92490005 1.08770001 245 245 245 1873.000000
-6.97830009 -3.93659997 1.08870006 167 167 167 625.000000
-6.96500015 -3.94630003 1.09070003 189 189 189 977.000000
-6.94899988 -3.95460010 1.09329998 181 181 181 849.000000
-6.93079996 -3.96269989 1.09640002 184 184 184 897.000000
-6.91340017 -3.97079992 1.09930003 177 177 177 785.000000
-6.89179993 -3.97679996 1.10309994 232 232 232 1665.000000
-6.86990023 -3.98370004 1.10699999 185 185 185 913.000000
-6.83809996 -3.98659992 1.11300004 185 185 185 913.000000
-6.80049992 -3.98690009 1.12030005 159 159 159 497.000000
-6.73439980 -3.97720003 1.13370001 161 161 161 529.000000
-6.93919992 -3.58119988 1.10450006 165 165 165 593.000000
-6.98430014 -3.61809993 1.09350002 160 160 160 513.000000
-7.00699997 -3.64439988 1.08749998 184 184 184 897.000000
-7.02339983 -3.66659999 1.08290005 191 191 191 1009.000000
-7.03499985 -3.68750000 1.07930005 179 179 179 817.000000
-7.04139996 -3.70569992 1.07679999 161 161 161 529.000000
-7.05439997 -3.72670007 1.07299995 191 191 191 1009.000000
-7.05999994 -3.74460006 1.07070005 179 179 179 817.000000
-7.06529999 -3.76220012 1.06860006 219 219 219 1457.000000
-7.06419992 -3.77690005 1.06780005 211 211 211 1329.000000
-7.06180000 -3.79099989 1.06729996 224 224 224 1537.000000
-7.06409979 -3.80749989 1.06579995 203 203 203 1201.000000
-7.05989981 -3.82010007 1.06579995 201 201 201 1169.000000
-7.05439997 -3.83290005 1.06599998 196 196 196 1089.000000
-7.04930019 -3.84649992 1.06610000 189 189 189 977.000000
-7.04559994 -3.85920000 1.06599998 202 202 202 1185.000000
-7.03560019 -3.87019992 1.06719995 225 225 225 1553.000000
-7.02930021 -3.88280010 1.06760001 211 211 211 1329.000000
-7.01999998 -3.89359999 1.06869996 217 217 217 1425.000000
-7.01289988 -3.90590000 1.06939995 185 185 185 913.000000
-7.00349998 -3.91680002 1.07050002 202 202 202 1185.000000
-6.98920012 -3.92600012 1.07260001 217 217 217 1425.000000
-6.97760010 -3.93659997 1.07420003 190 190 190 993.000000
-6.96479988 -3.94650006 1.07609999 198 198 198 1121.000000
-6.95090008 -3.95560002 1.07819998 205 205 205 1233.000000
-6.93260002 -3.96359992 1.08130002 184 184 184 897.000000
-6.91419983 -3.97140002 1.08430004 183 183 183 881.000000
-6.89790010 -3.97939992 1.08700001 197 197 197 1105.000000
-6.87179995 -3.98469996 1.09169996 171 171 171 689.000000
-6.83949995 -3.98740005 1.09780002 183 183 183 881.000000
-6.79650021 -3.98569989 1.10619998 154 154 154 417.000000
-6.73210001 -3.97670007 1.11899996 173 173 173 721.000000
-6.94320011 -3.58330011 1.08860004 169 169 169 657.000000
-6.98990011 -3.62100005 1.07739997 157 157 157 465.000000
-7.00930023 -3.64569998 1.07210004 181 181 181 849.000000
-7.02650023 -3.66829991 1.06739998 183 183 183 881.000000
-7.03560019 -3.68810010 1.06439996 200 200 200 1153.000000
-7.04519987 -3.70760012 1.06130004 155 155 155 433.000000
-7.05469990 -3.72709990 1.05830002 180 180 180 833.000000
-7.06279993 -3.74609995 1.05550003 201 201 201 1169.000000
-7.06629992 -3.76290011 1.05379999 208 208 208 1281.000000
-7.06549978 -3.77780008 1.05289996 203 203 203 1201.000000
-7.06500006 -3.79259992 1.05209994 210 210 210 1313.000000
-7.06279993 -3.80719995 1.05159998 204 204 204 1217.000000
-7.06160021 -3.82110000 1.05089998 187 187 187 945.000000
-7.05590010 -3.83380008 1.05110002 181 181 181 849.000000
-7.05140018 -3.84759998 1.05110002 211 211 211 1329.000000
-7.04629993 -3.85969996 1.05130005 191 191 191 1009.000000
-7.03999996 -3.87229991 1.05170000 189 189 189 977.000000
-7.03160000 -3.88400006 1.05260003 200 200 200 1153.000000
-7.01919985 -3.89359999 1.05429995 226 226 226 1569.000000
-7.01249981 -3.90599990 1.05490005 203 203 203 1201.000000
-7.00400019 -3.91729999 1.05579996 206 206 206 1249.000000
-6.99130011 -3.92720008 1.05760002 187 187 187 945.000000
-6.97910023 -3.93740010 1.05929995 210 210 210 1313.000000
-6.96430016 -3.94659996 1.06159997 180 180 180 833.000000
-6.95200014 -3.95630002 1.06330001 200 200 200 1153.000000
-6.93310022 -3.96409988 1.06649995 176 176 176 769.000000
-6.91550016 -3.97219992 1.06930006 180 180 180 833.000000
-6.89519978 -3.97860003 1.07280004 176 176 176 769.000000
-6.87430000 -3.98600006 1.07640004 175 175 175 753.000000
-6.84749985 -3.99070001 1.08120000 163 163 163 561.000000
-6.80800009 -3.99029994 1.08870006 168 168 168 641.000000
-6.73059988 -3.97639990 1.10420001 185 185 185 913.000000
-6.94479990 -3.58430004 1.07319999 174 174 174 737.000000
-6.99580002 -3.62389994 1.06120002 146 146 146 289.000000
-7.01420021 -3.64820004 1.05630004 168 168 168 641.000000
-7.02689981 -3.66869998 1.05260003 180 180 180 833.000000
-7.03779984 -3.68930006 1.04920006 207 207 207 1265.000000
-7.04479980 -3.70770001 1.04670000 162 162 162 545.000000
-7.05779982 -3.72869992 1.04299998 180 180 180 833.000000
-7.06069994 -3.74550009 1.04139996 229 229 229 1617.000000
-7.06759977 -3.76370001 1.03890002 208 208 208 1281.000000
-7.06519985 -3.77789998 1.03840005 193 193 193 1041.000000
-7.06820011 -3.79430008 1.03690004 199 199 199 1137.000000
-7.06459999 -3.80819988 1.03670001 198 198 198 1121.000000
-7.06099987 -3.82110000 1.03649998 178 178 178 801.000000
-7.05859995 -3.83520007 1.03610003 184 184 184 897.000000
-7.05219984 -3.84820008 1.03639996 200 200 200 1153.000000
-7.04559994 -3.85969996 1.03699994 218 218 218 1441.000000
-7.04220009 -3.87350011 1.03680003 178 178 178 801.000000
-7.03299999 -3.88479996 1.03779995 201 201 201 1169.000000
-7.02069998 -3.89439988 1.03950000 228 228 228 1601.000000
-7.01310015 -3.90650010 1.04020000 199 199 199 1137.000000
-7.00479984 -3.91790009 1.04110003 187 187 187 945.000000
-6.99329996 -3.92820001 1.04260004 189 189 189 977.000000
-6.97830009 -3.93740010 1.04489994 215 215 215 1393.000000
-6.96369982 -3.94659996 1.04700005 174 174 174 737.000000
-6.94939995 -3.95560002 1.04920006 204 204 204 1217.000000
-6.93520021 -3.96519995 1.05130005 172 172 172 705.000000
-6.91400003 -3.97189999 1.05490005 215 215 215 1393.000000
-6.89550018 -3.97900009 1.05799997 191 191 191 1009.000000
-6.87430000 -3.98629999 1.06149995 178 178 178 801.000000
-6.84149981 -3.98869991 1.06760001 200 200 200 1153.000000
-6.80539989 -3.98959994 1.07430005 165 165 165 593.000000
-6.72809982 -3.97569990 1.08949995 181 181 181 849.000000
-6.94980001 -3.58690000 1.05710006 166 166 166 609.000000
-6.99539995 -3.62400007 1.04649997 159 159 159 497.000000
-7.01700020 -3.64969993 1.04089999 176 176 176 769.000000
-7.03020000 -3.67039990 1.03709996 178 178 178 801.000000
-7.03730011 -3.68930006 1.03460002 214 214 214 1377.000000
-7.04920006 -3.71000004 1.03110003 161 161 161 529.000000
-7.05779982 -3.72889996 1.02839994 174 174 174 737.000000
-7.06160021 -3.74609995 1.02660000 229 229 229 1617.000000
-7.06759977 -3.76399994 1.02440000 196 196 196 1089.000000
-7.06479979 -3.77789998 1.02400005 210 210 210 1313.000000
-7.06739998 -3.79410005 1.02250004 198 198 198 1121.000000
-7.06449986 -3.80839992 1.02209997 208 208 208 1281.000000
-7.06330013 -3.82229996 1.02149999 191 191 191 1009.000000
-7.05849981 -3.83540010 1.02160001 217 217 217 1425.000000
-7.05319977 -3.84890008 1.02170002 202 202 202 1185.000000
-7.04879999 -3.86129999 1.02180004 176 176 176 769.000000
-7.04320002 -3.87409997 1.02209997 177 177 177 785.000000
-7.03609991 -3.88639998 1.02260005 180 180 180 833.000000
-7.02349997 -3.89580011 1.02440000 195 195 195 1073.000000
-7.01410007 -3.90720010 1.02540004 206 206 206 1249.000000
-7.00500011 -3.91820002 1.02649999 190 190 190 993.000000
-6.99420023 -3.92880011 1.02779996 191 191 191 1009.000000
-6.97860003 -3.93779993 1.03020000 235 235 235 1713.000000
-6.96570015 -3.94770002 1.03199995 193 193 193 1041.000000
-6.94950008 -3.95589995 1.03460002 194 194 194 1057.000000
-6.93540001 -3.96550012 1.03659999 175 175 175 753.000000
-6.91559982 -3.97270012 1.03989995 187 187 187 945.000000
-6.89820004 -3.98029995 1.04270005 176 176 176 769.000000
-6.87300014 -3.98600006 1.04700005 183 183 183 881.000000
-6.83799982 -3.98760009 1.05340004 188 188 188 961.000000
-6.79650021 -3.98650002 1.06120002 163 163 163 561.000000
-6.72639990 -3.97539997 1.07470000 174 174 174 737.000000
-6.95429993 -3.58920002 1.04120004 176 176 176 769.000000
-6.99700022 -3.62500000 1.03129995 160 160 160 513.000000
-7.01770020 -3.65030003 1.02600002 188 188 188 961.000000
-7.03100014 -3.67109990 1.02219999 168 168 168 641.000000
-7.04069996 -3.69109988 1.01919997 197 197 197 1105.000000
-7.05259991 -3.71169996 1.01580000 160 160 160 513.000000
-7.06199980 -3.73110008 1.01289999 174 174 174 737.000000
-7.06869984 -3.74950004 1.01049995 201 201 201 1169.000000
-7.06920004 -3.76500010 1.00950003 174 174 174 737.000000
-7.06759977 -3.77940011 1.00890005 223 223 223 1521.000000
-7.06540012 -3.79349995 1.00839996 217 217 217 1425.000000
-7.06799984 -3.81010008 1.00689995 209 209 209 1297.000000
-7.06330013 -3.82259989 1.00699997 200 200 200 1153.000000
-7.06069994 -3.83660007 1.00660002 225 225 225 1553.000000
-7.05420017 -3.84949994 1.00699997 193 193 193 1041.000000
-7.04729986 -3.86089993 1.00759995 169 169 169 657.000000
-7.04589987 -3.87549996 1.00699997 219 219 219 1457.000000
-7.04050016 -3.88849998 1.00720000 178 178 178 801.000000
-7.02869987 -3.89820004 1.00880003 186 186 186 929.000000
-7.01660013 -3.90849996 1.01040006 207 207 207 1265.000000
-7.00470018 -3.91840005 1.01199996 200 200 200 1153.000000
-6.99539995 -3.92960000 1.01310003 195 195 195 1073.000000
-6.97989988 -3.93849993 1.01540005 208 208 208 1281.000000
-6.96479988 -3.94749999 1.01760006 174 174 174 737.000000
-6.95050001 -3.95650005 1.01970005 195 195 195 1073.000000
-6.93419981 -3.96530008 1.02219999 177 177 177 785.000000
-6.91809988 -3.97399998 1.02470005 191 191 191 1009.000000
-6.89639997 -3.97989988 1.02830005 189 189 189 977.000000
-6.87239981 -3.98600006 1.03240001 181 181 181 849.000000
-6.83610010 -3.98720002 1.03890002 167 167 167 625.000000
-6.79360008 -3.98569989 1.04680002 142 142 142 225.000000
-6.72809982 -3.97630000 1.05929995 137 137 137 145.000000
-6.95889997 -3.59159994 1.02530003 172 172 172 705.000000
-7.00150013 -3.62730002 1.01549995 166 166 166 609.000000
-7.01949978 -3.65140009 1.01080000 199 199 199 1137.000000
-7.03329992 -3.67230010 1.00709999 165 165 165 593.000000
-7.04300022 -3.69239998 1.00409997 202 202 202 1185.000000
-7.05539989 -3.71320009 1.00059998 161 161 161 529.000000
-7.06409979 -3.73230004 0.99790001 185 185 185 913.000000
-7.06570005 -3.74839997 0.99659997 214 214 214 1377.000000
-7.07259989 -3.76670003 0.99430001 167 167 167 625.000000
-7.06689978 -3.77940011 0.99449998 246 246 246 1889.000000
-7.06759977 -3.79469991 0.99349999 199 199 199 1137.000000
-7.06990004 -3.81119990 0.99210000 196 196 196 1089.000000
-7.06180000 -3.82220006 0.99290001 218 218 218 1441.000000
-7.06230021 -3.83750010 0.99190003 216 216 216 1409.000000
-7.05420017 -3.84980011 0.99260002 237 237 237 1745.000000
-7.05009985 -3.86229992 0.99260002 211 211 211 1329.000000
-7.04390001 -3.87490010 0.99290001 219 219 219 1457.000000
-7.03439999 -3.88619995 0.99400002 208 208 208 1281.000000
-7.02670002 -3.89770007 0.99470001 191 191 191 1009.000000
-7.01840019 -3.90939999 0.99550003 196 196 196 1089.000000
-7.00470018 -3.91860008 0.99750000 193 193 193 1041.000000
-6.99539995 -3.92980003 0.99849999 202 202 202 1185.000000
-6.98150015 -3.93950009 1.00049996 198 198 198 1121.000000
-6.96610022 -3.94840002 1.00279999 187 187 187 945.000000
-6.94759989 -3.95569992 1.00569999 219 219 219 1457.000000
-6.93450022 -3.96569991 1.00750005 164 164 164 577.000000
-6.91739988 -3.97399998 1.01010001 183 183 183 881.000000
-6.89729977 -3.98049998 1.01339996 178 178 178 801.000000
-6.87220001 -3.98629999 1.01760006 174 174 174 737.000000
-6.83349991 -3.98639989 1.02460003 173 173 173 721.000000
-6.79230022 -3.98550010 1.03209996 138 138 138 161.000000
-6.72049999 -3.97370005 1.04569995 135 135 135 113.000000
-6.96530008 -3.59480000 1.00899994 162 162 162 545.000000
-7.00449991 -3.62899995 1.00010002 198 198 198 1121.000000
-7.02069998 -3.65210009 0.99589998 211 211 211 1329.000000
-7.03590012 -3.67379999 0.99190003 155 155 155 433.000000
-7.04619980 -3.69409990 0.98879999 165 165 165 593.000000
-7.05719995 -3.71429992 0.98570001 174 174 174 737.000000
-7.06680012 -3.73370004 0.98280001 189 189 189 977.000000
-7.06689978 -3.74920011 0.98189998 210 210 210 1313.000000
-7.07180023 -3.76659989 0.98000002 193 193 193 1041.000000
-7.07660007 -3.78379989 0.97810000 204 204 204 1217.000000
-7.07079983 -3.79640007 0.97839999 185 185 185 913.000000
-7.06939983 -3.81119990 0.97770000 190 190 190 993.000000
-7.06449986 -3.82360005 0.97790003 212 212 212 1345.000000
-7.06440020 -3.83870006 0.97700000 198 198 198 1121.000000
-7.05560017 -3.85060000 0.97790003 205 205 205 1233.000000
-7.05289984 -3.86380005 0.97759998 185 185 185 913.000000
-7.04710007 -3.87649989 0.97790003 207 207 207 1265.000000
-7.03429985 -3.88639998 0.97960001 219 219 219 1457.000000
-7.02689981 -3.89800000 0.98019999 177 177 177 785.000000
-7.01870012 -3.90980005 0.98100001 196 196 196 1089.000000
-7.00790024 -3.92020011 0.98229998 183 183 183 881.000000
-6.99679995 -3.93059993 0.98369998 214 214 214 1377.000000
-6.98229980 -3.94000006 0.98580003 200 200 200 1153.000000
-6.96710014 -3.94899988 0.98799998 176 176 176 769.000000
-6.94910002 -3.95650005 0.99080002 210 210 210 1313.000000
-6.93660021 -3.96679997 0.99250001 174 174 174 737.000000
-6.92100000 -3.97560000 0.99479997 194 194 194 1057.000000
-6.89790010 -3.98110008 0.99860001 180 180 180 833.000000
-6.87470007 -3.98749995 1.00240004 181 181 181 849.000000
-6.83400011 -3.98690009 1.00969994 176 176 176 769.000000
-6.79099989 -3.98519993 1.01740003 138 138 138 161.000000
-6.72149992 -3.97440004 1.03030002 114 114 114 -223.000000
-6.91830015 -3.55769992 1.00450003 60 60 60 -1087.000000
-6.97249985 -3.59840012 0.99269998 158 158 158 481.000000
-7.01020002 -3.63179994 0.98420000 175 175 175 753.000000
-7.02379990 -3.65380001 0.98049998 198 198 198 1121.000000
-7.04099989 -3.67630005 0.97619998 176 176 176 769.000000
-7.05030012 -3.69619989 0.97340000 176 176 176 769.000000
-7.06209993 -3.71670008 0.97009999 181 181 181 849.000000
-7.06540012 -3.73329997 0.96859998 194 194 194 1057.000000
-7.07159996 -3.75149989 0.96640003 189 189 189 977.000000
-7.07019997 -3.76609993 0.96579999 193 193 193 1041.000000
-7.07490015 -3.78329992 0.96399999 226 226 226 1569.000000
-7.07229996 -3.79730010 0.96359998 192 192 192 1025.000000
-7.07079983 -3.81209993 0.96300000 185 185 185 913.000000
-7.06659985 -3.82480001 0.96300000 190 190 190 993.000000
-7.06769991 -3.84039998 0.96190000 200 200 200 1153.000000
-7.05539989 -3.85080004 0.96340001 208 208 208 1281.000000
-7.04990005 -3.86269999 0.96370000 199 199 199 1137.000000
-7.04780006 -3.87709999 0.96329999 224 224 224 1537.000000
-7.03420019 -3.88660002 0.96509999 236 236 236 1729.000000
-7.02799988 -3.89870000 0.96550000 186 186 186 929.000000
-7.01849985 -3.91000009 0.96660000 181 181 181 849.000000
-7.00780010 -3.92039990 0.96789998 172 172 172 705.000000
-6.99879980 -3.93169999 0.96880001 196 196 196 1089.000000
-6.98360014 -3.94079995 0.97100002 193 193 193 1041.000000
-6.96990013 -3.95040011 0.97289997 170 170 170 673.000000
-6.95219994 -3.95799994 0.97560000 178 178 178 801.000000
-6.93900013 -3.96799994 0.97740000 148 148 148 321.000000
-6.91879988 -3.97499990 0.98060000 198 198 198 1121.000000
-6.89960003 -3.98200011 0.98360002 174 174 174 737.000000
-6.86670017 -3.98469996 0.98920000 217 217 217 1425.000000
-6.82940006 -3.98539996 0.99570000 215 215 215 1393.000000
-6.79020023 -3.98519993 1.00259995 145 145 145 273.000000
-6.71540022 -3.97230005 1.01639998 139 139 139 177.000000
-6.91410017 -3.55599999 0.99019998 139 139 139 177.000000
-6.97240019 -3.59859991 0.97780001 174 174 174 737.000000
-7.01100016 -3.63240004 0.96929997 177 177 177 785.000000
-7.03200006 -3.65779996 0.96420002 182 182 182 865.000000
-7.04129982 -3.67670012 0.96149999 170 170 170 673.000000
-7.05009985 -3.69639993 0.95880002 185 185 185 913.000000
-7.05919981 -3.71560001 0.95620000 210 210 210 1313.000000
-7.06489992 -3.73340011 0.95410001 206 206 206 1249.000000
-7.07289982 -3.75230002 0.95169997 179 179 179 817.000000
-7.07219982 -3.76719999 0.95090002 202 202 202 1185.000000
-7.07499981 -3.78360009 0.94950002 217 217 217 1425.000000
-7.07270002 -3.79769993 0.94910002 190 190 190 993.000000
-7.07350016 -3.81349993 0.94809997 169 169 169 657.000000
-7.07060003 -3.82669997 0.94779998 203 203 203 1201.000000
-7.06610012 -3.83990002 0.94779998 188 188 188 961.000000
-7.06050014 -3.85319996 0.94800001 195 195 195 1073.000000
-7.05189991 -3.86380005 0.94889998 191 191 191 1009.000000
-7.04750013 -3.87719989 0.94889998 185 185 185 913.000000
-7.03469992 -3.88700008 0.95060003 232 232 232 1665.000000
-7.02850008 -3.89919996 0.95099998 184 184 184 897.000000
-7.01490021 -3.90879989 0.95279998 228 228 228 1601.000000
-7.00909996 -3.92120004 0.95319998 167 167 167 625.000000
-6.99700022 -3.93120003 0.95469999 219 219 219 1457.000000
-6.98220015 -3.94050002 0.95679998 217 217 217 1425.000000
-6.97119999 -3.95120001 0.95810002 188 188 188 961.000000
-6.95520020 -3.95939994 0.96050000 188 188 188 961.000000
-6.94119978 -3.96910000 0.96240002 167 167 167 625.000000
-6.91760015 -3.97480011 0.96619999 190 190 190 993.000000
-6.90089989 -3.98280001 0.96869999 149 149 149 337.000000
-6.87160015 -3.98679996 0.97350001 193 193 193 1041.000000
-6.82989979 -3.98589993 0.98079997 193 193 193 1041.000000
-6.78760004 -3.98449993 0.98820001 136 136 136 129.000000
-6.72440004 -3.97600007 0.99959999 42 42 42 -1375.000000
-6.92689991 -3.56229997 0.97270000 167 167 167 625.000000
-6.98810005 -3.60610008 0.95999998 181 181 181 849.000000
-7.01440001 -3.63429999 0.95389998 192 192 192 1025.000000
-7.03179979 -3.65799999 0.94959998 196 196 196 1089.000000
-7.04300022 -3.67770004 0.94660002 171 171 171 689.000000
-7.05299997 -3.69790006 0.94370002 172 172 172 705.000000
-7.06180000 -3.71709991 0.94110000 206 206 206 1249.000000
-7.06650019 -3.73429990 0.93930000 180 180 180 833.000000
-7.07189989 -3.75209999 0.93739998 182 182 182 865.000000
-7.07539988 -3.76889992 0.93589997 198 198 198 1121.000000
-7.07730007 -3.78489995 0.93460000 201 201 201 1169.000000
-7.07299995 -3.79809999 0.93460000 205 205 205 1233.000000
-7.07639980 -3.81500006 0.93309999 187 187 187 945.000000
-7.07200003 -3.82760000 0.93309999 191 191 191 1009.000000
-7.06400013 -3.83920002 0.93379998 209 209 209 1297.000000
-7.06209993 -3.85419989 0.93330002 218 218 218 1441.000000
-7.05439997 -3.86509991 0.93400002 189 189 189 977.000000
-7.05089998 -3.87879992 0.93390000 168 168 168 641.000000
-7.03700018 -3.88820004 0.93570000 223 223 223 1521.000000
-7.02930021 -3.89980006 0.93640000 211 211 211 1329.000000
-7.01949978 -3.91090012 0.93750000 197 197 197 1105.000000
-7.01039982 -3.92199993 0.93839997 170 170 170 673.000000
-7.00040007 -3.93289995 0.93959999 229 229 229 1617.000000
-6.98180008 -3.94059992 0.94239998 225 225 225 1553.000000
-6.97090006 -3.95129991 0.94370002 169 169 169 657.000000
-6.94950008 -3.95740008 0.94700003 211 211 211 1329.000000
-6.93909979 -3.96860003 0.94819999 191 191 191 1009.000000
-6.91870022 -3.97550011 0.95130002 198 198 198 1121.000000
-6.90649986 -3.98519993 0.95289999 169 169 169 657.000000
-6.87050009 -3.98670006 0.95899999 187 187 187 945.000000
-6.82749987 -3.98519993 0.96640003 208 208 208 1281.000000
-6.79180002 -3.98639989 0.97250003 144 144 144 257.000000
-6.73999977 -3.98219991 0.98150003 0 0 0 -2047.000000
-6.93310022 -3.56539989 0.95649999 182 182 182 865.000000
-6.98540020 -3.60509992 0.94559997 173 173 173 721.000000
-7.01609993 -3.63529992 0.93889999 191 191 191 1009.000000
-7.03359985 -3.65910006 0.93460000 185 185 185 913.000000
-7.04500008 -3.67890000 0.93159997 172 172 172 705.000000
-7.05259991 -3.69799995 0.92919999 189 189 189 977.000000
-7.06379986 -3.71819997 0.92619997 204 204 204 1217.000000
-7.06879997 -3.73559999 0.92439997 198 198 198 1121.000000
-7.07520008 -3.75390005 0.92229998 193 193 193 1041.000000
-7.07380009 -3.76839995 0.92170000 211 211 211 1329.000000
-7.07969999 -3.78620005 0.91979998 191 191 191 1009.000000
-7.07709980 -3.80010009 0.91939998 206 206 206 1249.000000
-7.07620001 -3.81520009 0.91869998 206 206 206 1249.000000
-7.07399988 -3.82870007 0.91839999 204 204 204 1217.000000
-7.06479979 -3.83990002 0.91930002 232 232 232 1665.000000
-7.06400013 -3.85520005 0.91860002 200 200 200 1153.000000
-7.05609989 -3.86610007 0.91930002 200 200 200 1153.000000
-7.04610014 -3.87709999 0.92040002 191 191 191 1009.000000
-7.03889990 -3.88930011 0.92100000 191 191 191 1009.000000
-7.03100014 -3.90070009 0.92170000 209 209 209 1297.000000
-7.01690006 -3.91009998 0.92360002 230 230 230 1633.000000
-7.01259995 -3.92309999 0.92360002 198 198 198 1121.000000
-7.00139999 -3.93359995 0.92490000 214 214 214 1377.000000
-6.98559999 -3.94239998 0.92710000 197 197 197 1105.000000
-6.97370005 -3.95269990 0.92860001 166 166 166 609.000000
-6.95440006 -3.95970011 0.93150002 197 197 197 1105.000000
-6.93930006 -3.96889997 0.93360001 187 187 187 945.000000
-6.91739988 -3.97530007 0.93699998 207 207 207 1265.000000
-6.90199995 -3.98370004 0.93919998 168 168 168 641.000000
-6.87319994 -3.98799992 0.94379997 176 176 176 769.000000
-6.83260012 -3.98749995 0.95069999 187 187 187 945.000000
-6.79139996 -3.98650002 0.95770001 168 168 168 641.000000
-6.74280024 -3.98350000 0.96600002 0 0 0 -2047.000000
-6.94239998 -3.56999993 0.93980002 172 172 172 705.000000
-6.98789978 -3.60649991 0.93040001 173 173 173 721.000000
-7.02110004 -3.63779998 0.92320001 182 182 182 865.000000
-7.03840017 -3.66149998 0.91909999 186 186 186 929.000000
-7.04729986 -3.68020010 0.91659999 181 181 181 849.000000
-7.05700016 -3.70020008 0.91380000 185 185 185 913.000000
-7.06360006 -3.71840000 0.91180003 199 199 199 1137.000000
-7.06820011 -3.73559999 0.91000003 231 231 231 1649.000000
-7.07670021 -3.75480008 0.90759999 189 189 189 977.000000
-7.07569981 -3.76950002 0.90689999 219 219 219 1457.000000
-7.08020020 -3.78670001 0.90530002 184 184 184 897.000000
-7.07940006 -3.80139995 0.90460002 222 222 222 1505.000000
