-2.419602 -15.904896 2.420329
-2.407893 -15.908496 2.452858
-2.395842 -15.916020 2.487462
-2.395681 -15.912933 2.501623
-2.395827 -15.915518 2.471532
-2.397307 -15.473104 2.330320
-2.410131 -15.484715 2.336421
-2.352882 -15.506118 2.302229
-2.350597 -15.451058 2.303925
-2.340549 -15.481605 2.290029
-2.351312 -15.467940 2.297908
-2.387189 -15.488251 2.323142
-2.454060 -15.441473 2.301893
-2.431590 -15.449389 2.333871
-2.455346 -15.461940 2.369880
-2.443775 -15.461929 2.354986
-2.431619 -15.449669 2.348458
-2.477874 -15.454466 2.395977
-2.466486 -15.457230 2.382425
-2.463559 -15.413417 2.388909
-2.500536 -15.442151 2.434313
-2.489438 -15.446351 2.421432
-2.500666 -15.443721 2.449846
-2.497698 -15.403921 2.458098
-2.498500 -15.414903 2.449275
-2.525141 -15.462715 2.505323
-2.539395 -15.496652 2.524051
-2.510891 -15.430463 2.472709
-2.404090 -15.371582 2.044709
-2.246042 -15.398973 2.220223
-2.234866 -15.386619 2.214184
-2.257433 -15.380289 2.225327
-2.425063 -15.337589 2.057113
-2.414480 -15.347022 2.047557
-2.425123 -15.338424 2.071059
-2.422371 -15.292771 2.117796
-2.435516 -15.327040 2.106922
-2.435033 -15.319471 2.158072
-2.435001 -15.318750 2.130362
-2.434675 -15.313667 2.141625
-2.410341 -15.274906 2.082095
-2.409956 -15.268022 2.092351
-2.434618 -15.312875 2.168663
-2.423484 -15.312233 2.251121
-2.423222 -15.307686 2.221063
-2.423342 -15.309634 2.235894
-2.412471 -15.313488 2.279379
-2.349203 -15.418002 2.301800
-2.165914 -15.259690 2.290269
-2.155043 -15.261561 2.291244
-2.424040 -15.322166 2.312245
-2.412673 -15.316918 2.295155
-2.434607 -15.313929 2.336662
-2.435554 -15.328914 2.330218
-2.423805 -15.318470 2.324514
-2.448575 -15.356942 2.373637
-2.462077 -15.391582 2.406525
-2.460643 -15.369785 2.380683
-2.447587 -15.341332 2.351211
-2.471461 -15.362239 2.391551
-2.418494 -15.229221 2.334339
-2.387246 -15.278651 2.331146
-2.398453 -15.269766 2.340915
-2.484997 -15.384740 2.432835
-2.484934 -15.383749 2.417760
-2.506959 -15.381353 2.519935
-2.495656 -15.377096 2.517128
-2.576435 -15.519809 2.583586
-2.423660 -15.735062 2.553533
-2.381859 -15.906131 2.561042
-2.382864 -15.928922 2.556579
-2.370065 -15.919531 2.567506
-2.369296 -15.901165 2.590003
-2.369374 -15.903457 2.575293
-2.356398 -15.887986 2.614848
-2.369263 -15.900901 2.621742
-2.369059 -15.896062 2.603341
-2.356820 -15.898968 2.636512
-2.368576 -15.884983 2.629529
-2.380766 -15.881879 2.628188
-2.342122 -15.847684 2.625602
-2.252481 -15.742801 2.585375
-2.265317 -15.749039 2.620073
-2.240452 -15.730026 2.625418
-2.277904 -15.756225 2.608323
-2.227951 -15.733137 2.626972
-2.278174 -15.768217 2.646160
-2.278270 -15.771850 2.632304
-2.265152 -15.742455 2.648029
-2.363791 -15.769675 2.585529
-2.398298 -15.714935 2.542460
-2.409806 -15.716050 2.543345
-2.331010 -15.893777 2.665411
-2.319500 -15.915318 2.708860
-2.344153 -15.903597 2.670780
-2.317893 -15.863814 2.665511
-2.307229 -15.919201 2.743281
-2.307234 -15.919633 2.727199
-2.319380 -15.911159 2.722869
-2.294546 -15.926836 2.779990
-2.307309 -15.922785 2.761560
-2.291212 -15.802115 2.776827
-2.214704 -15.670912 2.671669
-2.635628 -15.644001 2.780603
-2.587477 -15.511586 2.594882
-2.539383 -15.496471 2.539004
-2.602997 -15.549936 2.632010
-2.563892 -15.509162 2.562043
-2.595610 -15.471482 2.573381
-2.604986 -15.570858 2.659103
-2.614658 -15.553716 2.665640
-2.294426 -15.922677 2.794152
-2.282025 -15.928497 2.830251
-2.294705 -15.933160 2.816426
-2.269036 -15.932666 2.865680
-2.282140 -15.934487 2.866840
-2.282074 -15.931243 2.848378
-2.269071 -15.933544 2.899645
-2.269010 -15.931301 2.881610
-2.290903 -15.790961 2.786810
-2.302439 -15.758324 2.882738
-2.341632 -15.837922 2.963343
-2.282744 -15.960589 2.965952
-2.294754 -15.936860 2.986469
-2.282436 -15.948183 2.975844
-2.319296 -15.912109 3.006530
-2.254422 -15.852789 2.987531
-2.267679 -15.871372 2.998695
-2.254727 -15.867698 2.979408
-2.280974 -15.887882 3.008640
-2.331014 -15.897825 3.015385
-2.266746 -15.829329 2.990622
-2.651697 -15.678271 2.865859
-2.636061 -15.648537 2.896416
-2.651563 -15.676997 2.897812
-2.652280 -15.683963 2.885572
-2.642691 -15.590257 2.878461
-2.643818 -15.601457 2.901467
-2.633295 -15.620948 2.896211
-2.643457 -15.598040 2.915690
-2.613387 -15.543193 2.913172
-2.568061 -15.075846 2.640128
-2.530800 -15.392316 2.541815
-2.549154 -15.096593 2.651777
-3.067815 -15.410850 2.654407
-2.885015 -15.374787 2.707503
-2.894805 -15.362775 2.701495
-2.838158 -15.369016 2.715313
-2.847427 -15.353835 2.707292
-2.860902 -15.367240 2.716322
-2.874372 -15.378233 2.708508
-2.808680 -15.407241 2.750576
-2.798075 -15.416590 2.755180
-2.877289 -15.396607 2.750433
-2.863186 -15.381935 2.740518
-3.023575 -15.487735 2.645802
-3.045236 -15.416717 2.655196
-3.048706 -15.434452 2.650003
-3.054051 -15.461964 2.650330
-3.029742 -15.395417 2.657002
-3.017364 -15.390842 2.668447
-2.959159 -15.332414 2.675083
-2.988474 -15.363350 2.680508
-3.002631 -15.375878 2.673761
-2.981393 -15.390270 2.695086
-3.009722 -15.291449 2.672172
-2.973600 -15.347479 2.685181
-2.985129 -15.345336 2.685183
-2.977477 -15.303734 2.675735
-3.110969 -15.390597 2.678801
-3.088904 -15.396375 2.664088
-2.693074 -15.509248 2.897657
-3.083877 -15.262393 2.633888
-2.785855 -15.247477 2.640030
-2.751304 -15.238701 2.647049
-2.607849 -15.148407 2.642549
-2.796940 -15.167578 2.579755
-2.807170 -15.163305 2.637100
-2.749270 -15.304523 2.670373
-2.662448 -15.242469 2.702826
-2.673841 -15.244611 2.704902
-2.761324 -15.312835 2.676140
-2.737171 -15.295485 2.709651
-2.747215 -15.289072 2.691435
-2.705392 -15.318685 2.751725
-2.838044 -15.292758 2.686071
-2.780886 -15.294037 2.666779
-2.775595 -15.333850 2.689531
-2.820578 -15.327352 2.704796
-2.829335 -15.310441 2.695647
-2.854354 -15.251891 2.678732
-2.844104 -15.259471 2.682238
-2.864376 -15.246645 2.676568
-3.094924 -15.261453 2.634653
-3.049352 -15.260304 2.643713
-3.038804 -15.265856 2.645663
-3.018739 -15.280736 2.667018
-2.902567 -15.268624 2.693226
-2.899254 -15.185486 2.673966
-2.337370 -16.487466 3.558039
-1.693414 -16.770288 3.343196
-1.677190 -16.786519 3.333423
-1.644763 -16.806503 3.326425
-1.654460 -16.694081 3.380052
-1.708259 -16.773877 3.344569
-1.738898 -16.754581 3.371556
-1.723184 -16.766100 3.359130
-1.670277 -16.683565 3.373313
-1.696385 -16.732451 3.380409
-1.799820 -16.733109 3.415819
-1.869063 -16.821320 3.444422
-1.824793 -16.811588 3.440179
-1.815709 -16.723490 3.429374
-1.829628 -16.725316 3.429954
-1.842856 -16.757605 3.448194
-1.844091 -16.734627 3.454610
-1.888927 -16.703583 3.474644
-1.902979 -16.730064 3.509732
-1.875834 -16.681960 3.462291
-1.801909 -16.698711 3.415525
-1.835308 -16.624373 3.410243
-2.364826 -16.470644 3.112490
-2.338042 -16.973951 3.056414
-2.337900 -16.968410 3.034626
-2.339346 -16.543735 3.096686
-2.266899 -16.505336 3.056745
-2.266768 -16.498615 3.071365
-2.224962 -16.574186 3.204851
-2.225104 -16.586128 3.192731
-1.936379 -16.629620 3.528170
-2.456760 -16.905991 3.314016
-2.457598 -16.923000 3.303573
-2.443787 -16.945541 3.295660
-2.456739 -16.905908 3.333639
-2.470061 -16.887318 3.323880
-2.298400 -16.610685 3.378551
-2.311264 -16.559910 3.426207
-2.325627 -16.555925 3.462892
-2.325128 -16.538627 3.491432
-2.325360 -16.547202 3.477116
-2.339073 -16.541304 3.532539
-2.324193 -16.507626 3.491991
-2.376840 -16.417296 3.119894
-2.378230 -16.452574 3.121164
-2.346398 -16.348492 3.117198
-2.251957 -16.429269 3.124579
-2.251766 -16.417244 3.136149
-2.346216 -16.343053 3.096082
-2.361623 -16.383274 3.137055
-2.346110 -16.340930 3.131055
-2.332665 -16.333351 3.072402
-2.318184 -16.297330 3.123957
-2.318520 -16.308884 3.112478
-2.319873 -16.360775 3.516911
-2.332517 -16.334835 3.520003
-2.305350 -16.339472 3.503183
-2.318814 -16.324046 3.512864
-1.936568 -17.021988 3.936855
-1.920966 -17.025074 3.939172
-2.338011 -16.507929 3.551166
-1.950642 -16.635266 3.590944
-1.938755 -16.567456 3.549492
-1.939136 -16.557431 3.563045
-1.937357 -16.604109 3.552227
-1.966165 -16.599549 3.588547
-1.952775 -16.576460 3.574515
-2.336687 -16.466268 3.584016
-2.336827 -16.470234 3.566864
-2.368993 -16.597020 3.914390
-2.412910 -16.624198 3.955096
-2.332974 -16.349471 3.548745
-1.939877 -16.538535 3.571108
-2.349620 -16.449071 3.652535
-2.349784 -16.453282 3.635352
-2.331985 -16.318520 3.567646
-2.349441 -16.443675 3.668955
-3.332138 -16.657730 3.573516
-2.697323 -16.406657 3.274041
-2.536609 -16.509109 3.156957
-2.483155 -16.559737 3.090286
-2.454111 -16.576799 3.061713
-2.440986 -16.584235 3.046939
-2.454644 -16.587277 3.048892
-2.468890 -16.571025 3.077463
-2.469534 -16.582698 3.065283
-2.510028 -16.536186 3.115351
-2.496056 -16.538875 3.116356
-2.482120 -16.541708 3.098989
-2.496635 -16.548436 3.103077
-2.523280 -16.519969 3.143952
-2.509612 -16.529591 3.130245
-2.523906 -16.530020 3.130948
-2.589785 -16.459601 3.205715
-2.564429 -16.490069 3.184585
-2.548955 -16.481710 3.179306
-2.536153 -16.502054 3.171578
-2.550168 -16.499417 3.170664
-2.563687 -16.479638 3.197314
-2.577520 -16.477730 3.196827
-2.576684 -16.466600 3.209099
-2.630212 -16.430113 3.246683
-2.589430 -16.455370 3.221921
-2.602425 -16.436452 3.230352
-2.616547 -16.439328 3.232641
-2.614237 -16.411262 3.235091
-2.614424 -16.413510 3.255018
-2.629658 -16.423455 3.261486
-2.685446 -16.422202 3.282366
-2.644378 -16.437113 3.270089
-2.660065 -16.455090 3.281254
-2.512382 -16.815044 3.403223
-2.553812 -16.767535 3.436903
-2.540326 -16.786218 3.427344
-2.567571 -16.751486 3.467763
-2.553502 -16.762950 3.454056
-2.568310 -16.762043 3.454088
-2.636599 -16.684925 3.530993
-2.582106 -16.736791 3.479641
-2.582403 -16.741085 3.521998
-2.595971 -16.726374 3.493989
-2.595449 -16.719585 3.509829
-2.608736 -16.707139 3.522988
-2.609457 -16.716637 3.508733
-2.623880 -16.707315 3.523813
-2.651147 -16.678384 3.527823
-2.638579 -16.708717 3.525340
-2.530921 -16.425449 3.371309
-2.545961 -16.439854 3.399626
-2.657739 -16.591719 3.515767
-2.654444 -16.553802 3.512331
-2.572712 -16.414528 3.462168
-2.546231 -16.444148 3.421354
-2.546567 -16.449020 3.443538
-2.559780 -16.427020 3.449955
-2.863061 -16.605895 3.497745
-2.688381 -16.453242 3.338356
-2.675463 -16.468732 3.327729
-2.672885 -16.440559 3.292338
-2.644757 -16.441757 3.291572
-2.659306 -16.446539 3.295081
-2.659991 -16.454367 3.318547
-2.688023 -16.449531 3.317239
-2.706559 -16.502064 3.367974
-2.677914 -16.495496 3.362541
-2.700399 -16.440298 3.350385
-2.695976 -16.394976 3.361203
-2.697124 -16.406662 3.349297
-2.903694 -16.573204 3.442218
-2.889474 -16.581767 3.446181
-2.875932 -16.594500 3.472238
-2.738744 -16.268541 3.270001
-2.482122 -16.304023 3.059943
-2.455018 -16.316389 3.101899
-2.403071 -16.390442 3.123781
-2.390489 -16.414147 3.118432
-2.416388 -16.359249 3.106703
-2.440850 -16.320717 3.103910
-2.430004 -16.362118 3.126814
-2.470474 -16.337556 3.150569
-2.465408 -16.248060 3.046075
-2.453680 -16.291373 3.052010
-2.468149 -16.296079 3.055062
-2.467878 -16.291223 3.034556
-2.453141 -16.281428 3.064343
-2.449803 -16.219849 3.065278
-2.482504 -16.310188 3.045476
-2.496232 -16.313569 3.083654
-2.510430 -16.320556 3.088047
-2.497092 -16.327321 3.073334
-2.510110 -16.315504 3.103216
-2.509825 -16.311325 3.137031
-2.524896 -16.333818 3.150331
-2.478482 -16.242475 3.043392
-2.463990 -16.223423 3.050020
-2.477418 -16.225015 3.051333
-2.491124 -16.230924 3.055116
-2.490641 -16.222906 3.068333
-2.495258 -16.297790 3.128825
-2.485336 -16.358850 3.181416
-2.485620 -16.363766 3.202624
-2.382066 -16.212530 3.184629
-2.383184 -16.239737 3.182514
-2.382831 -16.231021 3.159354
-2.569448 -16.369423 3.190698
-2.554842 -16.357116 3.183071
-2.539692 -16.348528 3.177549
-2.524844 -16.333179 3.168214
-2.583638 -16.379890 3.215720
-2.584089 -16.385664 3.200582
-2.499976 -16.377641 3.248092
-2.499561 -16.370879 3.225634
-2.514567 -16.385985 3.272078
-2.599079 -16.394669 3.224872
-2.488485 -16.191836 3.175704
-2.444724 -16.126610 3.082703
-2.447610 -16.179590 3.060134
-2.406087 -16.139377 3.053674
-2.391793 -16.135158 3.033349
-2.446381 -16.157194 3.064993
-2.430960 -16.129373 3.066222
-2.429144 -16.094164 3.081034
-2.413304 -16.027037 3.093872
-2.414110 -16.042929 3.085749
-2.398204 -15.971145 3.060381
-2.445532 -16.141531 3.073665
-2.445535 -16.141573 3.109096
-2.741206 -16.291412 3.265141
-2.731926 -16.334489 3.271352
-2.707691 -16.368028 3.270850
-2.708119 -16.372305 3.254766
-2.530089 -16.412774 3.344763
-2.529607 -16.405150 3.321389
-2.450769 -16.240569 3.520502
-2.571377 -16.396692 3.470383
-2.569084 -16.366063 3.489771
-2.569666 -16.373684 3.475303
-2.569755 -16.375365 3.514976
-2.566803 -16.335501 3.528355
-2.566984 -16.337831 3.510532
-2.568434 -16.184051 3.508019
-2.489932 -16.216851 3.506659
-2.374149 -16.025006 3.378659
-2.347133 -15.995970 3.395878
-2.693682 -16.371486 3.403935
-2.707565 -16.367283 3.402198
-2.680688 -16.372392 3.403720
-2.665829 -16.364558 3.417179
-2.623902 -16.356377 3.448062
-2.637039 -16.353874 3.447209
-2.660810 -16.163054 3.480538
-2.675599 -16.185830 3.496157
-2.808070 -16.271317 3.464250
-2.825674 -16.301220 3.484292
-2.837479 -16.287604 3.495864
-2.823659 -16.284817 3.493056
-2.780304 -16.152333 3.519860
-2.759292 -16.203186 3.493870
-2.762257 -16.111768 3.287449
-3.336402 -16.396333 3.156244
-2.984679 -16.340928 3.055186
-2.983541 -16.333452 3.033094
-2.973981 -16.362596 3.084170
-2.986773 -16.354915 3.081030
-2.977980 -16.389580 3.135705
-2.990636 -16.380580 3.113493
-2.975537 -16.373200 3.108245
-2.972081 -16.450352 3.243168
-2.973467 -16.460056 3.267548
-2.981126 -16.410938 3.184618
-2.979192 -16.397947 3.158774
-2.982692 -16.421729 3.209304
-3.334967 -16.389486 3.133907
-3.337194 -16.330643 3.066178
-3.340536 -16.346291 3.093089
-3.332027 -16.441915 3.180368
-3.321118 -16.457186 3.206119
-3.330052 -16.432541 3.193737
-3.319860 -16.451155 3.221471
-3.308863 -16.468818 3.229856
-3.299107 -16.493996 3.261524
-3.311686 -16.482705 3.256708
-2.950727 -16.505069 3.329238
-2.939681 -16.524344 3.358558
-2.927842 -16.543984 3.388244
-2.956853 -16.346558 3.446417
-3.304321 -16.519828 3.295391
-3.303071 -16.588494 3.372089
-3.304950 -16.598026 3.397141
-3.313007 -16.562874 3.358824
-3.287050 -16.659783 3.469538
-3.286295 -16.655974 3.447505
-3.275992 -16.677867 3.478655
-3.319659 -16.671796 3.519982
-3.296651 -16.632794 3.435490
-3.295202 -16.625324 3.411444
-3.254056 -15.945201 3.040845
-3.043854 -16.189237 3.453069
-3.008368 -16.225044 3.452779
-3.055152 -16.173759 3.444560
-3.343071 -16.163953 3.454539
-3.200608 -16.146269 3.444064
-3.128033 -16.198746 3.506418
-3.212197 -16.205087 3.520431
-3.265912 -16.192307 3.500024
-3.252287 -16.193887 3.499259
-3.224300 -16.195027 3.515644
-3.314634 -16.098346 3.410307
-3.209688 -16.121716 3.429943
-3.222490 -16.116317 3.428176
-3.234716 -16.108200 3.424701
-2.837451 -16.638345 3.535055
-2.665757 -16.683878 3.551779
-2.565901 -16.727863 3.533414
-2.680386 -16.682730 3.551872
-2.651479 -16.682257 3.550100
-2.679704 -16.674944 3.567164
-2.442996 -16.634258 3.754350
-2.722693 -16.670702 3.567017
-2.737585 -16.668776 3.566744
-2.694337 -16.674234 3.567532
-2.709081 -16.672622 3.567381
-2.849120 -16.738108 3.697438
-2.867141 -16.763726 3.714521
-2.856504 -16.801339 3.778534
-2.871967 -16.804197 3.781464
-2.852825 -16.769783 3.737864
-2.869063 -16.779880 3.745339
-2.832442 -16.723105 3.687005
-2.846672 -16.717224 3.663967
-2.505142 -16.700586 4.031709
-2.490142 -16.688454 4.001377
-2.427158 -16.599558 3.959896
-2.428629 -16.631001 3.960222
-2.473230 -16.660804 3.981975
-2.443762 -16.650979 3.974285
-2.476609 -16.450967 4.006184
-2.820385 -16.151410 3.657711
-2.409331 -16.217556 3.777830
-2.395278 -16.223517 3.781581
-2.361240 -16.024319 3.545895
-2.375835 -16.066620 3.555984
-2.699043 -16.144604 3.547198
-2.794672 -16.160325 3.661612
-2.534048 -16.273053 3.801414
-2.427868 -16.327495 3.794214
-2.466491 -16.271754 3.797563
-2.398579 -16.298212 3.793336
-2.479629 -16.269533 3.796527
-2.492911 -16.266841 3.795217
-2.612974 -16.231413 3.837232
-3.369896 -16.623586 3.618513
-3.215417 -16.764572 3.582503
-3.357066 -16.630800 3.600993
-3.253920 -16.720697 3.540895
-3.240313 -16.730467 3.545072
-3.229031 -16.754262 3.557667
-3.229146 -16.754930 3.578327
-3.396484 -16.606732 3.652396
-3.423984 -16.593677 3.688932
-2.998799 -16.739351 4.005282
-3.013961 -16.740024 4.007176
-2.976048 -16.580086 3.939689
-3.004947 -16.678082 3.986657
-2.997690 -16.628322 3.974099
-2.945366 -16.469788 3.883631
-2.967314 -16.519113 3.918957
-2.960848 -16.580078 3.938223
-2.944584 -16.563012 3.925288
-3.185903 -16.209602 3.539348
-3.086160 -16.195437 3.557349
-2.957971 -16.166538 3.602513
-2.873879 -16.146430 3.620059
-2.902247 -16.161813 3.613465
-3.071734 -16.193730 3.574011
-3.018314 -16.204754 3.594815
-3.060133 -16.203520 3.579042
-3.003757 -16.196326 3.626799
-2.989514 -16.194166 3.623899
-3.032723 -16.207660 3.598234
-3.047355 -16.210578 3.601682
-3.001710 -16.183391 3.598605
-3.014236 -16.179442 3.636327
-2.910566 -15.936615 3.654616
-2.825266 -16.081372 3.591603
-3.140793 -16.191929 3.542066
-3.155165 -16.193967 3.545057
-3.099760 -16.197241 3.560035
-3.130929 -16.214656 3.555363
-2.408647 -15.935876 3.562286
-2.643408 -15.599812 3.150400
-2.396269 -15.930077 3.053253
-2.369872 -15.919722 3.046388
-2.355566 -15.874672 3.053420
-2.342815 -15.871203 3.033950
-2.367140 -15.854289 3.058555
-2.366699 -15.843946 3.069392
-2.390976 -15.817315 3.088080
-2.378145 -15.826344 3.076082
-2.379002 -15.845540 3.070705
-2.403001 -15.818101 3.106086
-2.436620 -15.743102 3.146305
-2.413026 -15.782837 3.118885
-2.401949 -15.796634 3.109969
-2.425424 -15.771590 3.129480
-2.470958 -15.708464 3.159992
-2.392286 -15.601199 3.155900
-2.403296 -15.594637 3.151936
-2.367042 -15.579236 3.157675
-2.403774 -15.604033 3.141099
-2.354849 -15.560670 3.162044
-2.703089 -15.812587 3.048742
-2.554847 -15.838884 3.142348
-2.587560 -15.645756 3.091481
-2.558259 -15.729354 3.142964
-2.576325 -15.655939 3.114303
-2.565873 -15.670331 3.157175
-2.575666 -15.648402 3.143572
-2.686177 -15.778421 3.095291
-2.616275 -15.691615 3.088172
-2.625947 -15.673342 3.077284
-2.666956 -15.713926 3.105320
-2.670328 -15.746040 3.108484
-2.636234 -15.651286 3.114921
-2.599638 -15.645815 3.126211
-2.650023 -15.664277 3.124103
-2.646684 -15.631916 3.154357
-2.647792 -15.642574 3.127132
-2.646188 -15.626892 3.134034
-2.664468 -15.690253 3.124432
-2.555547 -15.847897 3.165447
-2.541077 -15.827401 3.169328
-2.516507 -15.827865 3.168502
-2.552528 -15.809949 3.158928
-2.542555 -15.684778 3.165255
-2.506407 -15.687866 3.165495
-2.518814 -15.690906 3.168028
-2.553997 -15.679308 3.162328
-2.631619 -15.605099 3.119025
-2.569530 -15.577934 3.114634
-2.544208 -15.559799 3.101484
-2.594503 -15.590058 3.157967
-2.611628 -15.526148 3.150940
-2.587879 -15.518384 3.127411
-2.619699 -15.485618 3.124617
-2.679197 -15.596133 3.201918
-2.337554 -15.417759 3.200328
-2.795826 -15.655944 3.129704
-2.819924 -15.838034 3.446267
-2.407901 -15.920534 3.570500
-2.305229 -16.927671 5.519958
-1.460112 -18.931910 5.278102
-1.798061 -18.660130 4.575128
-1.676109 -18.749493 4.241134
-1.556299 -19.022773 4.053808
-1.536771 -19.018794 4.052556
-1.474123 -19.016242 4.053772
-1.577373 -19.016062 4.075235
-1.560267 -18.968979 4.078057
-1.525624 -18.895632 4.042952
-1.526281 -18.886986 4.063890
-1.672282 -18.483065 4.148966
-1.549933 -18.586922 4.084865
-1.529661 -18.596520 4.065969
-1.633907 -18.489341 4.153691
-1.652061 -18.501972 4.135073
-1.693295 -18.469517 4.165666
-1.714591 -18.444927 4.176357
-1.748395 -18.882961 4.572151
-1.642030 -18.954222 4.615819
-1.519549 -18.969602 4.737751
-1.529083 -18.848790 4.640837
-1.727009 -18.909957 4.588040
-1.744546 -18.958131 4.587904
-1.664999 -18.929406 4.601028
-1.768830 -18.872538 4.565717
-1.687031 -18.913401 4.591240
-1.706463 -18.909958 4.588679
-1.820853 -18.603810 4.593978
-1.745154 -18.571314 4.603168
-1.747317 -18.530559 4.631227
-1.709611 -18.527404 4.656798
-1.727519 -18.535304 4.634703
-1.712002 -18.486411 4.684461
-1.418084 -18.953291 5.265396
-1.397073 -18.961677 5.243205
-1.348738 -18.828405 5.390919
-1.328999 -18.816380 5.413382
-1.311805 -18.788334 5.424926
-1.688825 -18.878007 5.405827
-1.478112 -18.963444 5.297442
-1.546064 -18.891080 5.333666
-1.522642 -18.927688 5.329837
-1.483466 -18.899652 5.342599
-1.463941 -18.887446 5.335674
-1.442118 -18.910254 5.351899
-1.424710 -18.880692 5.362558
-1.405531 -18.871286 5.357524
-1.386919 -18.848781 5.372880
-1.627863 -18.860461 5.367588
-1.607869 -18.861809 5.369356
-1.596736 -18.734686 5.400555
-1.828260 -18.909013 5.451209
-1.765549 -18.929081 5.437219
-1.705029 -18.930704 5.411090
-1.685582 -18.933243 5.413560
-1.726513 -18.913673 5.428249
-1.746237 -18.919642 5.431544
-1.807520 -18.902834 5.447638
-1.665017 -18.920697 5.376849
-1.648328 -18.848216 5.358561
-1.655407 -18.736939 5.399400
-1.616901 -18.730327 5.396652
-1.648889 -18.839162 5.410596
-2.400268 -17.034153 5.534977
-2.427266 -18.728001 4.533507
-2.349310 -18.723276 4.529504
-2.818736 -18.660138 4.404415
-2.623734 -18.695055 4.493863
-2.486199 -18.718844 4.529548
-2.505261 -18.714170 4.527354
-2.837854 -18.658924 4.404661
-2.702109 -18.693110 4.469609
-2.818549 -18.658061 4.429043
-2.721955 -18.680473 4.463268
-2.798286 -18.657091 4.427546
-2.760035 -18.675381 4.436082
-2.779666 -18.667797 4.432698
-2.249751 -18.756604 4.547550
-2.330346 -18.783823 4.670015
-2.390405 -18.780436 4.722451
-2.388981 -18.729503 4.533656
-2.566036 -18.754038 4.711032
-2.565352 -18.740656 4.729896
-2.537994 -18.568111 4.705445
-2.482065 -18.621285 4.709511
-2.421776 -18.569604 4.703419
-2.344460 -18.526803 4.702480
-2.519441 -18.570168 4.706175
-2.538333 -18.574956 4.736143
-2.556451 -18.568875 4.759584
-2.552821 -18.869458 4.833399
-2.534017 -18.882716 4.868213
-2.509735 -18.817814 4.855751
-2.549502 -18.802986 4.902604
-2.531315 -18.824690 4.887885
-2.594801 -18.900748 4.936114
-2.589388 -18.801550 4.958028
-2.569992 -18.831970 4.948555
-2.631340 -18.830413 4.977340
-2.608273 -18.769002 4.993715
-2.625235 -18.728000 5.023912
-2.595923 -18.551047 4.803295
-2.554286 -18.527706 4.867782
-2.538288 -18.575413 4.870268
-2.669829 -18.804423 5.018215
-2.614098 -18.539073 4.823290
-2.652287 -18.531448 4.873711
-2.529662 -18.051505 4.902330
-2.471522 -18.370167 4.872221
-2.411389 -18.268938 4.938197
-2.431111 -18.298922 4.931689
-2.444656 -18.161329 4.947300
-2.576441 -18.209211 4.877166
-2.635848 -18.277121 4.950941
-2.758559 -18.178719 4.918422
-2.693269 -18.288884 4.961288
-2.722726 -18.193278 4.926196
-2.742623 -18.205058 4.935044
-2.703544 -18.175332 4.913322
-2.519066 -18.185827 4.939303
-2.568429 -18.069070 4.915633
-2.690179 -17.996047 4.950642
-2.710308 -18.032486 4.976663
-2.582611 -17.448818 4.594550
-2.009745 -17.236792 4.392632
-2.004669 -17.452270 4.491651
-1.971817 -17.407607 4.462000
-1.988219 -17.432837 4.478778
-2.006136 -17.389124 4.520908
-2.026336 -17.171754 4.394516
-2.498918 -17.773716 4.513808
-2.418278 -17.087844 4.089892
-2.433354 -17.088292 4.112904
-2.387846 -17.112134 4.082618
-2.342007 -17.121794 4.065613
-2.449903 -17.086377 4.134513
-2.402336 -17.075140 4.059011
-2.480003 -17.086065 4.180261
-2.465235 -17.088113 4.158592
-2.496403 -17.088656 4.205164
-2.512579 -17.083659 4.202421
-2.446622 -17.017262 4.178175
-2.042790 -17.115754 4.402135
-2.403023 -17.095464 4.344130
-2.399602 -17.008631 4.329846
-1.936827 -17.995176 4.679516
-1.879163 -17.671969 5.000570
-1.862209 -17.653095 5.013514
-1.812510 -17.626663 5.022063
-1.829001 -17.628945 5.023132
-1.844525 -17.647858 5.010280
-2.029371 -17.829622 5.032332
-2.046849 -17.844407 5.016215
-1.979234 -17.772572 5.018491
-1.996692 -17.786868 5.028497
-1.944764 -17.736912 5.019781
-1.927837 -17.726251 5.012459
-1.961611 -17.759501 5.009430
-1.996140 -17.810662 5.019212
-1.895097 -17.680288 5.006154
-1.911981 -17.693274 5.015154
-1.988397 -17.424476 4.569814
-2.566215 -17.455609 4.574069
-2.619092 -17.748707 4.551486
-2.639673 -17.795272 4.582814
-2.581148 -17.696972 4.565324
-2.649499 -17.680913 4.834226
-2.497952 -17.756979 4.907032
-2.631508 -17.682289 4.859950
-2.593583 -17.900085 4.958843
-2.647601 -17.654695 4.841314
-2.491455 -17.624784 4.839051
-2.507607 -17.624296 4.839297
-2.455507 -17.595358 4.816993
-2.474206 -17.611004 4.828678
-2.438375 -17.575390 4.802289
-2.611970 -17.647094 4.834203
-2.560013 -17.628736 4.844519
-2.525437 -17.627530 4.842258
-2.609786 -17.614560 4.836655
-2.577275 -17.635726 4.850194
-2.594713 -17.638047 4.852606
-2.625474 -17.595103 4.849144
-2.595692 -17.402607 4.587577
-3.395305 -17.770952 4.627965
-3.125467 -18.588938 4.055376
-3.107671 -18.600233 4.035290
-3.088644 -18.608159 4.062904
-3.089246 -18.613208 4.040746
-3.069712 -18.612873 4.088993
-3.050209 -18.616996 4.114869
-3.031049 -18.617758 4.139098
-3.012377 -18.627427 4.193231
-3.106583 -18.591476 4.055465
-3.105562 -18.583298 4.075944
-3.087562 -18.599150 4.083018
-3.028937 -18.598972 4.154118
-3.105106 -18.579756 4.123797
-3.068657 -18.603984 4.109229
-3.086709 -18.592280 4.104260
-3.105664 -18.584190 4.101243
-3.067301 -18.592511 4.153056
-3.068028 -18.598815 4.131417
-3.086184 -18.587995 4.126905
-3.086051 -18.587001 4.151320
-3.105800 -18.585395 4.151749
-2.988448 -18.597510 4.201112
-2.967857 -18.588521 4.220278
-2.930408 -18.603863 4.276971
-2.970453 -18.613282 4.258967
-3.066361 -18.584691 4.173871
-3.045196 -18.573539 4.166671
-3.046582 -18.585904 4.198375
-3.045718 -18.578286 4.219373
-3.085751 -18.584417 4.174972
-3.065598 -18.578364 4.195541
-3.085561 -18.583028 4.199295
-3.064787 -18.571547 4.216966
-3.044988 -18.572108 4.241195
-3.024069 -18.556061 4.256427
-3.043749 -18.561415 4.260547
-3.064668 -18.570612 4.241625
-3.062491 -18.552254 4.282005
-3.063881 -18.564039 4.263233
-3.127435 -18.604567 4.038739
-3.367751 -18.618882 4.213713
-3.282606 -18.584838 4.214174
-3.346435 -18.610149 4.232635
-3.122521 -18.565466 4.092614
-3.123471 -18.572909 4.071738
-3.121544 -18.557623 4.113308
-3.139587 -18.539447 4.105015
-3.122704 -18.567161 4.143273
-3.160048 -18.538823 4.155798
-3.137847 -18.525957 4.122628
-3.137674 -18.524783 4.146859
-3.180261 -18.547123 4.161565
-3.200132 -18.556124 4.167728
-3.202325 -18.572375 4.201567
-3.218965 -18.549884 4.190834
-3.237730 -18.550594 4.192605
-3.259156 -18.559279 4.198830
-2.914545 -18.645361 4.324137
-3.024048 -18.556144 4.307025
-2.951665 -18.612491 4.282799
-3.042269 -18.548687 4.304069
-3.025120 -18.565530 4.286911
-3.043190 -18.556699 4.283192
-3.021290 -18.531692 4.344112
-3.022765 -18.544835 4.326102
-3.041345 -18.540801 4.325037
-3.020305 -18.523256 4.364775
-3.039526 -18.525022 4.366973
-3.040461 -18.533093 4.346097
-3.018469 -18.506980 4.406528
-3.019431 -18.515453 4.385834
-3.038367 -18.514967 4.386752
-3.037235 -18.505313 4.406774
-2.995475 -18.474492 4.361310
-2.993966 -18.460919 4.378922
-3.035982 -18.494560 4.426156
-3.017203 -18.495886 4.425697
-3.032833 -18.467381 4.461657
-3.015889 -18.484303 4.444621
-3.009341 -18.426137 4.461913
-3.034565 -18.482374 4.444715
-2.991553 -18.439322 4.494042
-3.009660 -18.428982 4.489194
-3.002634 -18.366740 4.529192
-2.987331 -18.401060 4.522740
-2.990021 -18.425504 4.511563
-3.007310 -18.408153 4.502537
-3.005705 -18.394007 4.519784
-3.305903 -18.346102 4.287253
-3.273082 -18.255908 4.283862
-3.251008 -18.233582 4.294212
-3.088199 -18.292318 4.390003
-3.803175 -18.589482 4.038988
-3.638337 -18.666522 4.111000
-3.616448 -18.659418 4.130501
-3.577306 -18.669688 4.157319
-3.494331 -18.660314 4.195553
-3.515883 -18.665374 4.200131
-3.490041 -18.635290 4.207493
-3.452067 -18.645448 4.209470
-3.471883 -18.642326 4.209565
-3.389064 -18.627623 4.220060
-3.590656 -18.630833 4.163894
-3.583177 -18.702099 4.199881
-3.548378 -18.739446 4.215887
-3.557157 -18.673018 4.182493
-3.536308 -18.671124 4.204953
-3.597719 -18.669092 4.158908
-3.573859 -18.650841 4.223335
-3.603590 -18.701104 4.226769
-3.785599 -18.598702 4.041700
-3.762288 -18.678853 4.053970
-3.738074 -18.661636 4.068103
-3.754028 -18.638735 4.058316
-3.714158 -18.645196 4.082572
-3.734747 -18.645248 4.084679
-3.656043 -18.655646 4.107221
-3.770119 -18.616868 4.049108
-3.336641 -17.951497 4.262941
-3.297861 -18.052652 4.269038
-3.267334 -18.094704 4.290475
-3.283473 -18.080457 4.283707
-3.244497 -18.324715 4.756645
-3.229175 -18.351416 4.771833
-2.896941 -18.469028 4.873753
-2.895644 -18.455564 4.892068
-2.854711 -18.418411 4.892840
-3.199409 -18.552834 4.840184
-3.245100 -18.194790 4.728124
-2.970440 -18.247973 4.609673
-2.986650 -18.225116 4.622438
-2.967653 -18.222674 4.619660
-2.947119 -18.214079 4.638673
-2.964665 -18.195357 4.628275
-2.983676 -18.198702 4.631663
-2.958849 -18.142680 4.620815
-2.976115 -18.131652 4.615113
-2.956683 -18.122810 4.633821
-2.926754 -18.198347 4.757085
-2.925489 -18.186564 4.775552
-2.965851 -18.042358 4.634917
-2.826166 -17.911695 4.542906
-2.941535 -17.985126 4.622269
-3.252558 -18.245161 4.734181
-3.236620 -18.270654 4.748636
-3.252911 -18.123486 4.710051
-3.243529 -18.061160 4.695605
-3.238518 -18.150573 4.725757
-2.923353 -18.166289 4.814743
-2.886257 -18.163622 4.836805
-2.870501 -18.196935 4.883972
-2.879020 -18.284478 4.915103
-2.826495 -18.112535 4.904870
-2.845326 -18.114912 4.881220
-3.222061 -17.920778 4.835328
-3.151847 -17.942688 4.843097
-3.368051 -17.817433 4.654864
-3.260760 -17.819506 4.594307
-3.251729 -17.877829 4.630725
-3.257226 -18.029849 4.677092
-3.243222 -17.938631 4.668790
-3.246811 -17.962061 4.658620
-3.384369 -17.811692 4.678335
-3.327391 -17.788460 4.809960
-3.274912 -18.027143 4.885103
-3.281892 -17.953522 4.863247
-3.254738 -17.897699 4.823315
-3.235702 -17.891450 4.817181
-3.392512 -17.464862 4.551863
-2.714510 -17.429052 4.183954
-2.732568 -17.452879 4.199909
-2.698588 -17.442594 4.191639
-2.905041 -17.653363 4.530303
-2.900819 -17.044936 4.042984
-2.690561 -17.344525 4.152486
-2.761967 -17.077362 4.256553
-2.542619 -17.072156 4.218571
-2.558742 -17.076710 4.222294
-2.527616 -17.080018 4.223236
-2.636398 -17.069906 4.244154
-2.622842 -17.090231 4.234381
-2.605080 -17.061872 4.237165
-2.620311 -17.056147 4.234056
-2.781719 -17.113791 4.282392
-2.683652 -17.065021 4.243428
-2.667646 -17.068260 4.244707
-2.651993 -17.063850 4.240892
-2.743822 -17.041824 4.231447
-2.687624 -16.937271 4.179902
-2.704820 -16.957663 4.194728
-2.894413 -17.124793 4.116016
-2.908112 -17.105930 4.104915
-2.911187 -17.131711 4.144244
-2.894039 -17.121599 4.136403
-3.005422 -17.119077 4.189149
-2.876868 -17.110842 4.150657
-2.858005 -17.082611 4.175933
-2.839737 -17.058719 4.203985
-2.875408 -17.098039 4.164760
-2.856648 -17.070692 4.190555
-2.836243 -17.026759 4.205033
-2.819452 -17.023588 4.247024
-2.816702 -16.998030 4.252220
-2.813409 -16.967408 4.276522
-2.815220 -16.984293 4.265469
-2.804241 -17.175186 4.325251
-2.795352 -16.943062 4.303964
-2.796603 -16.955068 4.289586
-2.775880 -16.898146 4.339652
-2.777386 -16.912691 4.327135
-2.793968 -16.930179 4.317731
-2.774518 -16.884945 4.353114
-2.849389 -16.872875 4.442633
-2.853253 -16.906347 4.443904
-3.422440 -17.719184 4.207971
-3.421587 -17.714691 4.228999
-3.408850 -17.745244 4.414962
-3.241082 -17.590117 4.494283
-3.202031 -17.448688 4.398806
-3.170965 -17.359302 4.337797
-3.315285 -17.420059 4.512900
-3.293639 -17.490450 4.508206
-3.282533 -17.522143 4.503373
-3.330312 -17.407969 4.506680
-3.341346 -17.374134 4.509744
-3.402113 -17.252736 4.508416
-3.417757 -17.248577 4.507686
-3.351610 -17.336999 4.510398
-3.386978 -17.258469 4.510305
-3.362793 -17.305789 4.514987
-3.377438 -17.292572 4.532113
-3.377074 -17.290644 4.506631
-3.088168 -17.135431 4.207461
-3.144159 -17.293298 4.292406
-3.208690 -16.994813 4.520202
-3.114106 -16.894377 4.460930
-3.168619 -16.941794 4.501203
-3.173747 -16.972669 4.500247
-3.149690 -16.924417 4.486528
-3.223918 -16.902593 4.527100
-3.146939 -16.907523 4.497611
-3.132408 -16.915241 4.477954
-3.147184 -16.909196 4.522421
-3.161265 -16.804267 4.471523
-3.508075 -17.125913 4.509047
-3.428282 -17.217921 4.512397
-3.523450 -17.121815 4.508531
-2.922286 -17.810230 4.584116
-2.943844 -17.846748 4.584228
-2.817348 -17.818847 4.632810
-2.764048 -17.815858 4.627679
-2.935645 -17.773772 4.561455
-2.916825 -17.760538 4.576381
-2.852271 -17.822165 4.637207
-2.907136 -17.841780 4.628599
-2.907288 -17.843318 4.654813
-2.870484 -17.661083 4.582269
-2.904473 -17.817228 4.713385
-2.903720 -17.810069 4.683236
-2.884641 -17.796691 4.749126
-2.883060 -17.781538 4.764298
-2.826895 -17.747567 4.737479
-2.881431 -17.766185 4.804952
-2.739293 -17.726757 4.794241
-2.704257 -17.722815 4.815082
-2.706356 -17.749410 4.859385
-2.882263 -17.774218 4.784869
-2.899053 -17.767309 4.910331
-2.843652 -17.736936 4.937069
-2.840416 -17.706709 4.967596
-2.841903 -17.721445 4.952058
-2.788776 -17.518244 4.854830
-2.663630 -17.639815 4.831677
-2.687592 -17.513392 4.819605
-2.668653 -17.491075 4.802582
-2.651147 -17.472269 4.838750
-2.633036 -17.452840 4.849069
-2.803977 -17.511964 4.851385
-3.161355 -17.754034 4.794881
-3.090165 -17.381683 4.883864
-2.992190 -17.390751 4.855379
-3.010227 -17.393376 4.858981
-2.934600 -16.940432 4.962821
-3.423796 -17.632460 4.767723
-3.409481 -17.749207 4.640730
-3.301753 -17.743010 4.725561
-3.249764 -17.750651 4.750517
-3.214189 -17.751146 4.772670
-3.286590 -17.761481 4.736174
-3.271793 -17.781308 4.747732
-3.260295 -17.710118 4.775464
-3.369568 -17.727815 4.672563
-3.349498 -17.710788 4.659078
-3.341636 -17.770859 4.723023
-3.339583 -17.653999 4.771981
-3.356681 -17.655083 4.774759
-3.387462 -17.628424 4.760458
-3.404993 -17.626972 4.761620
-3.371366 -17.637689 4.764756
-3.453748 -17.606308 4.779300
-3.469857 -17.601013 4.777808
-3.310511 -17.688438 4.791925
-3.301907 -17.744251 4.906561
-3.395753 -17.674467 5.026557
-3.240971 -16.909348 4.534149
-3.224462 -17.278475 4.874388
-3.208470 -17.284432 4.876826
-3.039060 -16.914601 4.928416
-2.819690 -18.458488 5.590791
-1.971032 -18.879195 5.486724
-1.990393 -18.867604 5.478550
-1.926967 -18.967491 5.488216
-1.947727 -18.980609 5.496667
-2.808766 -18.545854 5.136873
-2.621497 -18.665366 5.066993
-2.559485 -18.631148 5.266644
-2.852520 -18.833109 5.100864
-2.741655 -18.686513 5.085765
-2.764257 -18.733149 5.088834
-2.676723 -18.612421 5.090544
-2.655468 -18.582272 5.070044
-2.635363 -18.575574 5.064857
-2.686514 -18.475960 5.139815
-2.634219 -18.557362 5.108259
-2.613211 -18.526102 5.114553
-2.581123 -18.656019 5.284125
-2.715177 -18.889916 5.359225
-2.847752 -18.779821 5.496572
-2.702482 -18.417954 5.184788
-2.512360 -18.426886 5.072768
-2.724397 -18.216768 5.241222
-2.743616 -18.218941 5.243817
-2.704245 -18.186255 5.246326
-2.687370 -18.208675 5.261332
-2.801167 -18.460820 5.591338
-2.627478 -18.769670 5.685977
-2.647364 -18.773288 5.689427
-2.565658 -18.753480 5.671970
-2.504313 -18.707697 5.667066
-2.723130 -18.706437 5.645419
-2.740316 -18.424935 5.590886
-2.676089 -18.609571 5.633148
-2.655080 -18.579282 5.639900
-2.648368 -18.474952 5.622691
-2.762349 -18.455465 5.585141
-2.722252 -18.429041 5.592867
-2.576523 -18.965746 6.010127
-2.796773 -18.408927 5.611801
-2.773723 -18.366301 5.608273
-2.683166 -18.430199 5.620970
-2.663758 -18.425222 5.616331
-2.654384 -18.285127 5.628949
-2.790281 -18.332418 5.613474
-2.699668 -18.380970 5.614884
-2.702272 -18.416913 5.612217
-2.623490 -17.568370 5.249604
-2.046663 -17.853358 5.210334
-1.844583 -17.646320 5.035366
-2.046511 -17.861386 5.270879
-1.893157 -17.728054 5.365055
-2.046759 -17.844080 5.312815
-2.029429 -17.821850 5.323716
-1.994395 -17.881766 5.342065
-2.047060 -17.825316 5.326127
-2.011177 -17.879479 5.340053
-2.028811 -17.855418 5.321630
-2.013643 -17.762090 5.333408
-1.996517 -17.790220 5.327691
-1.961502 -17.759250 5.332214
-2.012608 -17.811383 5.316027
-1.980280 -17.729396 5.308880
-1.980721 -17.711539 5.322558
-1.910166 -17.741160 5.347108
-1.926874 -17.751402 5.354583
-2.573312 -17.574043 5.278559
-2.598994 -17.710022 5.275770
-2.580847 -17.695723 5.263993
-2.589810 -17.567691 5.274412
-2.505424 -17.584947 5.256943
-2.561286 -17.652752 5.257383
-2.544412 -17.649179 5.253904
-2.523644 -17.597197 5.267164
-2.525027 -17.622372 5.259587
-2.541191 -17.592737 5.264481
-2.673110 -17.769159 5.324799
-2.632185 -17.694155 5.292624
-2.616599 -17.718687 5.283276
-2.634936 -17.733694 5.295663
-2.571846 -17.550334 5.314333
-2.468721 -17.496902 5.349406
-2.402183 -17.514144 5.360961
-2.418888 -17.508433 5.356905
-2.400982 -17.481272 5.389383
-2.401647 -17.499883 5.376956
-2.484905 -17.495437 5.348859
-2.434981 -17.503486 5.353460
-2.451123 -17.500435 5.351601
-2.536729 -17.514732 5.339092
-2.554284 -17.535036 5.328680
-2.500739 -17.494645 5.348861
-2.518187 -17.497152 5.351608
-2.499512 -17.471164 5.384757
-2.585471 -17.500963 5.496175
-2.599553 -17.464818 5.495181
-2.340758 -17.100213 5.480628
-2.482728 -17.451094 5.395260
-2.448101 -17.431922 5.405853
-2.382564 -17.429733 5.402002
-2.366779 -17.432141 5.403526
-2.465617 -17.431097 5.405855
-2.415942 -17.433553 5.406093
-2.432073 -17.434227 5.407193
-2.446705 -17.400118 5.407297
-2.363384 -17.324875 5.370175
-2.498453 -17.450514 5.395475
-2.413267 -17.365172 5.432391
-2.399547 -17.442322 5.412742
-2.395054 -17.320398 5.422120
-2.379367 -17.336109 5.434748
-2.345784 -17.271855 5.435101
-2.547491 -17.421066 5.428754
-2.514678 -17.432752 5.409215
-2.580023 -17.416232 5.454088
-2.563357 -17.413863 5.451279
-2.385112 -17.049424 5.520261
-2.324853 -17.092740 5.501351
-3.495873 -18.227313 6.025011
-3.178935 -18.542116 5.217048
-2.942360 -18.727088 5.179337
-3.101378 -18.554807 5.190791
-3.052712 -18.473999 5.161303
-3.137721 -18.530384 5.205695
-3.121901 -18.564070 5.198572
-3.094764 -18.501485 5.352429
-3.058798 -18.526654 5.395386
-3.186712 -18.460580 5.360996
-3.137840 -18.531764 5.405585
-3.137980 -18.532787 5.377600
-3.163804 -18.428816 5.393994
-3.125255 -18.433307 5.365058
-2.924985 -18.009447 5.054541
-2.874058 -18.042086 5.073568
-2.805575 -18.084597 5.098633
-3.217814 -18.143597 5.510120
-3.077069 -17.906690 5.321037
-3.498942 -17.934228 5.115348
-3.445939 -17.950713 5.092907
-3.410608 -17.961209 5.068822
-3.392021 -17.955985 5.062993
-3.465712 -17.957047 5.099804
-3.478283 -17.924495 5.105889
-3.504372 -17.962813 5.108778
-3.520112 -17.952096 5.103442
-3.512656 -17.913494 5.129821
-3.133342 -18.497658 5.732866
-3.062833 -18.561414 5.535909
-2.839016 -18.459604 5.592868
-2.858766 -18.465130 5.598178
-3.114039 -18.502793 5.734846
-3.150260 -18.468782 5.803159
-3.143822 -18.011593 5.750697
-3.101941 -17.837725 5.903124
-3.183517 -17.667428 5.830922
-2.966431 -17.594934 5.240960
-2.856687 -17.690056 5.061964
-2.871908 -17.676335 5.079609
-2.820313 -17.680807 5.052564
-2.802589 -17.665084 5.092790
-2.819890 -17.676562 5.075911
-2.784012 -17.652516 5.108753
-2.801151 -17.649868 5.107992
-2.888466 -17.669571 5.102470
-2.906652 -17.669786 5.104089
-2.909280 -17.694075 5.256974
-2.765701 -17.640296 5.125052
-2.747478 -17.627774 5.141167
-2.710644 -17.596083 5.141663
-2.695114 -17.609296 5.177393
-2.677111 -17.602511 5.198023
-2.660089 -17.594099 5.217525
-2.642572 -17.586549 5.237698
-2.690017 -17.545509 5.262771
-2.738757 -17.528413 5.279688
-2.722322 -17.528339 5.278527
-2.703645 -17.511249 5.263943
-2.820894 -17.511668 5.218666
-2.811492 -17.590626 5.171062
-2.810522 -17.580717 5.190261
-2.822781 -17.530569 5.206514
-2.817510 -17.477846 5.245959
-2.819132 -17.494304 5.231946
-2.816973 -17.472532 5.268727
-2.832092 -17.450388 5.279539
-2.922465 -17.658434 5.123656
-2.955377 -17.646352 5.144201
-2.938235 -17.647311 5.143437
-2.968638 -17.613169 5.227984
-2.954991 -17.643147 5.222419
-2.923421 -17.667262 5.237911
-2.946535 -17.571597 5.275451
-2.843383 -17.560797 5.312737
-2.827921 -17.409829 5.301219
-2.826679 -17.397729 5.318588
-3.011086 -17.539764 5.284134
-2.929664 -17.573224 5.302396
-2.961286 -17.021503 5.510283
-2.824712 -17.378471 5.330160
-2.800049 -17.303384 5.376050
-2.766183 -17.281601 5.382707
-2.660360 -17.386230 5.517398
-2.628374 -17.390848 5.491362
-2.613113 -17.419906 5.486743
-2.645845 -17.407020 5.505885
-2.786134 -17.330250 5.424472
-2.752696 -17.314158 5.436071
-2.719847 -17.312002 5.431857
-2.736475 -17.315318 5.435825
-2.795787 -17.260642 5.450039
-2.724154 -17.361636 5.529162
-2.779185 -17.094108 5.444782
-2.759435 -17.055463 5.437224
-2.699478 -17.078255 5.507341
-2.734262 -17.114347 5.513771
-2.700669 -16.918443 5.531930
-2.833339 -17.311126 5.357924
-2.918962 -17.200059 5.383267
-2.853849 -17.192371 5.397912
-2.842046 -17.239665 5.381629
-2.872061 -17.211277 5.388081
-2.851241 -17.168565 5.405000
-2.903150 -17.202629 5.383844
-2.887577 -17.207523 5.386405
-2.832935 -17.307764 5.520583
-2.854130 -17.195087 5.482750
-2.840684 -17.227367 5.481182
-2.896114 -17.010034 5.493099
-2.860537 -17.108827 5.437338
-2.826335 -17.093210 5.420769
-2.870948 -17.064816 5.455512
-2.863921 -17.003821 5.484340
-2.847284 -16.991257 5.499235
-2.881901 -17.022248 5.474692
-2.844183 -16.963712 5.502265
-2.810197 -16.943207 5.508372
-2.951016 -16.942934 5.523003
-2.915411 -16.915472 5.522215
-2.901096 -16.923055 5.527399
-2.921142 -16.961187 5.508102
-2.933800 -16.935590 5.514520
-3.521602 -17.685718 5.078139
-3.389155 -17.638299 5.052722
-3.249148 -17.641525 5.064243
-3.406529 -17.636006 5.053395
-3.371483 -17.638845 5.050828
-3.354503 -17.643459 5.052015
-3.333873 -17.621833 5.033862
-3.302126 -17.639583 5.069162
-3.383241 -17.605889 5.081601
-3.385876 -17.620305 5.065850
-3.425318 -17.641153 5.059590
-3.442267 -17.635420 5.057763
-3.426725 -17.648681 5.038683
-3.263770 -17.413132 5.405659
-3.184582 -17.449148 5.396546
-3.218557 -17.348430 5.348028
-3.319561 -17.349649 5.335494
-3.236979 -17.354714 5.328191
-3.285327 -17.343557 5.353102
-3.240934 -17.378705 5.375151
-3.267677 -17.340845 5.348554
-3.113789 -16.894589 5.528649
-3.224532 -17.279817 5.321104
-3.206342 -17.273731 5.340941
-3.116075 -17.219036 5.339333
-3.170648 -17.154678 5.402226
-3.157194 -17.168191 5.384367
-3.117949 -17.125035 5.397928
-3.135092 -17.131771 5.405770
-3.236595 -17.252140 5.354775
-3.165599 -17.123481 5.430251
-3.151681 -17.133376 5.409281
-3.148612 -17.114083 5.420090
-2.923866 -17.379428 5.561217
-2.940574 -17.380443 5.563721
-2.890630 -17.376796 5.555783
-2.908399 -17.388990 5.567713
-2.949226 -16.929079 5.538235
-2.782759 -17.295991 5.562331
-2.672437 -17.325777 5.551324
-2.656137 -17.331781 5.583456
-2.739173 -17.345895 5.545068
-2.770033 -17.322823 5.556003
-2.719801 -17.311782 5.599063
-2.683013 -17.065106 5.578083
-2.620178 -17.062969 5.571761
-2.604201 -17.055731 5.592300
-2.588600 -17.067357 5.601695
-2.596590 -16.950041 5.580738
-2.611621 -16.948177 5.580068
-2.565895 -16.961573 5.589276
-2.581041 -16.958120 5.587051
-2.569352 -17.013500 5.608424
-2.554917 -17.027000 5.647969
-2.520639 -16.969398 5.621893
-2.536300 -16.977341 5.630009
-2.686565 -16.930047 5.541263
-2.764302 -16.945445 5.617681
-2.290081 -16.940877 5.503900
-2.354884 -16.612236 4.685471
-2.457496 -16.931301 4.187512
-2.063044 -16.845849 4.326023
-2.047599 -16.858322 4.358000
-2.003241 -16.854660 4.401943
-2.033198 -16.844568 4.371157
-2.069426 -16.450456 4.149427
-2.380406 -16.521712 4.684008
-2.050522 -16.696739 4.561240
-1.976491 -16.721446 4.581885
-1.992877 -16.669175 4.564326
-1.963486 -16.669913 4.589134
-2.367532 -16.563524 4.670169
-2.300643 -16.177822 4.745485
-2.362376 -16.423036 4.744494
-2.362999 -16.440343 4.735150
-2.361453 -16.398670 4.771754
-2.331244 -16.305717 4.715111
-2.317778 -16.308012 4.716727
-2.290626 -16.315983 4.770799
-2.303096 -16.270649 4.731691
-2.314500 -16.195014 4.737210
-2.273718 -16.175310 4.742676
-2.273352 -16.159008 4.752019
-2.287692 -16.195142 4.760523
-2.287042 -16.168205 4.760471
-1.968543 -16.129517 4.896410
-2.333016 -16.363010 4.788487
-2.275750 -16.269661 4.802185
-2.256188 -15.982900 4.830628
-2.269291 -15.971590 4.844427
-2.244279 -16.011428 4.832937
-2.270813 -16.042119 4.862012
-2.258333 -16.095480 4.862696
-2.283912 -16.040281 4.860610
-2.257073 -16.030180 4.850632
-2.243768 -15.980815 4.876923
-1.988766 -15.571050 4.768208
-1.937036 -15.652776 4.780414
-1.876454 -15.678315 4.784917
-2.268800 -15.949279 4.847516
-2.797631 -15.972577 4.737450
-2.602760 -16.820460 4.118012
-2.551578 -16.740269 4.060814
-2.552717 -16.754709 4.048999
-2.567753 -16.760014 4.075060
-2.584556 -16.776553 4.087141
-2.520609 -16.715766 4.042722
-2.535697 -16.718207 4.045042
-2.672078 -16.593792 4.521566
-2.673655 -16.611449 4.512161
-2.773280 -16.872999 4.367461
-2.767757 -16.819142 4.397264
-2.771606 -16.856584 4.378575
-2.752954 -16.827617 4.402326
-2.754955 -16.847869 4.394079
-2.827262 -16.810340 4.441675
-2.781789 -16.814225 4.417774
-2.748187 -16.779940 4.436307
-2.749755 -16.795879 4.425071
-2.751376 -16.812056 4.413927
-2.746778 -16.765968 4.449007
-2.831201 -16.845267 4.444319
-2.811783 -16.805172 4.436640
-2.795571 -16.801881 4.409845
-2.776604 -16.626919 4.462422
-2.745244 -16.750460 4.460517
-2.729697 -16.745963 4.456031
-2.727773 -16.726476 4.464490
-2.739637 -16.694393 4.464410
-2.724487 -16.692373 4.461755
-2.751767 -16.662939 4.464666
-2.765457 -16.660249 4.463722
-2.712036 -16.707171 4.472002
-2.692008 -16.652776 4.498813
-2.709373 -16.679223 4.497036
-2.710370 -16.689816 4.481926
-2.693772 -16.671830 4.490292
-2.828353 -16.563856 4.441817
-2.790515 -16.612075 4.452266
-2.686331 -16.591102 4.520500
-2.690152 -16.632616 4.506418
-2.687944 -16.608500 4.510882
-2.670337 -16.574420 4.529568
-2.684768 -16.574067 4.530332
-2.754999 -16.425777 4.511467
-2.815112 -16.574984 4.449106
-2.792606 -16.502538 4.483124
-2.805864 -16.494736 4.524358
-2.793180 -16.507640 4.510222
-2.819459 -16.488408 4.520638
-2.820779 -16.380109 4.458265
-2.804693 -16.362721 4.442980
-2.793770 -16.389711 4.532203
-2.772576 -16.324443 4.455044
-2.788330 -16.342148 4.447868
-2.777242 -16.366009 4.511641
-2.816068 -16.227188 4.494203
-3.035073 -16.777087 4.033746
-3.192782 -16.726129 4.465021
-3.076154 -16.751632 4.446325
-3.019044 -16.776045 4.434685
-3.090795 -16.747323 4.444833
-3.208841 -16.729978 4.469935
-3.129659 -16.707483 4.466547
-3.139381 -16.674629 4.466590
-3.176435 -16.715962 4.455471
-3.129188 -16.614435 4.489832
-3.094703 -16.589481 4.512970
-3.024666 -16.329977 4.373400
-2.986908 -16.360380 4.369969
-2.975944 -16.380288 4.384060
-3.048900 -16.309294 4.382809
-3.012394 -16.342639 4.381726
-3.002318 -16.369102 4.492068
-3.071197 -16.356024 4.467543
-3.281848 -16.711486 4.489601
-3.294863 -16.702004 4.484478
-3.191862 -16.315283 4.452430
-3.249781 -16.054024 4.279182
-3.094203 -16.243420 4.359794
-3.061738 -16.298882 4.376374
-3.080435 -16.246195 4.382497
-3.067648 -16.249721 4.405993
-2.938897 -16.322959 4.448071
-3.084199 -16.268351 4.422925
-3.020457 -16.303663 4.419856
-3.097890 -16.264692 4.421921
-3.112158 -16.190041 4.320628
-3.121548 -16.242707 4.453028
-3.144496 -16.213898 4.456060
-3.259296 -15.971781 4.303105
-3.285491 -15.968114 4.326699
-3.238379 -15.999885 4.300103
-2.764641 -16.376939 4.542367
-2.573047 -16.427003 4.709875
-2.461330 -16.445530 4.695515
-2.446665 -16.443996 4.693592
-2.666100 -16.527273 4.538738
-2.668232 -16.551187 4.534489
-2.738415 -16.402297 4.560606
-2.646604 -16.468129 4.560027
-2.662798 -16.490459 4.555779
-2.664443 -16.508977 4.547381
-2.661090 -16.471517 4.563781
-2.641700 -16.411723 4.583971
-2.643378 -16.430953 4.576396
-2.645215 -16.452150 4.570347
-2.751540 -16.393728 4.554781
-2.708743 -16.384860 4.567201
-2.723113 -16.383395 4.567203
-2.698702 -16.427491 4.601061
-2.654918 -16.402609 4.600851
-2.715701 -16.454677 4.601084
-2.799328 -16.840124 4.894849
-2.711177 -16.017747 4.698212
-2.605819 -16.316691 4.619796
-2.550522 -16.306624 4.654645
-2.536093 -16.306570 4.653728
-2.565516 -16.325689 4.648140
-2.578486 -16.319501 4.643779
-2.454054 -16.311148 4.676882
-2.416996 -16.387590 4.692631
-2.433205 -16.441284 4.690753
-2.418239 -16.414237 4.691341
-2.440417 -16.323022 4.686368
-2.467072 -16.286876 4.680431
-2.384192 -16.279888 4.718298
-2.356908 -16.273672 4.712011
-2.397130 -16.271737 4.711741
-2.383025 -16.252035 4.717911
-2.369563 -16.245540 4.711808
-2.370256 -16.263020 4.703227
-2.452720 -16.286906 4.703440
-2.424617 -16.267116 4.708876
-2.411128 -16.262316 4.704146
-2.437980 -16.275535 4.693006
