-6.404922 -6.910568 23.427139
-6.414108 -6.963272 23.486465
-6.817825 -6.081039 23.231461
-6.971268 -6.155869 23.251541
-6.033585 -6.032700 23.435959
-6.661240 -6.737137 23.686722
-6.872330 -6.643570 23.553635
-6.753220 -6.728348 23.660843
-6.674057 -6.718338 23.675888
-6.236679 -6.694839 23.955856
-6.054825 -6.162064 23.578537
-5.748367 -6.149704 22.927902
-5.742447 -7.110001 22.684036
-5.789749 -7.833145 22.219803
-5.387741 -7.943436 22.381607
-5.454330 -7.870895 22.474411
-5.380630 -7.003769 22.188339
-5.420090 -7.002670 22.276108
-5.418869 -7.024368 22.313644
-5.799973 -7.931107 22.567612
-5.899857 -7.982132 22.797989
-5.973282 -7.947495 22.928543
-5.710617 -7.107956 22.630508
-5.764450 -7.101120 22.701279
-5.989639 -7.049301 22.630814
-5.985153 -7.298203 22.926620
-5.994370 -7.280899 22.908798
-5.938248 -7.240982 22.910263
-5.929581 -7.248245 22.943222
-5.964981 -7.236893 22.944046
-4.718491 -7.226364 22.529160
-4.748947 -7.699966 22.176163
-4.236496 -7.693924 22.448166
-4.375504 -7.625107 22.303635
-4.609421 -7.172531 22.117569
-4.550522 -7.066818 22.007645
-4.626633 -7.119400 22.026047
-4.691666 -7.057724 22.054947
-4.652756 -7.057724 22.098557
-4.652054 -7.035660 22.071213
-4.640976 -7.019882 22.078476
-4.609329 -7.048782 22.018082
-4.597031 -7.192429 22.143692
-4.594040 -7.227768 22.216751
-4.686203 -7.090866 22.136276
-4.645157 -7.084763 22.153427
-4.690659 -7.082596 22.217697
-4.682510 -7.112900 22.245346
-4.689468 -7.061386 22.192276
-4.756790 -7.319656 22.477158
-4.596786 -7.313004 22.407486
-4.596786 -7.353439 22.496384
-4.517838 -7.272720 22.491623
-4.674423 -7.136032 22.330887
-4.688583 -7.106461 22.255081
-4.682968 -7.193436 22.416183
-4.720474 -7.156906 22.427597
-4.721359 -7.132736 22.392044
-4.640427 -7.140610 22.426743
-4.665665 -7.162857 22.389511
-4.736679 -7.227768 22.488419
-4.731583 -7.240280 22.457901
-4.722031 -7.211105 22.464798
-4.747025 -7.167618 22.470474
-4.607254 -7.191849 22.429916
-4.623276 -7.154037 22.431808
-4.592087 -7.202682 22.444412
-4.576706 -7.200485 22.468643
-4.607315 -7.169296 22.442825
-4.592545 -7.185410 22.457596
-4.712357 -7.115646 22.391495
-4.241623 -7.202560 22.229080
-4.049271 -7.353958 22.108322
-4.400528 -7.144608 22.122360
-4.482742 -7.101944 22.043045
-4.452072 -7.082779 22.031204
-4.483841 -7.123428 22.067856
-4.276138 -7.048111 22.099167
-4.403885 -7.165176 22.140305
-4.324081 -7.184280 22.182449
-4.282974 -7.197678 22.232986
-4.362534 -7.171188 22.188248
-4.326157 -7.158493 22.194778
-4.345444 -7.149765 22.201553
-4.232285 -7.163895 22.248520
-4.048264 -7.220016 22.303757
-4.135666 -7.219742 22.303513
-4.167923 -7.217941 22.250412
-4.014267 -7.247696 22.304855
-4.120865 -7.222488 22.290695
-4.069199 -7.215286 22.320267
-4.002548 -7.203598 22.334091
-4.014603 -7.240372 22.389755
-4.740555 -7.538010 22.924057
-4.828659 -7.513138 22.854416
-4.894424 -7.656876 22.915329
-4.878525 -7.642227 22.931808
-4.811325 -7.569595 22.923691
-4.834335 -7.585800 22.909256
-4.783035 -7.583603 22.887497
-4.773270 -7.564987 22.883530
-4.824051 -7.547623 22.893845
-4.811295 -7.526169 22.914963
-4.810349 -7.561081 22.887741
-4.763931 -7.546951 22.879654
-4.870834 -7.604660 22.955887
-4.768112 -7.509689 22.993759
-4.718704 -7.503799 22.927567
-4.722397 -7.524948 22.949661
-4.069138 -7.707962 22.610825
-4.313553 -7.509659 22.655624
-4.223129 -7.548965 22.718155
-4.233749 -7.507034 22.696976
-4.219070 -7.524643 22.718460
-4.076950 -7.630936 22.812363
-4.137314 -7.633865 22.809525
-4.086197 -7.675583 22.864670
-4.091385 -7.646988 22.862015
-4.068008 -7.658524 22.837326
-4.115097 -7.625351 22.825119
-4.107834 -7.637650 22.838272
-4.086014 -7.650589 22.816971
-4.156967 -7.610580 22.776688
-4.187363 -7.590714 22.758896
-4.147476 -7.591385 22.773575
-4.017075 -7.716232 22.961258
-4.716171 -7.203995 22.503769
-4.775467 -7.286789 22.529892
-4.769516 -7.368820 22.690659
-4.506424 -7.316422 22.519089
-4.726791 -7.289169 22.596756
-4.732651 -7.309677 22.611252
-4.527817 -7.261795 22.501083
-4.731339 -7.356552 22.681595
-4.731491 -7.333389 22.647934
-4.558334 -7.290970 22.648788
-4.770493 -7.197525 22.543839
-4.761642 -7.134506 22.666672
-4.754135 -7.115036 22.658707
-4.794449 -7.116653 22.747452
-4.709518 -7.207230 22.502518
-4.629410 -7.229996 22.572586
-4.709885 -7.247482 22.591232
-4.715866 -7.099930 22.617264
-4.689560 -7.099472 22.577774
-4.804062 -7.396591 22.785477
-4.758438 -7.407761 22.779282
-4.779190 -7.396805 22.773880
-4.779831 -7.478470 22.853073
-4.791855 -7.428024 22.818710
-4.810776 -7.488083 22.909073
-4.781998 -7.468033 22.909744
-4.722580 -7.431107 22.811325
-4.723038 -7.407516 22.775986
-4.721359 -7.455795 22.850510
-4.747086 -7.448410 22.866989
-4.717758 -7.480820 22.896072
-4.740707 -7.486740 22.965561
-4.794601 -7.139542 22.779495
-4.885574 -7.177536 22.985611
-4.748672 -7.117233 22.761002
-4.249374 -7.490158 22.678543
-4.404984 -7.375443 22.591171
-4.468643 -7.318069 22.540268
-4.470169 -7.295639 22.531326
-4.461807 -7.297745 22.529800
-4.401779 -7.354660 22.571152
-4.284317 -7.491562 22.675888
-4.266769 -7.478043 22.673416
-4.342484 -7.434769 22.640854
-4.415939 -7.391800 22.848221
-4.268204 -7.438187 22.930679
-4.306503 -7.418289 22.935806
-5.820450 -6.133408 22.895523
-5.734268 -6.852371 22.017441
-5.715744 -6.864334 22.010849
-5.370529 -6.926071 22.095779
-5.369675 -6.906052 22.067581
-5.377274 -6.985733 22.169388
-5.406174 -6.944016 22.163132
-5.415054 -6.964035 22.228989
-5.370529 -6.947739 22.128952
-5.372482 -6.967514 22.154190
-5.417648 -6.982346 22.250626
-5.447006 -6.960739 22.259689
-5.383713 -6.843033 22.419144
-5.601852 -6.125900 22.478989
-5.019058 -6.182175 22.170609
-5.301682 -6.167404 22.002090
-5.333420 -6.153488 22.089920
-5.382523 -6.150314 22.141220
-5.363510 -6.155197 22.168930
-5.986282 -6.867020 22.944321
-5.438126 -6.295059 22.585739
-4.632523 -6.481400 22.537430
-4.568436 -6.593491 22.056808
-4.541306 -6.500809 22.057724
-4.632187 -6.544449 22.051407
-4.539505 -6.557541 22.094620
-4.599319 -6.516953 22.106155
-4.645767 -6.518509 22.168930
-4.642441 -6.574997 22.190903
-4.623672 -6.506149 22.213333
-4.616653 -6.576859 22.335617
-4.639786 -6.592422 22.308212
-4.666916 -6.581619 22.341995
-4.650314 -6.516495 22.341476
-4.645462 -6.538498 22.381271
-4.628983 -6.503830 22.383926
-4.640457 -6.587326 22.479202
-4.662857 -6.510880 22.490341
-4.425034 -6.507767 22.189743
-4.382217 -6.670609 22.362686
-4.468643 -6.523636 22.250626
-4.732010 -6.130630 22.235947
-4.656937 -6.263229 22.027542
-4.798752 -6.346237 22.492996
-4.887680 -6.145554 22.355240
-4.819962 -6.036240 22.265610
-4.238632 -6.212357 22.119431
-4.400009 -6.496719 22.243210
-4.467300 -6.498978 22.198929
-4.304062 -6.240646 22.114487
-4.244186 -6.188736 22.071365
-4.371628 -6.488052 22.308151
-4.430710 -6.469315 22.250443
-4.446182 -6.497604 22.302383
-4.424240 -6.472000 22.353714
-4.393661 -6.439560 22.373764
-4.400925 -6.448471 22.399918
-4.373947 -6.423233 22.381577
-4.619064 -6.560135 22.533768
-4.667068 -6.580002 22.505173
-4.657883 -6.532944 22.530838
-4.681015 -6.502762 22.623032
-4.679337 -6.522995 22.652573
-4.672592 -6.568893 22.727982
-4.721237 -6.504135 22.708237
-4.673508 -6.546768 22.697952
-4.644730 -6.558609 22.707596
-4.620407 -6.550430 22.717941
-4.773788 -6.501297 22.754959
-4.539322 -6.570786 22.807297
-4.711594 -6.572464 22.820755
-4.705887 -6.553726 22.812851
-4.514664 -6.569778 22.801559
-4.708176 -6.637192 22.912796
-4.072342 -6.662674 22.593613
-4.201340 -6.845688 22.723221
-4.019455 -6.651047 22.669693
-4.130203 -6.802231 22.976913
-4.296860 -6.575760 22.914505
-4.411606 -6.568497 22.937424
-4.394669 -6.565231 22.898483
-4.383957 -6.547623 22.906540
-4.267197 -6.598465 22.896133
-4.317642 -6.576462 22.926620
-4.329758 -6.554794 22.916092
-4.318039 -6.572922 22.941452
-4.371964 -6.546890 22.965012
-4.354080 -6.555283 22.956406
-4.220139 -6.674759 22.967178
-4.211777 -6.622574 22.881241
-4.641891 -6.498093 22.531998
-4.776077 -6.479446 22.721024
-4.613449 -6.454239 22.653793
-4.652847 -6.472458 22.663406
-4.664597 -6.488022 22.650101
-4.714981 -6.487350 22.704697
-4.634079 -6.460190 22.700302
-4.608932 -6.428299 22.731369
-4.923172 -6.495499 22.926315
-4.953506 -6.461319 22.998123
-4.633560 -6.396500 22.820328
-4.243912 -6.410538 22.560257
-4.283096 -6.403488 22.500595
-4.274521 -6.366287 22.553543
-4.226028 -6.396652 22.592728
-4.214645 -6.345352 22.590652
-4.226212 -6.328659 22.568466
-4.161789 -6.335068 22.666702
-4.174393 -6.319626 22.648880
-4.117416 -6.320572 22.720840
-4.088486 -6.296829 22.786850
-4.097275 -6.270340 22.778885
-4.078751 -6.300308 22.815384
-4.040237 -6.251907 22.830551
-4.052811 -6.267593 22.841202
-4.010880 -6.206436 22.859238
-4.053116 -6.236954 22.813522
-4.011734 -6.233902 22.885941
-5.525650 -7.475876 23.759628
-5.642105 -7.961868 23.286819
-5.767502 -7.940231 23.253464
-5.164780 -7.991928 23.113724
-5.033920 -7.992050 23.171005
-5.000168 -7.931351 23.126633
-5.003281 -7.996170 23.196823
-5.874069 -7.427597 23.165207
-5.838303 -7.460068 23.237076
-5.635849 -7.278122 23.353409
-5.011978 -7.285080 23.212814
-5.043259 -7.276993 23.202438
-5.251572 -7.365219 23.476242
-5.109146 -7.315567 23.312607
-5.139236 -7.342514 23.372910
-5.134659 -7.309341 23.341721
-5.148422 -7.360214 23.377090
-5.199295 -7.373550 23.469955
-5.597000 -7.532272 23.807541
-5.876724 -7.812637 23.976120
-5.965958 -7.864975 23.978836
-5.937302 -7.667374 23.895859
-5.596664 -7.527420 23.805710
-5.626755 -7.571487 23.804031
-5.625443 -7.535965 23.826035
-5.578232 -7.574203 23.869125
-5.563278 -7.540329 23.846695
-5.574265 -7.554428 23.843094
-5.620255 -7.528641 23.818863
-5.575790 -7.512589 23.828873
-5.712296 -7.661667 23.893723
-5.698105 -7.648361 23.906204
-5.646622 -7.695419 23.976242
-5.549423 -7.468246 23.780106
-5.802475 -7.498703 23.998337
-5.806839 -7.353104 23.932907
-5.734970 -7.406082 23.940140
-5.400436 -7.230179 23.587021
-5.311539 -7.411636 23.540695
-5.289291 -7.385208 23.523331
-5.256393 -7.359940 23.502609
-4.553635 -7.041855 23.672195
-4.641830 -7.635849 23.247543
-4.967300 -7.898026 23.121872
-4.935287 -7.804825 23.055435
-4.956772 -7.809799 23.054092
-4.996597 -7.975479 23.178574
-4.989059 -7.955978 23.164536
-4.976120 -7.917191 23.131882
-4.503006 -7.892075 23.052109
-4.760910 -7.525772 23.045944
-4.755325 -7.551163 23.080490
-4.694168 -7.612595 23.212296
-4.784470 -7.629318 23.252670
-4.771255 -7.648239 23.316086
-4.753952 -7.689865 23.397934
-4.775345 -7.682449 23.443497
-4.534378 -7.685745 23.268784
-4.731461 -7.631119 23.261459
-4.737350 -7.634872 23.269547
-4.596695 -7.648087 23.251602
-4.737717 -7.666519 23.379135
-4.741379 -7.731033 23.489090
-4.730698 -7.697281 23.437546
-4.480423 -7.790146 23.245987
-4.453751 -7.817825 23.347580
-4.415085 -7.782730 23.320023
-4.423111 -7.752060 23.327560
-4.394333 -7.908615 23.455582
-4.359116 -7.893051 23.425705
-4.334183 -7.940048 23.490219
-4.342911 -7.960190 23.485001
-4.415726 -7.783401 23.389175
-4.355179 -7.869858 23.401169
-4.354019 -7.858231 23.480942
-4.470779 -7.724167 23.289536
-4.886703 -7.222275 23.048721
-4.890366 -7.196945 23.001663
-4.891953 -7.241837 23.064133
-4.548843 -7.483963 23.321945
-4.155899 -7.455856 23.178299
-4.487869 -7.307571 23.225693
-4.189163 -7.380875 23.482986
-4.239029 -7.350876 23.393600
-4.742538 -7.674301 23.579239
-4.901016 -7.844345 23.587418
-4.896622 -7.823502 23.564407
-4.793472 -7.813095 23.662857
-4.765854 -7.789230 23.632553
-4.731674 -7.769547 23.587967
-4.725784 -7.945541 23.697098
-4.763748 -7.740768 23.505447
-4.767441 -7.712082 23.509293
-4.759811 -7.741989 23.575089
-4.785202 -7.654861 23.594986
-4.773483 -7.708267 23.686478
-4.803329 -7.664932 23.743546
-4.745651 -7.721634 23.688797
-4.549973 -7.792496 23.944565
-4.530045 -7.803360 23.942886
-4.839584 -7.642258 23.817886
-4.871536 -7.622330 23.908524
-4.175888 -7.957321 23.665787
-4.292923 -7.983963 23.526138
-4.298752 -7.666763 23.867477
-4.152023 -7.549515 23.924973
-4.560928 -7.061539 23.679886
-4.757309 -7.318741 23.733475
-4.763229 -7.338333 23.747360
-4.555984 -7.085922 23.726974
-4.641129 -7.070602 23.706589
-4.757797 -7.363358 23.799515
-4.883591 -7.405899 23.946487
-4.873520 -7.388870 23.946487
-4.627182 -7.157822 23.845322
-4.634201 -7.114029 23.776138
-4.613571 -7.215225 23.961533
-4.085983 -7.202988 23.658463
-5.303970 -6.223831 23.550949
-5.150375 -6.506973 23.361954
-5.340012 -6.557114 23.482193
-5.375351 -6.511429 23.482742
-5.330978 -6.541550 23.485947
-5.619339 -6.118027 23.299057
-5.046097 -6.478836 23.167648
-5.035690 -6.463211 23.176682
-5.094009 -6.476028 23.233749
-5.090683 -6.457932 23.218521
-5.336990 -6.495255 23.478989
-5.313004 -6.482925 23.495346
-5.095078 -6.496689 23.259415
-5.134842 -6.477829 23.328384
-5.129929 -6.459091 23.316666
-5.180222 -6.491714 23.411026
-5.242752 -6.465439 23.420181
-5.210953 -6.464767 23.487534
-5.211258 -6.420761 23.451096
-5.681320 -6.575516 23.591110
-5.851730 -6.930191 23.691177
-5.890396 -6.633011 23.734451
-5.809769 -6.583298 23.666031
-5.817978 -6.597153 23.664200
-5.341080 -6.229721 23.578598
-5.290146 -6.481613 23.513016
-5.285049 -6.315598 23.635300
-5.197739 -6.487656 23.503830
-5.236954 -6.464523 23.500473
-5.204361 -6.444839 23.506332
-5.208176 -6.461899 23.519363
-5.231247 -6.353073 23.513504
-5.331741 -6.172897 23.617630
-5.314560 -6.161942 23.656784
-5.404587 -6.084427 23.718155
-5.366653 -6.119827 23.659866
-5.308273 -6.414108 23.812180
-5.415482 -6.422073 23.947769
-5.360367 -6.429153 23.900803
-4.695816 -6.185745 23.612808
-4.651566 -6.703995 23.017471
-4.716904 -6.752182 23.112503
-4.661819 -6.767258 23.209641
-4.712357 -6.779984 23.214828
-4.687820 -6.778854 23.208176
-4.685654 -6.668564 23.015182
-4.640976 -6.739670 23.117050
-4.692551 -6.749191 23.110336
-4.674881 -6.696213 23.080673
-4.629654 -6.740372 23.143570
-4.640732 -6.815872 23.332016
-4.555771 -6.906296 23.482315
-4.609085 -6.832138 23.408035
-4.222488 -6.595474 23.202805
-4.047867 -6.887711 23.091171
-4.267593 -6.566940 23.226089
-4.388351 -6.571426 23.241196
-4.294876 -6.537674 23.197678
-4.317337 -6.535995 23.230148
-4.280991 -6.551468 23.209335
-4.202255 -6.760483 23.451248
-4.278580 -6.608536 23.309250
-4.250839 -6.614609 23.317795
-4.101883 -6.603226 23.340042
-4.230301 -6.573563 23.298233
-4.228104 -6.542557 23.294815
-4.246628 -6.534714 23.305252
-4.212814 -6.555435 23.302383
-4.201706 -6.573959 23.331131
-4.166855 -6.574661 23.352524
-4.185471 -6.585007 23.332870
-4.202377 -6.550308 23.368729
-4.140823 -6.551498 23.371841
-4.124954 -6.562424 23.374222
-4.243210 -6.695328 23.435349
-4.248734 -6.646622 23.381454
-4.147110 -6.673813 23.495193
-4.178391 -6.537521 23.397079
-4.161484 -6.547287 23.394424
-4.168472 -6.575974 23.476730
-4.110275 -6.575241 23.383408
-4.065536 -6.540634 23.420242
-4.050980 -6.555313 23.434891
-4.027664 -6.583694 23.478531
-4.036942 -6.568558 23.446762
-4.681747 -6.235672 23.124588
-4.994614 -6.462479 23.086929
-4.622726 -6.360977 23.006119
-4.686417 -6.274277 23.033340
-4.662949 -6.343948 23.072189
-4.654160 -6.263443 23.141617
-4.656174 -6.303909 23.246109
-4.656784 -6.263443 23.196030
-4.663864 -6.281082 23.196671
-4.913193 -6.058823 23.233322
-4.658859 -6.237350 23.087906
-4.667892 -6.217209 23.248886
-4.670975 -6.257614 23.353287
-4.653152 -6.229721 23.252396
-4.688126 -6.212021 23.272903
-4.644485 -6.186081 23.327103
-4.635666 -6.230484 23.423691
-4.675247 -6.131790 23.449509
-4.691086 -6.121017 23.452744
-4.552994 -6.930222 23.521866
-4.552841 -6.997482 23.613449
-4.620071 -6.971695 23.594498
-4.592758 -6.867233 23.531235
-4.673935 -6.831375 23.749283
-4.651718 -6.838150 23.739426
-4.614578 -6.856491 23.660751
-4.004196 -6.561264 23.527420
-4.171432 -6.982529 23.534012
-4.195999 -6.983231 23.572281
-4.175400 -6.616318 23.608444
-4.139999 -6.586380 23.658279
-4.362015 -6.888992 23.780106
-4.325455 -6.927963 23.960129
-4.095261 -6.567947 23.759140
-4.106339 -6.542526 23.770065
-4.006546 -6.598679 23.984268
-4.533524 -6.073471 23.555984
-4.739029 -6.455856 23.649399
-4.582169 -6.111130 23.519699
-4.668777 -6.124130 23.504135
-4.695053 -6.063217 23.519821
-4.710892 -6.051041 23.520126
-4.665939 -6.119614 23.602585
-4.685837 -6.114182 23.626358
-4.706039 -6.107864 23.648758
-4.711197 -6.199875 23.797501
-4.680466 -6.151321 23.831131
-4.698227 -6.184830 23.818039
-4.672440 -6.096664 23.761154
-4.695023 -6.092972 23.751724
-4.690384 -6.087570 23.772629
-4.655106 -6.105423 23.750107
-4.715378 -6.056717 23.992020
-4.495743 -6.082535 23.599899
-4.306625 -6.365189 23.551193
-4.486313 -6.037582 23.674210
-4.458878 -6.064102 23.689896
-4.421555 -6.013351 23.697861
-4.398209 -6.030106 23.843521
-7.190414 -4.932785 22.233505
-7.771042 -5.009384 22.782730
-7.992844 -5.827835 22.232498
-7.720413 -5.998886 22.456223
-7.189499 -5.529099 22.039688
-7.281296 -5.609848 22.043869
-7.251694 -5.518967 22.012375
-7.566452 -5.235214 22.364120
-7.534897 -5.225388 22.489365
-7.185898 -5.242844 22.077988
-7.253677 -5.462479 22.056839
-7.270004 -5.445145 22.063278
-7.316635 -5.422867 22.121750
-7.298782 -5.437027 22.107468
-7.258072 -5.415421 22.075516
-7.268723 -5.390945 22.149246
-7.485550 -5.319717 22.148422
-7.399704 -5.319107 22.236771
-7.366348 -5.319382 22.229294
-7.241348 -5.481400 22.060654
-7.237106 -5.391098 22.078049
-7.165237 -5.255417 22.055038
-7.217636 -5.370041 22.082596
-7.203171 -5.338791 22.093369
-7.261917 -5.037033 22.206619
-7.216934 -5.211502 22.094711
-7.212784 -5.217880 22.092972
-7.203873 -5.177505 22.108597
-7.155289 -5.166977 22.065659
-7.155136 -5.181351 22.084366
-7.133347 -5.097122 22.079971
-7.241165 -5.095840 22.116623
-7.192398 -5.102188 22.063492
-7.246231 -5.132248 22.157547
-7.188339 -5.164108 22.128525
-7.206314 -5.149277 22.143478
-7.241470 -5.108353 22.136917
-7.242264 -5.120651 22.154800
-7.475266 -5.289536 22.297379
-7.465347 -5.281052 22.324478
-7.498978 -5.253220 22.411209
-7.485031 -5.247696 22.463394
-7.740463 -5.982162 22.518814
-7.786240 -5.951767 22.544022
-7.758865 -5.998337 22.525284
-7.770859 -5.036942 22.819229
-7.827988 -5.019333 22.914017
-7.137222 -5.374802 22.501511
-6.830978 -5.228470 22.991043
-6.847733 -5.952927 22.220932
-6.844681 -5.877213 22.218155
-6.895950 -5.906784 22.233688
-6.801163 -5.883377 22.413773
-6.791367 -5.873550 22.431351
-6.383499 -5.989365 22.371933
-6.562881 -5.141495 22.361984
-6.778976 -5.156937 22.430801
-6.942398 -5.039169 22.421432
-6.550461 -5.131821 22.398056
-6.538254 -5.106613 22.412674
-6.542221 -5.119766 22.414688
-6.017929 -5.258804 22.216019
-6.587814 -5.360733 22.885300
-6.805618 -5.343521 22.960495
-6.189194 -5.141312 22.907120
-6.362717 -5.385483 22.873642
-6.473465 -5.423752 22.867783
-6.400040 -5.372086 22.866257
-6.407059 -5.349564 22.841446
-6.260971 -5.418961 22.901962
-6.397720 -5.367599 22.928299
-6.499069 -5.372208 22.896133
-6.041580 -5.481064 22.824753
-6.181259 -5.430038 22.871170
-6.082230 -5.455215 22.867233
-6.096634 -5.460495 22.838211
-6.232651 -5.414413 22.895309
-6.210983 -5.383469 22.956589
-7.208389 -4.880692 22.484665
-7.216690 -4.890305 22.461319
-6.566879 -4.886490 22.530594
-6.594467 -4.737473 22.048386
-6.780533 -4.836563 22.099319
-6.818924 -4.811844 22.169083
-6.694321 -4.903610 22.025406
-6.651657 -4.806625 22.083389
-6.570419 -4.679733 22.087784
-6.279831 -4.869553 22.149368
-6.061081 -4.181808 22.202866
-6.427353 -4.688217 22.886459
-7.005417 -5.323074 23.557358
-7.519150 -5.653152 23.471085
-7.261490 -5.889420 23.067673
-7.398148 -5.798050 23.101700
-7.435898 -5.692642 23.361740
-7.057236 -5.359238 23.088272
-7.455704 -5.298508 23.006851
-7.302902 -5.666580 23.878708
-7.152267 -5.912155 23.893204
-7.249344 -5.838181 23.886185
-6.774307 -5.165817 23.415329
-6.874130 -5.590530 23.461624
-6.979172 -5.320724 23.371689
-6.838791 -5.364975 23.470261
-6.327835 -5.365250 23.061966
-6.343613 -5.351944 23.071579
-6.417099 -5.357956 23.056747
-6.457596 -5.371445 23.111008
-6.458572 -5.338730 23.110886
-6.429001 -5.396408 23.150009
-6.400070 -5.316513 23.128708
-6.424332 -5.310440 23.169876
-6.023758 -5.217941 23.289658
-6.082840 -5.213821 23.313034
-6.167496 -4.691818 23.566422
-6.288528 -4.910263 23.173050
-6.289444 -4.924393 23.185593
-6.059372 -4.780746 23.472092
-6.072952 -4.768295 23.481216
-6.109299 -4.699234 23.439621
-6.138992 -4.716324 23.574844
-6.001236 -4.946976 23.574478
-6.250351 -4.703964 23.644058
-6.193192 -4.982529 23.916061
-5.791519 -4.265274 22.579422
-5.552017 -5.446701 22.855362
-5.961472 -5.757584 22.220535
-5.113113 -5.548569 22.010422
-5.262985 -5.772385 22.036545
-5.305191 -5.756607 22.091385
-5.245438 -5.760849 22.077316
-5.299698 -5.740677 22.090073
-5.283035 -5.728439 22.127762
-5.328293 -5.730087 22.194138
-5.321457 -5.714310 22.197372
-5.308670 -5.701614 22.222794
-5.128494 -5.537247 22.016556
-5.208694 -5.519211 22.131393
-5.345535 -5.688156 22.299301
-5.390976 -5.688736 22.365891
-5.356491 -5.701431 22.280075
-5.336777 -5.672714 22.309250
-5.456528 -5.502792 22.297897
-5.375748 -5.605789 22.318710
-5.378677 -5.676041 22.390396
-5.412918 -5.663528 22.478775
-5.409470 -5.646347 22.469833
-5.399155 -5.632309 22.486832
-5.374313 -5.659103 22.384628
-5.337784 -5.620255 22.427017
-5.066299 -5.648422 22.401138
-5.245346 -5.199203 22.271408
-5.277603 -5.267746 22.281296
-5.283829 -5.283371 22.276108
-5.288620 -5.299362 22.276047
-5.259048 -5.218643 22.262650
-5.277023 -5.178299 22.295120
-5.292557 -5.125076 22.310165
-5.283005 -5.110916 22.329056
-5.324020 -5.065872 22.365921
-5.315048 -5.035049 22.368820
-5.304184 -5.043503 22.343155
-5.316574 -5.051010 22.377762
-5.118546 -5.223770 22.454453
-5.503250 -5.577896 22.735947
-5.760788 -5.552597 22.735214
-5.816147 -5.532211 22.747849
-5.514694 -5.590805 22.713242
-5.633713 -5.565079 22.729904
-5.572861 -5.569870 22.716385
-5.927048 -5.507950 22.794296
-5.989944 -5.500381 22.797104
-5.565475 -5.589828 22.765427
-5.537613 -5.548569 22.809464
-5.529922 -5.533981 22.817917
-5.521866 -5.518845 22.827286
-5.607559 -5.643631 22.916367
-5.440140 -5.634964 22.516800
-5.302933 -5.669632 22.645950
-5.463455 -5.592087 22.663742
-5.472794 -5.605881 22.649246
-5.485703 -5.566940 22.781509
-5.465500 -5.581558 22.755783
-5.480576 -5.531052 22.817581
-5.473160 -5.514999 22.830124
-5.436234 -5.514664 22.899033
-5.453842 -5.560715 22.880386
-5.441757 -5.546799 22.904556
-5.534927 -5.454269 22.852615
-5.983566 -5.486954 22.802048
-5.563492 -5.486984 22.874710
-5.554794 -5.473312 22.888290
-5.577133 -5.432114 22.882584
-5.587845 -5.337082 22.941452
-5.495163 -5.479263 22.827652
-4.788040 -5.190292 22.736404
-4.603378 -5.727768 22.065567
-4.617325 -5.757553 22.059586
-4.654922 -5.752884 22.019150
-4.594406 -5.693405 22.082596
-4.681747 -5.721603 22.023026
-4.737839 -5.710495 22.073746
-4.729263 -5.697800 22.173996
-4.746872 -5.730057 22.154373
-4.732590 -5.656265 22.138535
-4.706741 -5.664627 22.138443
-4.539566 -5.645889 22.173935
-4.629623 -5.580948 22.195419
-4.736893 -5.605881 22.231155
-4.746780 -5.557571 22.226913
-4.625198 -5.552902 22.248184
-4.750992 -5.556229 22.293655
-4.776474 -5.586807 22.317886
-4.758102 -5.510147 22.343552
-4.775620 -5.511337 22.447739
-4.748886 -5.652237 22.266434
-4.632980 -5.592209 22.273148
-4.734268 -5.505417 22.363449
-4.482407 -5.642105 22.224411
-4.428482 -5.598862 22.187943
-4.472916 -5.608627 22.240707
-4.480301 -5.605453 22.198105
-4.379623 -5.535965 22.216812
-4.439316 -5.581802 22.252731
-4.411087 -5.546341 22.303940
-4.358597 -5.532761 22.434311
-4.357437 -5.561386 22.377609
-4.328384 -5.510269 22.498459
-4.516129 -5.451187 22.279800
-4.773453 -5.474167 22.419724
-4.772476 -5.493362 22.440536
-4.523392 -5.413101 22.326614
-4.529526 -5.430252 22.322983
-4.521103 -5.393448 22.316910
-4.510117 -5.378830 22.337173
-4.723862 -5.447678 22.421555
-4.744949 -5.472366 22.405624
-4.366104 -5.107254 22.362442
-4.495834 -5.363480 22.366623
-4.458084 -5.306686 22.361496
-4.366409 -5.087570 22.347885
-4.392868 -5.111252 22.346786
-4.357224 -5.069931 22.362900
-4.356400 -5.051285 22.352585
-4.348648 -5.013260 22.350143
-4.344955 -5.031052 22.359818
-4.424088 -5.233109 22.379929
-4.457199 -5.239243 22.382675
-4.448288 -5.222000 22.396042
-4.448074 -5.146561 22.435013
-4.414719 -5.128738 22.401474
-4.368179 -5.164139 22.396622
-4.470383 -5.650711 22.876205
-4.286942 -5.882523 22.880875
-4.780014 -5.174667 22.748825
-4.771622 -5.398911 22.558121
-4.790909 -5.468857 22.562973
-4.785172 -5.451065 22.563980
-4.775436 -5.435135 22.579269
-4.896835 -5.450790 22.666519
-4.903671 -5.461899 22.718826
-4.728775 -5.351151 22.582260
-4.800095 -5.314865 22.805191
-4.769485 -5.298172 22.805710
-4.788651 -5.263229 22.796097
-4.803268 -5.297012 22.779556
-4.798660 -5.279709 22.778885
-4.849380 -5.265671 22.815292
-4.748886 -5.265305 22.770889
-4.782669 -5.246780 22.800766
-4.898178 -5.233231 22.842087
-4.953964 -5.217941 22.861740
-4.780258 -5.229385 22.793716
-4.773514 -5.233017 22.773209
-4.777267 -5.210068 22.764450
-4.786514 -5.168076 22.763382
-4.771072 -5.158066 22.763321
-4.809097 -5.073685 22.783676
-4.835281 -5.107315 22.764816
-4.826401 -5.106766 22.754868
-4.804459 -5.111282 22.760178
-4.847183 -5.027542 22.778732
-4.805954 -5.038681 22.766342
-4.808334 -5.056564 22.772568
-4.793015 -5.051010 22.770340
-4.801651 -5.021927 22.767197
-4.807663 -5.222000 22.909775
-4.800735 -5.205185 22.917557
-4.791794 -5.189346 22.932602
-4.772934 -5.176559 22.981857
-4.741653 -5.054245 22.774429
-4.080551 -5.234573 22.707809
-4.288925 -5.440750 22.647049
-4.284103 -5.422165 22.646103
-4.259628 -5.408432 22.706192
-4.219803 -5.419327 22.636765
-4.205612 -5.383804 22.649887
-4.186813 -5.355820 22.680069
-4.196976 -5.365799 22.660904
-4.156631 -5.339096 22.669968
-4.081345 -5.253555 22.718979
-4.089951 -5.272354 22.707687
-4.028214 -5.094986 22.747940
-4.240372 -5.393936 22.750595
-4.178543 -5.349106 22.783340
-4.181351 -5.351151 22.907394
-4.159897 -5.335312 22.989212
-5.628098 -4.230057 22.903305
-5.839066 -4.826645 22.281540
-5.783157 -4.802139 22.302689
-5.328873 -4.711746 22.279190
-5.315903 -4.957504 22.362808
-5.368362 -4.886246 22.496078
-5.370712 -4.894455 22.493149
-5.201797 -4.933578 22.446854
-5.312332 -4.632431 22.280594
-5.394547 -4.570053 22.403549
-5.981033 -4.148544 22.022110
-5.591599 -4.390335 22.181992
-5.421951 -4.234329 22.231308
-5.320816 -4.398270 22.111526
-5.395279 -4.257065 22.208878
-5.061752 -4.308090 22.097794
-5.257736 -4.479599 22.321213
-5.256638 -4.153366 22.411179
-5.510910 -4.593338 22.666061
-5.778976 -4.513168 22.878586
-5.522293 -4.549789 22.792191
-5.613724 -4.511490 22.846848
-5.597641 -4.645462 22.922775
-5.445541 -4.703140 22.526840
-5.370041 -4.902145 22.503494
-5.393204 -4.814133 22.572983
-5.398849 -4.828964 22.565140
-5.427719 -4.756332 22.630295
-5.444809 -4.687180 22.517441
-5.469009 -4.637100 22.567398
-5.416519 -4.725937 22.646347
-5.446915 -4.646347 22.739334
-5.440994 -4.613358 22.648758
-5.488937 -4.614609 22.760696
-5.479843 -4.583389 22.771255
-5.480637 -4.577255 22.842300
-5.496262 -4.524826 22.907547
-5.457840 -4.503708 22.875992
-5.677658 -4.164505 22.916946
-5.757492 -4.498642 22.860519
-5.544998 -4.469986 22.855240
-5.512161 -4.499374 22.837662
-5.569107 -4.385452 22.824051
-5.557053 -4.428604 22.840164
-5.502029 -4.320023 22.808487
-5.594223 -4.346878 22.894028
-5.605209 -4.333420 22.895462
-5.757401 -4.164078 22.896957
-5.642776 -4.095901 22.939804
-5.653824 -4.082809 22.943924
-5.728378 -4.107620 22.981552
-5.735214 -4.122635 22.962296
-5.348679 -4.351364 22.894119
-4.824234 -4.237991 22.981277
-4.390640 -4.872849 22.171066
-4.344742 -4.995346 22.349930
-4.339890 -4.977646 22.352829
-4.332260 -4.940048 22.351456
-4.332047 -4.959579 22.364456
-4.325241 -4.922806 22.361435
-4.317490 -4.905441 22.373703
-4.309067 -4.887436 22.387680
-4.294022 -4.877579 22.386551
-4.301468 -4.851974 22.388992
-4.305191 -4.869492 22.388351
-4.301529 -4.855026 22.398331
-4.291061 -4.814682 22.398056
-4.294479 -4.833206 22.398666
-4.268906 -4.824539 22.402298
-4.277084 -4.798386 22.430374
-4.268326 -4.761124 22.435410
-4.275223 -4.779282 22.425064
-4.280472 -4.764969 22.425797
-4.310928 -4.817856 22.498917
-4.001175 -4.573685 22.365982
-4.066299 -4.548447 22.487503
-4.837418 -4.439713 22.013809
-4.986862 -4.438004 22.412613
-4.999771 -4.452194 22.376999
-4.632980 -4.237473 22.470291
-4.008591 -4.115463 22.049881
-4.064896 -4.043839 22.064590
-4.446426 -4.407364 22.406021
-4.136368 -4.327225 22.251419
-4.758957 -4.595657 22.850937
-4.810654 -4.917587 22.804764
-4.826981 -4.906540 22.810013
-4.821060 -4.890305 22.817581
-4.808365 -4.857071 22.835159
-4.813644 -4.874374 22.830215
-4.804459 -4.836441 22.840256
-4.848923 -4.795151 22.872482
-4.845047 -4.777695 22.873550
-4.835800 -4.762192 22.893387
-4.823380 -4.728989 22.912460
-4.816147 -4.694992 22.914474
-4.830460 -4.746292 22.900467
-4.822372 -4.711380 22.904434
-4.809341 -4.678238 22.926285
-4.802567 -4.661484 22.938248
-4.803299 -4.620193 22.959335
-4.815109 -4.586594 22.992874
-4.091904 -4.572739 22.512772
-4.386551 -4.808151 22.633438
-4.440750 -4.763779 22.725571
-4.847763 -4.215500 22.988907
-4.737869 -4.422531 22.972580
-4.245529 -4.125534 22.720657
-4.113358 -4.401474 22.726578
-4.138992 -4.456955 22.672836
-4.246628 -4.488449 22.665665
-4.123978 -4.419327 22.702103
-5.973068 -5.015427 23.500900
-5.615982 -5.693619 23.181870
-5.761734 -5.825790 23.098221
-5.760361 -5.809006 23.079208
-5.992905 -5.812881 23.232315
-5.707260 -5.795334 23.008316
-5.700119 -5.781021 23.012985
-5.964828 -5.962448 23.340469
-5.710831 -5.759201 23.415421
-5.705215 -5.779007 23.462143
-5.878525 -5.526047 23.476639
-5.662674 -5.726425 23.299576
-5.657730 -5.711014 23.295883
-5.663010 -5.743240 23.320969
-5.485001 -5.575851 23.005600
-5.245132 -5.687851 23.271347
-5.777664 -5.217636 23.215195
-5.705429 -5.306015 23.097366
-5.893845 -5.228745 23.290329
-5.534225 -5.092789 23.481705
-5.074509 -5.132370 23.040390
-5.411240 -5.452011 23.124588
-5.009445 -5.114914 23.241470
-5.466812 -5.297531 23.458755
-5.496658 -5.168930 23.454422
-5.487961 -5.138351 23.454056
-5.490097 -5.154282 23.462723
-5.751053 -5.812881 23.592026
-5.799606 -5.774857 23.611801
-5.783432 -5.833298 23.752945
-5.820602 -5.835678 23.873886
-5.911270 -5.797562 23.998367
-5.535324 -5.991959 23.861557
-5.176834 -5.584122 23.602890
-5.337875 -5.637070 23.587418
-5.478012 -5.906326 23.934067
-5.422348 -5.966629 23.964951
-5.438217 -5.548172 23.846603
-5.923019 -5.187943 23.636093
-5.652756 -5.207047 23.910110
-5.462418 -5.264877 23.677872
-5.479202 -5.276749 23.631058
-5.046921 -5.482773 23.924271
-5.465347 -5.074631 23.888199
-5.054916 -5.010513 23.846146
-4.955521 -5.063034 23.520401
-4.805222 -5.130966 23.053207
-4.751907 -5.186325 23.014175
-4.813065 -5.147293 23.041428
-4.952255 -5.129807 23.223068
-4.807541 -5.074173 23.214371
-4.767929 -5.091995 23.256943
-4.791519 -5.060745 23.255692
-4.922684 -5.236038 23.432480
-4.856674 -5.008896 23.439041
-4.076462 -5.128128 23.077896
-4.179672 -5.290726 23.045029
-4.142899 -5.273178 23.037186
-4.226486 -5.258377 23.081589
-4.127670 -5.261978 23.130966
-4.302658 -5.220200 23.087570
-4.320694 -5.215347 23.114059
-4.089127 -5.152725 23.413803
-4.101486 -5.170090 23.389114
-4.095383 -5.189682 23.493484
-4.625931 -5.879898 23.546799
-4.827347 -5.838211 23.670944
-4.839340 -5.853287 23.650558
-4.768234 -5.992813 23.872269
-4.815475 -5.979538 23.870224
-4.851486 -5.945572 23.939865
-4.846664 -5.880173 23.983292
-4.825668 -5.884415 23.951645
-4.797195 -5.909653 23.956497
-4.811417 -5.896072 23.951614
-4.744308 -5.996964 23.858932
-4.901688 -5.675674 23.758133
-4.940720 -5.550644 23.823929
-4.303360 -5.948074 23.998642
-4.360550 -5.986038 23.957993
-4.845810 -5.211929 23.645126
-4.953720 -5.459793 23.889023
-4.622665 -5.139450 23.866867
-4.715652 -5.041794 23.781693
-4.715225 -5.066483 23.842850
-4.740524 -5.042282 23.841507
-4.681961 -5.024918 23.835526
-4.682053 -5.030838 23.899277
-4.045486 -5.164261 23.523361
-4.054703 -5.208328 23.614792
-4.008316 -5.066696 23.577652
-5.717514 -4.475723 23.746719
-5.717697 -4.913895 23.361435
-5.969101 -4.985275 23.482956
-5.964706 -4.972458 23.486038
-5.715317 -4.882309 23.340164
-5.721298 -4.864731 23.301132
-5.627365 -4.794510 23.267990
-5.689590 -4.873459 23.374649
-5.709213 -4.899979 23.379837
-5.706406 -4.861862 23.391037
-5.677017 -4.789597 23.377121
-5.306442 -4.617233 23.186691
-5.316360 -4.598770 23.138596
-5.628586 -4.106705 23.131699
-5.493607 -4.313431 23.188614
-5.488144 -4.290695 23.256577
-5.677719 -4.694534 23.530746
-5.996902 -4.932266 23.575638
-5.991531 -4.918655 23.582138
-5.873825 -4.805313 23.678970
-5.687302 -4.605728 23.599930
-5.722153 -4.597855 23.565750
-5.718552 -4.583633 23.568466
-5.505295 -4.985733 23.973587
-5.012985 -4.971512 23.558670
-5.171494 -4.962662 23.500992
-5.095139 -4.709885 23.769119
-5.092087 -4.694199 23.768814
-5.010086 -4.400406 23.641068
-5.040665 -4.311478 23.720261
-4.975845 -4.438095 23.632889
-4.562790 -4.546066 23.051315
-4.846115 -4.609573 23.007645
-4.801041 -4.553085 23.005325
-4.829910 -4.511215 23.046036
-4.822128 -4.541916 23.004410
-4.843521 -4.921158 23.415054
-4.902847 -4.997879 23.499496
-4.835251 -4.978104 23.485947
-4.839615 -4.940994 23.443039
-4.826218 -4.906845 23.461777
-4.811783 -4.892502 23.499283
-4.540756 -4.953079 23.367233
-4.630112 -4.988876 23.291000
-4.632797 -4.968765 23.267776
-4.028458 -4.670639 23.194473
-4.207138 -4.683121 23.203629
-4.018295 -4.611832 23.237259
-4.008194 -4.622757 23.243454
-4.335007 -4.786942 23.343460
-4.045120 -4.617905 23.321701
-4.830460 -4.158981 23.035660
-4.792801 -4.471237 23.071030
-4.780228 -4.417038 23.069382
-4.954422 -4.374161 23.138474
-4.824783 -4.358932 23.130783
-4.821060 -4.257248 23.243362
-4.710434 -4.440842 23.122116
-4.698135 -4.429825 23.109573
-4.645584 -4.402390 23.129562
-4.602798 -4.385666 23.164291
-4.606094 -4.364975 23.159164
-4.584366 -4.356918 23.167648
-4.610306 -4.316360 23.175400
-4.816971 -4.166397 23.016190
-4.834274 -4.140915 23.230392
-4.838120 -4.250198 23.272873
-4.524521 -4.308762 23.259903
-4.820206 -4.190933 23.310837
-4.830582 -4.178146 23.308823
-4.763565 -4.058853 23.298416
-4.846695 -4.026169 23.456833
-4.495682 -4.303421 23.168533
-4.721329 -4.749283 23.701096
-4.781265 -4.961441 23.515762
-4.962326 -4.983658 23.513351
-4.915543 -4.886917 23.595749
-4.820755 -4.962936 23.522354
-4.851242 -4.906601 23.548660
-4.833084 -4.913162 23.521011
-4.755692 -4.906723 23.539810
-4.799545 -4.854294 23.516464
-4.789047 -4.868393 23.525589
-4.819748 -4.754654 23.543869
-4.842270 -4.778397 23.539322
-4.835159 -4.762436 23.552292
-4.808884 -4.766617 23.546249
-4.828323 -4.817307 23.613449
-4.761185 -4.831406 23.623947
-4.775711 -4.845963 23.585831
-4.837509 -4.797684 23.568710
-4.754990 -4.814835 23.632980
-4.736740 -4.862686 23.606888
-4.711014 -4.813217 23.644821
-4.737381 -4.782303 23.669540
-4.740585 -4.799301 23.670395
-4.731430 -4.768326 23.685654
-4.728134 -4.766953 23.690140
-4.829666 -4.727921 23.547592
-4.830490 -4.746445 23.557205
-4.826492 -4.710709 23.546951
-4.869217 -4.667068 23.599197
-4.868546 -4.649307 23.590042
-4.862869 -4.633377 23.599380
-4.882706 -4.612106 23.518387
-4.912613 -4.676407 23.684647
-4.889694 -4.522598 23.668228
-4.899704 -4.539047 23.643234
-4.864578 -4.564316 23.643967
-4.716141 -4.732224 23.707260
-4.762894 -4.967270 23.931625
-4.602676 -4.994736 23.844986
-4.544540 -4.761398 23.786880
-4.529739 -4.968613 23.983139
-4.798630 -4.502457 23.780014
-4.726425 -4.716660 23.762955
-4.720413 -4.641678 23.861435
-4.731766 -4.657578 23.832932
-4.710831 -4.660049 23.823746
-4.720413 -4.623672 23.850571
-4.676346 -4.588913 23.911057
-4.148849 -4.979385 23.734848
-4.171585 -4.915970 23.834793
-4.150406 -4.845901 23.920639
-4.150406 -4.798080 23.879044
-4.115891 -4.727646 23.902634
-4.109695 -4.691635 23.938187
-4.071701 -4.558853 23.957169
-4.997849 -4.385178 23.676132
-4.764450 -4.470383 23.843521
-4.217270 -4.018173 23.559830
-5.708420 -8.593674 24.706802
-7.006241 -8.401627 24.309097
-6.073471 -9.244919 24.232895
-6.013748 -9.253799 24.017746
-6.114029 -9.419449 24.223953
-6.095810 -9.360580 24.154800
-6.058945 -9.257645 24.255753
-7.076370 -8.894821 24.038071
-6.941544 -8.431503 24.356125
-6.112076 -8.519852 24.429825
-6.072708 -8.900406 24.411850
-6.086929 -8.527847 24.382401
-6.136276 -8.517014 24.462296
-6.066452 -8.518417 24.387680
-6.362473 -8.130600 24.042007
-6.254044 -8.160294 24.108871
-6.375748 -8.103958 24.012222
-6.293167 -8.167648 24.178482
-6.191025 -8.218582 25.196152
-5.656998 -8.564041 24.754318
-5.931564 -9.127335 24.006668
-5.509811 -9.800156 24.072098
-5.461502 -9.725479 24.031509
-5.955948 -9.114609 24.012497
-5.378708 -9.002243 24.230362
-4.047256 -9.588882 24.672562
-4.031662 -9.230789 24.118546
-4.051804 -9.218521 24.167801
-5.764725 -8.675034 24.943436
-5.820480 -8.530685 24.049088
-5.505447 -8.806961 24.019852
-5.869583 -8.510483 24.074936
-5.845261 -8.523270 24.067398
-5.267593 -8.666946 24.117874
-5.382797 -8.905411 24.160873
-5.474930 -8.936539 24.143295
-5.478928 -8.914658 24.199265
-5.442184 -8.854874 24.203690
-5.930222 -8.474594 24.340073
-5.922256 -8.456619 24.320877
-5.065414 -8.278488 24.129990
-5.068130 -8.329330 24.421310
-5.153030 -8.342026 24.449142
-5.062881 -8.307388 24.394333
-5.851303 -8.930099 24.860641
-5.227798 -8.520309 24.603500
-4.769669 -8.216110 24.644913
-4.690903 -8.528641 24.036606
-4.533768 -8.146835 24.233749
-4.990707 -8.413712 24.140213
-4.848129 -8.154343 24.233261
-4.606400 -8.061783 24.187302
-4.586716 -8.095352 24.202499
-4.975784 -8.450729 24.445175
-4.986221 -8.298355 24.381485
-4.849869 -8.178360 24.269943
-4.909134 -8.162949 24.305008
-4.503098 -8.200302 24.270615
-4.467087 -8.112747 24.206070
-4.452896 -8.251083 24.306595
-4.375168 -8.270676 24.345383
-4.311325 -8.379227 24.485886
-4.384506 -8.285782 24.380295
-4.282272 -8.358078 24.446243
-4.970016 -8.530136 24.526260
-4.513504 -8.125900 24.794998
-4.845535 -8.105637 24.781784
-4.913406 -8.108566 24.831161
-4.732620 -8.147720 24.979019
-4.468918 -8.219498 24.907089
-4.447678 -8.260696 24.996445
-5.244034 -9.043411 25.034195
-4.722672 -8.218491 25.067886
-4.692642 -8.109695 25.171371
-4.696945 -8.394882 25.213272
-4.753983 -8.001572 25.272903
-4.836227 -8.048721 25.301193
-4.656723 -8.069382 25.298325
-5.144791 -6.236496 24.535660
-7.633865 -6.481277 24.355728
-7.260818 -7.807480 24.302689
-6.558334 -7.249466 24.136093
-6.994217 -7.514603 24.412094
-6.003433 -7.511032 24.215988
-6.066238 -7.911087 24.005600
-6.228500 -7.521530 24.488327
-6.599777 -7.238266 24.237015
-6.503769 -7.477951 24.081253
-6.505936 -7.289474 24.136124
-6.637100 -7.229568 24.358658
-6.497543 -7.461502 24.061356
-6.342117 -7.476425 24.193344
-6.280502 -7.352646 24.200821
-7.228409 -6.099411 24.055557
-7.073410 -6.602493 24.016159
-7.133987 -6.623886 24.162338
-6.122330 -6.060379 24.994736
-6.183914 -6.030563 24.990982
-6.167130 -6.021072 25.036880
-6.108047 -6.135818 25.184647
-5.070908 -6.387253 24.512466
-5.578506 -7.069260 24.812088
-5.603958 -7.663101 24.085220
-5.085739 -7.699203 24.320694
-5.307816 -7.952957 24.413528
-5.316513 -7.970627 24.423935
-5.299057 -7.935135 24.387039
-5.189316 -7.899155 24.335526
-5.003250 -7.471451 24.155472
-4.687302 -7.220078 24.615891
-4.733566 -7.941360 24.052719
-4.786545 -7.895859 24.157669
-4.896652 -7.877701 24.243301
-4.840530 -7.884323 24.209427
-4.591019 -7.527023 24.382309
-4.252518 -7.675064 24.011826
-4.335037 -7.697769 24.205856
-4.399673 -7.547043 24.185287
-4.412735 -7.624435 24.239914
-4.488235 -7.554276 24.234940
-4.435806 -7.508408 24.242233
-4.412399 -7.511276 24.216080
-4.394547 -7.526321 24.227097
-4.352890 -7.597153 24.175095
-4.283005 -7.909561 24.396072
-4.056076 -7.871872 24.309555
-4.460434 -7.706467 24.473221
-4.495377 -7.652542 24.478317
-4.910324 -7.139511 24.140823
-4.843460 -7.384140 24.018967
-4.606247 -7.264664 24.053146
-4.598801 -7.335281 24.122818
-4.600052 -7.292130 24.109909
-4.505417 -7.454391 24.177780
-4.594864 -7.318222 24.162125
-4.622574 -7.332657 24.139755
-4.569504 -7.306778 24.183334
-4.585953 -7.345627 24.226395
-4.163834 -7.055588 24.119553
-4.452744 -7.494553 24.233109
-4.445023 -7.496964 24.199142
-4.467117 -7.477524 24.212875
-4.019302 -7.245316 24.139847
-4.063736 -7.174728 24.133224
-4.083664 -7.204117 24.255875
-4.096298 -7.197678 24.438583
-4.886490 -7.567001 24.844467
-4.683670 -7.839951 24.798172
-4.424149 -7.867935 24.620529
-4.417130 -7.831802 24.568283
-4.417862 -7.906693 24.664810
-4.339676 -7.567093 24.870682
-4.722397 -7.226944 24.777176
-4.056839 -7.217667 24.505661
-4.437607 -7.450638 24.525833
-4.395126 -7.434921 24.611160
-4.371933 -7.445847 24.716415
-4.037857 -7.238602 24.574203
-4.015152 -7.238693 24.568192
-4.006027 -7.187027 24.605301
-4.388596 -7.474503 24.842148
-5.045334 -6.025589 24.811386
-5.598984 -6.658096 24.462662
-5.609695 -6.672958 24.454269
-5.346481 -6.654800 24.109390
-5.464584 -6.586105 24.411880
-5.509171 -6.472122 24.199326
-5.557877 -6.313095 24.266617
-5.758438 -6.240524 24.282242
-5.776718 -6.176163 24.468643
-5.391312 -6.414169 24.011917
-5.387955 -6.474838 24.115738
-5.429916 -6.395523 24.094894
-5.383163 -6.495590 24.163071
-5.454117 -6.479782 24.149521
-5.477402 -6.372513 24.143692
-5.774490 -6.873093 24.805252
-5.801285 -6.869003 24.833298
-5.839432 -6.827682 24.960373
-5.451187 -6.592758 24.531143
-5.050400 -6.043045 24.817856
-4.723282 -6.214890 24.667953
-4.861160 -6.682602 24.106064
-4.704300 -6.854721 24.035141
-4.703659 -6.832932 24.006363
-4.734146 -6.861801 24.174759
-4.771103 -6.908768 24.354355
-4.773483 -6.885208 24.313278
-4.849319 -6.880356 24.355392
-4.818619 -6.905350 24.433060
-4.823685 -6.881821 24.383957
-4.943680 -6.840866 24.419785
-4.101456 -6.627609 24.057938
-4.313522 -6.939590 24.032242
-4.333298 -6.856064 24.053146
-4.317368 -6.868576 24.059311
-4.119370 -6.588211 24.053696
-4.055283 -6.623184 24.082077
-4.112350 -6.582291 24.166855
-4.040237 -6.607895 24.309982
-4.096420 -6.568893 24.263962
-4.045273 -6.559097 24.446854
-4.086838 -6.537796 24.479202
-4.070419 -6.548538 24.480576
-4.724472 -6.037888 24.129501
-4.793869 -6.066513 24.264664
-4.902878 -6.070969 24.348312
-4.914383 -6.054001 24.329727
-4.868088 -6.090652 24.328232
-4.758377 -6.060440 24.367905
-4.940933 -6.226364 24.465561
-4.779129 -6.132004 24.391006
-4.822464 -6.055313 24.388779
-4.813095 -6.039200 24.398422
-4.730057 -6.045029 24.369980
-4.487564 -6.290665 24.139145
-4.492661 -6.309067 24.146164
-4.819626 -6.625534 24.706802
-4.063095 -6.574936 24.539536
-4.102188 -6.581314 24.578110
-4.125046 -6.604599 24.525345
-4.092209 -6.720169 24.719131
-4.053024 -6.566696 24.980850
-4.068619 -6.573624 24.978043
-4.733597 -6.334000 24.789627
-4.642319 -6.290237 24.783432
-4.712448 -6.279312 24.772842
-4.065872 -6.326828 24.742783
-5.440414 -7.244888 25.675430
-5.035721 -7.074814 25.010361
-4.912857 -7.044205 25.711868
-4.771225 -7.986496 25.067368
-4.305191 -7.741196 25.094131
-4.296280 -7.807602 25.111130
-4.288406 -7.866562 25.150192
-4.211716 -7.932999 25.237686
-4.209732 -7.907608 25.203842
-4.924118 -7.359024 25.299057
-4.409348 -7.174484 25.182602
-4.293167 -7.482773 25.194412
-4.445236 -7.151535 25.180618
-4.429276 -7.167465 25.195999
-4.446030 -7.166489 25.203629
-4.466202 -7.144638 25.196304
-4.434738 -7.359238 25.297989
-4.399338 -7.356216 25.390182
-4.436020 -7.126450 25.397537
-5.989975 -6.284714 25.609543
-5.967758 -6.162674 25.317398
-5.989304 -6.184372 25.467331
-5.221115 -6.087936 25.051498
-5.980026 -6.320358 25.709549
-4.830734 -6.052231 25.551987
-4.029495 -6.555557 25.003738
-4.078384 -6.558121 25.008804
-4.659622 -6.345627 25.267288
-4.812820 -6.471420 25.279770
-4.046646 -6.886795 25.933670
-4.788223 -6.129715 25.842575
-4.068008 -6.192429 25.523758
-6.160385 -4.508255 24.696609
-6.582321 -5.293381 24.145828
-6.310471 -5.021744 24.037003
-6.511856 -4.877335 24.329605
-6.554184 -4.989182 24.407578
-6.081314 -4.652847 24.099625
-6.063126 -4.663742 24.075027
-6.125595 -4.540176 24.208206
-5.591507 -4.769241 24.744553
-5.113297 -5.419022 24.551651
-5.709152 -5.882584 24.084915
-5.626938 -5.917160 24.172287
-5.027634 -5.598343 24.349747
-5.635605 -5.245346 24.017075
-5.174728 -5.175888 24.120316
-5.020462 -5.472397 24.001846
-5.049118 -5.390610 24.053909
-5.097305 -5.339340 24.073196
-5.091232 -5.323227 24.077652
-5.116714 -5.225784 24.130966
-5.164230 -5.160568 24.142380
-5.123001 -5.242416 24.125473
-5.123154 -5.102341 24.231796
-5.288010 -5.299911 24.335709
-5.032913 -5.461594 24.434494
-5.313339 -5.240494 24.431076
-5.292618 -5.526932 24.828262
-5.068710 -5.789749 24.921738
-5.080063 -5.376968 24.558334
-5.104416 -5.112289 24.887131
-4.849289 -5.158005 24.619492
-4.855545 -5.796921 24.055801
-4.904129 -5.754105 24.230576
-4.920456 -5.767380 24.192825
-4.929855 -5.646072 24.267838
-4.918625 -5.672043 24.322891
-4.965591 -5.620590 24.288193
-4.911667 -5.581985 24.320175
-4.880722 -5.507278 24.348801
-4.994797 -5.539444 24.382462
-4.240768 -5.902420 24.014328
-4.280106 -5.915482 24.021927
-4.265884 -5.933701 24.099472
-4.280624 -5.930588 24.137070
-4.256027 -5.918808 24.198074
-4.231613 -5.927139 24.066147
-4.245834 -5.850662 24.158798
-4.162155 -5.811447 24.170639
-4.212296 -5.824692 24.224350
-4.220596 -5.862656 24.202835
-4.235367 -5.853622 24.207230
-4.223038 -5.908493 24.285721
-4.194992 -5.827103 24.278427
-4.225693 -5.867569 24.346878
-4.196640 -5.812546 24.323624
-4.162613 -5.803848 24.359299
-4.168411 -5.820206 24.432541
-4.187515 -5.826614 24.376266
-4.064529 -5.705399 24.360580
-4.952621 -5.060074 24.164658
-4.862808 -5.428024 24.483841
-4.889420 -5.495316 24.463852
-4.765182 -5.277542 24.495163
-4.536545 -5.019211 24.421066
-4.570633 -5.843643 24.531723
-4.967728 -5.864304 24.622025
-4.913986 -5.942215 24.655380
-4.951584 -5.889267 24.705582
-4.991348 -5.836288 24.749588
-4.943863 -5.910904 24.757553
-4.978104 -5.879349 24.846573
-4.971451 -5.862961 24.848465
-4.111374 -5.622208 24.687698
-4.054428 -5.878738 24.601181
-4.144363 -5.868240 24.502121
-4.107864 -5.846024 24.509445
-4.069412 -5.864975 24.612564
-4.036697 -5.916458 24.673752
-4.007828 -5.874161 24.729233
-4.837845 -5.172440 24.628830
-4.874985 -5.294052 24.548996
-4.846725 -5.103287 24.708633
-4.381577 -5.425522 24.718735
-4.427353 -5.479507 24.793991
-4.419418 -5.462387 24.803482
-5.539200 -4.866074 24.257156
-5.585434 -4.818954 24.281601
-5.581863 -4.835526 24.310562
-4.953690 -4.418350 24.224869
-4.607956 -4.545761 24.097061
-4.946854 -4.979782 24.180679
-4.625412 -4.969986 24.064804
-4.662277 -4.961685 24.139664
-4.654434 -4.829819 24.240128
-4.764633 -4.509109 24.092789
-4.704758 -4.806747 24.252945
-4.695938 -4.790817 24.271988
-4.618118 -4.883987 24.407120
-4.591843 -4.866165 24.489822
-4.667587 -4.698685 24.411240
-4.686081 -4.693344 24.445358
-4.700760 -4.683548 24.458084
-4.239792 -4.921951 24.054703
-4.903976 -4.416824 24.263168
-4.833542 -4.321793 24.465286
-5.390854 -5.452103 25.353287
-5.161880 -5.718094 25.013321
-5.192551 -5.671158 25.101974
-5.350479 -5.543747 25.423996
-4.897842 -5.648758 25.516159
-4.289749 -5.683029 25.196274
-4.339005 -5.996902 25.028976
-4.590469 -5.109848 25.068497
-4.020340 -5.462875 25.095383
-4.194778 -5.417587 25.005692
-4.023239 -5.421097 25.144852
-4.125259 -5.494492 25.371872
-1.905106 -6.193344 22.794632
-3.593094 -10.198837 22.556870
-3.285446 -10.047897 20.708725
-3.020370 -10.157791 20.966385
-3.992691 -10.134506 20.249619
-3.953506 -10.129349 20.204788
-3.241470 -10.026321 20.972183
-3.748428 -10.166489 21.573380
-3.534592 -10.050400 21.489395
-3.946915 -10.378708 21.342850
-3.896378 -10.353531 21.374649
-3.954819 -10.341660 21.329208
-3.913712 -10.402176 21.428970
-3.823318 -10.356766 21.395432
-3.776047 -10.255386 21.418625
-3.683456 -10.368393 21.448715
-3.733261 -10.366348 21.440567
-3.844406 -10.079605 21.419205
-3.827988 -10.075821 21.425919
-3.839645 -10.057663 21.392899
-3.767960 -10.016708 21.430710
-3.804672 -10.094772 21.443436
-3.806503 -10.123672 21.463150
-3.799637 -10.088089 21.439377
-3.792465 -10.064743 21.456680
-3.753220 -10.038406 21.448532
-3.803177 -10.019150 21.447678
-3.513321 -10.008682 21.498428
