-0.391159 -7.477310 -1.783707
-0.434860 -7.468033 -1.805313
-0.428696 -7.454483 -1.789108
-0.428696 -7.460098 -1.791428
-0.410355 -7.447647 -1.792038
-0.380203 -7.465927 -1.784531
-0.424179 -7.455643 -1.776321
-0.396835 -7.444595 -1.769455
-0.453934 -7.428726 -1.811752
-0.481339 -7.424271 -1.805557
-0.488510 -7.423416 -1.797714
-0.475845 -7.425797 -1.791580
-0.475571 -7.432297 -1.788284
-0.486069 -7.406754 -1.790939
-0.443619 -7.409439 -1.795639
-0.464890 -7.407822 -1.793320
-0.470566 -7.395248 -1.788895
-0.494400 -7.393661 -1.791519
-0.483566 -7.403580 -1.787247
-0.457779 -7.378342 -1.781418
-0.489883 -7.376602 -1.778122
-0.441940 -7.395523 -1.780563
-0.379532 -7.434952 -1.783981
-0.414383 -7.437057 -1.782333
-0.433609 -7.421524 -1.795395
-0.427780 -7.421036 -1.785172
-0.420212 -7.408218 -1.782303
-0.428848 -7.394730 -1.782883
-0.428116 -7.403641 -1.783005
-0.435562 -7.378494 -1.783981
-0.425705 -7.386490 -1.781387
-0.426437 -7.436844 -1.778244
-0.376938 -7.409348 -1.770950
-0.398361 -7.421463 -1.775467
-0.415787 -7.381790 -1.769608
-0.413528 -7.389389 -1.762650
-0.409714 -7.378433 -1.752335
-0.389023 -7.400009 -1.770615
-0.400162 -7.388412 -1.770645
-0.380081 -7.378983 -1.758347
-0.387131 -7.375473 -1.757248
-0.271164 -7.484909 -1.758377
-0.373276 -7.453812 -1.784470
-0.364273 -7.464859 -1.782333
-0.365219 -7.443192 -1.784714
-0.346573 -7.486252 -1.777817
-0.369888 -7.491379 -1.778610
-0.365005 -7.493210 -1.774979
-0.346573 -7.469009 -1.767685
-0.347397 -7.491989 -1.765030
-0.352097 -7.479111 -1.765182
-0.314682 -7.489059 -1.768478
-0.328323 -7.497269 -1.766769
-0.333389 -7.477829 -1.779434
-0.316696 -7.484634 -1.753159
-0.335770 -7.480881 -1.751358
-0.326675 -7.478317 -1.764236
-0.337021 -7.458176 -1.776352
-0.341965 -7.443344 -1.771133
-0.333206 -7.456161 -1.754410
-0.337418 -7.438126 -1.760330
-0.309189 -7.474808 -1.767899
-0.283371 -7.475266 -1.758011
-0.300400 -7.479324 -1.760208
-0.298843 -7.449966 -1.762497
-0.327499 -7.429337 -1.758041
-0.354446 -7.432724 -1.770889
-0.367508 -7.423203 -1.770432
-0.344528 -7.434738 -1.756180
-0.359665 -7.407974 -1.750046
-0.356949 -7.421799 -1.762558
-0.354080 -7.410110 -1.757156
-0.341812 -7.420456 -1.757401
-0.360947 -7.393631 -1.758194
-0.374100 -7.402267 -1.760422
-0.370560 -7.381821 -1.758408
-0.285904 -7.389236 -1.750778
-0.396408 -7.362198 -1.757736
-0.467972 -7.366989 -1.781570
-0.469620 -7.360336 -1.784805
-0.471634 -7.347580 -1.783432
-0.469864 -7.356369 -1.778763
-0.448441 -7.347244 -1.769852
-0.458359 -7.349655 -1.770218
-0.438553 -7.359024 -1.769638
-0.481369 -7.343185 -1.780167
-0.459274 -7.332443 -1.767960
-0.468155 -7.316147 -1.779831
-0.467361 -7.320572 -1.770767
-0.438339 -7.313828 -1.774887
-0.457077 -7.319992 -1.762711
-0.449265 -7.313309 -1.759384
-0.445755 -7.321518 -1.760696
-0.393356 -7.354324 -1.752792
-0.422897 -7.365829 -1.770645
-0.437057 -7.362228 -1.760513
-0.417221 -7.371536 -1.760422
-0.416336 -7.366287 -1.752884
-0.425278 -7.352402 -1.761765
-0.424973 -7.345352 -1.756393
-0.411728 -7.354660 -1.756851
-0.422867 -7.337082 -1.760422
-0.416550 -7.315048 -1.760818
-0.413589 -7.326004 -1.761002
-0.497360 -7.293533 -1.786301
-0.479416 -7.300369 -1.759964
-0.489944 -7.297867 -1.754562
-0.471390 -7.308701 -1.762650
-0.464676 -7.296280 -1.762527
-0.495285 -7.281052 -1.772232
-0.496231 -7.277939 -1.769211
-0.447708 -7.277390 -1.778061
-0.384811 -7.290176 -1.762680
-0.421188 -7.304489 -1.772507
-0.412064 -7.291397 -1.772812
-0.433762 -7.309128 -1.759537
-0.409897 -7.310776 -1.759964
-0.403061 -7.296585 -1.759720
-0.432236 -7.263107 -1.780838
-0.400955 -7.280960 -1.773911
-0.405136 -7.257126 -1.768723
-0.399734 -7.265091 -1.772293
-0.324539 -7.360123 -1.751511
-0.372849 -7.349686 -1.756363
-0.373856 -7.331619 -1.754074
-0.344345 -7.313278 -1.757950
-0.320999 -7.309769 -1.762253
-0.351517 -7.292465 -1.769821
-0.330490 -7.286758 -1.757706
-0.354050 -7.273453 -1.767075
-0.364944 -7.262924 -1.755966
-0.142532 -7.483383 -1.752884
-0.245529 -7.493607 -1.750351
-0.190598 -7.452652 -1.754745
-0.397934 -7.098526 -1.753586
-0.397476 -7.249283 -1.753891
-0.481033 -7.235214 -1.782669
-0.477158 -7.221115 -1.781815
-0.471512 -7.233047 -1.780563
-0.448837 -7.219955 -1.772232
-0.460373 -7.230606 -1.771072
-0.444778 -7.228775 -1.767532
-0.472458 -7.211075 -1.766525
-0.455551 -7.216446 -1.767776
-0.460464 -7.197311 -1.767136
-0.443344 -7.203690 -1.754044
-0.443253 -7.206955 -1.756485
-0.450150 -7.187729 -1.755112
-0.405289 -7.233871 -1.754776
-0.420181 -7.249161 -1.767929
-0.431717 -7.229599 -1.761490
-0.423599 -7.229477 -1.753281
-0.408829 -7.226303 -1.750381
-0.429703 -7.213120 -1.754471
-0.447952 -7.187180 -1.753220
-0.374985 -7.249496 -1.756363
-0.396408 -7.082413 -1.752121
-0.387100 -7.071487 -1.752853
-0.251053 -7.285934 -1.682510
-0.274307 -7.487839 -1.741348
-0.259842 -7.485062 -1.730515
-0.261429 -7.464706 -1.749100
-0.321152 -7.413589 -1.726578
-0.345230 -7.434280 -1.740128
-0.358627 -7.421799 -1.746780
-0.350418 -7.413437 -1.736679
-0.344559 -7.416916 -1.722397
-0.355331 -7.393539 -1.749222
-0.349167 -7.405319 -1.741898
-0.351456 -7.378830 -1.748276
-0.319962 -7.399246 -1.745834
-0.340012 -7.402542 -1.737473
-0.321701 -7.398483 -1.747910
-0.319687 -7.397385 -1.740891
-0.323990 -7.382309 -1.745102
-0.257675 -7.428513 -1.749680
-0.265976 -7.420792 -1.749161
-0.272537 -7.420456 -1.748886
-0.285019 -7.382980 -1.746078
-0.307724 -7.387527 -1.742142
-0.281174 -7.406174 -1.749466
-0.254776 -7.380814 -1.738663
-0.383408 -7.303604 -1.749344
-0.386307 -7.306198 -1.748611
-0.396042 -7.274582 -1.748154
-0.263443 -7.276321 -1.682205
-0.341568 -7.367874 -1.749008
-0.325546 -7.358963 -1.749649
-0.336105 -7.347916 -1.749710
-0.358871 -7.336594 -1.748032
-0.354355 -7.343063 -1.748184
-0.370132 -7.313065 -1.749771
-0.358627 -7.322098 -1.740341
-0.324051 -7.336044 -1.735855
-0.338089 -7.341263 -1.744431
-0.332108 -7.320999 -1.736588
-0.331924 -7.320358 -1.729721
-0.263412 -7.367538 -1.739120
-0.281357 -7.361771 -1.737747
-0.306564 -7.363785 -1.734756
-0.309067 -7.350540 -1.737656
-0.262711 -7.359879 -1.731918
-0.271133 -7.343979 -1.725998
-0.256058 -7.346634 -1.731796
-0.250748 -7.355270 -1.725266
-0.286942 -7.329086 -1.739639
-0.293320 -7.327408 -1.740158
-0.277969 -7.316422 -1.740005
-0.253891 -7.335159 -1.727036
-0.260818 -7.319199 -1.728012
-0.259506 -7.326797 -1.728928
-0.356491 -7.296890 -1.743454
-0.365097 -7.301437 -1.736679
-0.352097 -7.251511 -1.744217
-0.346542 -7.255142 -1.734818
-0.344955 -7.264969 -1.741348
-0.355057 -7.253006 -1.741562
-0.327377 -7.271988 -1.740952
-0.328781 -7.271744 -1.742355
-0.330673 -7.250595 -1.727829
-0.316544 -7.259476 -1.728378
-0.324234 -7.256210 -1.724136
-0.262314 -7.308487 -1.726364
-0.301590 -7.303085 -1.749619
-0.305740 -7.294907 -1.725723
-0.282761 -7.295395 -1.728165
-0.294815 -7.290268 -1.733749
-0.269150 -7.303696 -1.728745
-0.311996 -7.278244 -1.743484
-0.306656 -7.272934 -1.728012
-0.301132 -7.289017 -1.709335
-0.250992 -7.304642 -1.709549
-0.276169 -7.288864 -1.712906
-0.275864 -7.289078 -1.706955
-0.267868 -7.286484 -1.705307
-0.261978 -7.296646 -1.713577
-0.268723 -7.281540 -1.697800
-0.257156 -7.291916 -1.697952
-0.286423 -7.275803 -1.713211
-0.299606 -7.265854 -1.712845
-0.302536 -7.268295 -1.714035
-0.311539 -7.254471 -1.712784
-0.281754 -7.271164 -1.697525
-0.301224 -7.252060 -1.696854
-0.292923 -7.253738 -1.697922
-0.292770 -7.259079 -1.697617
-0.279984 -7.280869 -1.704056
-0.266098 -7.271561 -1.674210
-0.288315 -7.254684 -1.681870
-0.285782 -7.260635 -1.685013
-0.291855 -7.259781 -1.686386
-0.276016 -7.265457 -1.682022
-0.280746 -7.253677 -1.676193
-0.257523 -7.270523 -1.666733
-0.258957 -7.272934 -1.661484
-0.269638 -7.259140 -1.666641
-0.266617 -7.254227 -1.656570
-0.253311 -7.266312 -1.650864
-0.262161 -7.251724 -1.651443
-0.171249 -7.359573 -1.685440
-0.129684 -7.440964 -1.679672
-0.242661 -7.480087 -1.729416
-0.245438 -7.439377 -1.749924
-0.216873 -7.442307 -1.708725
-0.128616 -7.483963 -1.741928
-0.186142 -7.493088 -1.734451
-0.171310 -7.484146 -1.747421
-0.144791 -7.476486 -1.740860
-0.160721 -7.453873 -1.736923
-0.167496 -7.454147 -1.740646
-0.174362 -7.437515 -1.741623
-0.164230 -7.452774 -1.745285
-0.158157 -7.445450 -1.725998
-0.135544 -7.467972 -1.726212
-0.144699 -7.464066 -1.733994
-0.129440 -7.463638 -1.712692
-0.130386 -7.463242 -1.710648
-0.151352 -7.441147 -1.713974
-0.146927 -7.452469 -1.712692
-0.141403 -7.451828 -1.710587
-0.151077 -7.439987 -1.709091
-0.151138 -7.438950 -1.710831
-0.135208 -7.450424 -1.701736
-0.135635 -7.446487 -1.695145
-0.213608 -7.409286 -1.740219
-0.249283 -7.429764 -1.748062
-0.236862 -7.408768 -1.737686
-0.231277 -7.414047 -1.744125
-0.203598 -7.421310 -1.740036
-0.205429 -7.418076 -1.741135
-0.245712 -7.394852 -1.738174
-0.245712 -7.386948 -1.738297
-0.227066 -7.376999 -1.725540
-0.192978 -7.399734 -1.733902
-0.215347 -7.404404 -1.730087
-0.203873 -7.376266 -1.729202
-0.210495 -7.383682 -1.726669
-0.192703 -7.389511 -1.728012
-0.166824 -7.430527 -1.726578
-0.167770 -7.431747 -1.726059
-0.185013 -7.426071 -1.725021
-0.173569 -7.410812 -1.722672
-0.183243 -7.402115 -1.727737
-0.159622 -7.423782 -1.711472
-0.168869 -7.410934 -1.711777
-0.169662 -7.410233 -1.711380
-0.160446 -7.418289 -1.709793
-0.145065 -7.427048 -1.697403
-0.151779 -7.422531 -1.697952
-0.143723 -7.432053 -1.695694
-0.151566 -7.416245 -1.696457
-0.177261 -7.396500 -1.712326
-0.173203 -7.393661 -1.704758
-0.183182 -7.388016 -1.718369
-0.186386 -7.383530 -1.712662
-0.161789 -7.404312 -1.696579
-0.158676 -7.401932 -1.692215
-0.170273 -7.389877 -1.697098
-0.167099 -7.378952 -1.688248
-0.137680 -7.426437 -1.680283
-0.133957 -7.433395 -1.683945
-0.137222 -7.423630 -1.676132
-0.147110 -7.412064 -1.680710
-0.145035 -7.409439 -1.679367
-0.145218 -7.407516 -1.667984
-0.141556 -7.406876 -1.665146
-0.137253 -7.413834 -1.665085
-0.132645 -7.421768 -1.664627
-0.130051 -7.408066 -1.656845
-0.163132 -7.383163 -1.681900
-0.157272 -7.384506 -1.674515
-0.157120 -7.377487 -1.666397
-0.154770 -7.397720 -1.681320
-0.150101 -7.393356 -1.665573
-0.144363 -7.391769 -1.661484
-0.127792 -7.417252 -1.648911
-0.135818 -7.401535 -1.649582
-0.137619 -7.395554 -1.646988
-0.145737 -7.389267 -1.649765
-0.130173 -7.396286 -1.633957
-0.129318 -7.400223 -1.632797
-0.137619 -7.385971 -1.633316
-0.140305 -7.384140 -1.634109
-0.139420 -7.377426 -1.628708
-0.061386 -7.489792 -1.665512
-0.108475 -7.487320 -1.727219
-0.095444 -7.497757 -1.727646
-0.119034 -7.482864 -1.733322
-0.121872 -7.477829 -1.726700
-0.113327 -7.482193 -1.725571
-0.095474 -7.490646 -1.716110
-0.116867 -7.473190 -1.711136
-0.113876 -7.483505 -1.709030
-0.103165 -7.482468 -1.711685
-0.104172 -7.477890 -1.697952
-0.099258 -7.472763 -1.688614
-0.070572 -7.498093 -1.713730
-0.085861 -7.498062 -1.716019
-0.087509 -7.494614 -1.709061
-0.072586 -7.477097 -1.715622
-0.084396 -7.487717 -1.696579
-0.068283 -7.496017 -1.697525
-0.111588 -7.468399 -1.695572
-0.124252 -7.457565 -1.695267
-0.110123 -7.464828 -1.691605
-0.077072 -7.458755 -1.700241
-0.055557 -7.484604 -1.733475
-0.067917 -7.495682 -1.680923
-0.066910 -7.487595 -1.672836
-0.092300 -7.472580 -1.680588
-0.078537 -7.482407 -1.681076
-0.081284 -7.481369 -1.682236
-0.081650 -7.470413 -1.676132
-0.088364 -7.469009 -1.664688
-0.068985 -7.484024 -1.664566
-0.074234 -7.478531 -1.665268
-0.118546 -7.452377 -1.679764
-0.108444 -7.455582 -1.667709
-0.097336 -7.458664 -1.656723
-0.123795 -7.439163 -1.670151
-0.117020 -7.449203 -1.669632
-0.109573 -7.447281 -1.657272
-0.106400 -7.441208 -1.665451
-0.087601 -7.446487 -1.683609
-0.090286 -7.448898 -1.666397
-0.070969 -7.475540 -1.649216
-0.064377 -7.469589 -1.633774
-0.106918 -7.441666 -1.648697
-0.094742 -7.452957 -1.648911
-0.104019 -7.438980 -1.632645
-0.083603 -7.464676 -1.648941
-0.082901 -7.462540 -1.647263
-0.078659 -7.465897 -1.643692
-0.078812 -7.460312 -1.633194
-0.090500 -7.449081 -1.633041
-0.092392 -7.447708 -1.633438
-0.089676 -7.446243 -1.626297
-0.059921 -7.493607 -1.670944
-0.053665 -7.486588 -1.656754
-0.043991 -7.495621 -1.650131
-0.056107 -7.485001 -1.649887
-0.039658 -7.487656 -1.633438
-0.035568 -7.496780 -1.640396
-0.039597 -7.491653 -1.634262
-0.040970 -7.484848 -1.629288
-0.059433 -7.475906 -1.636398
-0.052078 -7.481369 -1.633957
-0.023880 -7.499619 -1.635117
-0.123611 -7.435379 -1.664230
-0.119156 -7.431259 -1.648453
-0.124222 -7.421219 -1.651993
-0.118057 -7.424728 -1.637222
-0.124313 -7.414017 -1.632919
-0.100967 -7.414474 -1.635208
-0.170639 -7.368576 -1.682541
-0.208328 -7.366196 -1.722183
-0.240219 -7.366837 -1.725204
-0.240707 -7.353409 -1.724228
-0.218552 -7.349899 -1.723495
-0.211990 -7.336777 -1.723312
-0.190659 -7.364792 -1.714157
-0.188095 -7.367081 -1.710403
-0.188339 -7.350021 -1.713303
-0.197556 -7.348801 -1.715073
-0.192429 -7.353195 -1.697922
-0.232040 -7.313950 -1.714981
-0.232712 -7.321304 -1.703293
-0.204330 -7.332382 -1.716049
-0.208908 -7.338852 -1.709518
-0.214615 -7.320419 -1.716171
-0.203293 -7.325851 -1.709671
-0.200821 -7.328995 -1.700058
-0.188553 -7.340225 -1.700211
-0.211960 -7.317825 -1.700027
-0.197830 -7.326706 -1.692978
-0.187241 -7.367599 -1.715408
-0.177231 -7.373245 -1.701797
-0.177383 -7.374985 -1.697861
-0.182083 -7.353531 -1.698807
-0.183609 -7.358109 -1.698929
-0.245895 -7.304642 -1.714462
-0.225388 -7.307480 -1.699661
-0.240982 -7.299240 -1.697922
-0.241043 -7.299881 -1.698807
-0.230606 -7.308426 -1.700729
-0.197739 -7.326035 -1.683975
-0.208664 -7.314651 -1.683975
-0.193283 -7.321732 -1.668167
-0.193314 -7.314987 -1.657028
-0.189987 -7.318558 -1.652084
-0.176010 -7.350845 -1.683731
-0.173386 -7.349991 -1.676224
-0.165390 -7.362869 -1.670792
-0.165909 -7.364120 -1.666794
-0.164139 -7.364334 -1.667038
-0.156265 -7.367996 -1.656906
-0.171219 -7.346298 -1.668015
-0.157486 -7.351578 -1.657028
-0.183487 -7.335342 -1.684525
-0.181564 -7.335800 -1.680984
-0.179947 -7.331955 -1.668533
-0.174850 -7.339523 -1.666641
-0.186996 -7.323929 -1.665756
-0.168991 -7.344162 -1.651749
-0.160294 -7.358780 -1.651199
-0.161362 -7.347031 -1.637802
-0.157639 -7.356277 -1.634995
-0.152420 -7.373032 -1.650620
-0.149704 -7.371658 -1.642380
-0.149612 -7.370407 -1.634476
-0.167740 -7.343430 -1.652328
-0.177841 -7.329941 -1.652206
-0.165207 -7.340530 -1.635757
-0.178787 -7.317764 -1.633163
-0.175095 -7.327255 -1.636032
-0.177780 -7.326309 -1.632828
-0.186356 -7.315048 -1.636063
-0.184250 -7.316940 -1.630630
-0.211990 -7.310593 -1.680435
-0.220932 -7.303146 -1.683853
-0.228287 -7.299789 -1.676224
-0.236954 -7.295883 -1.682968
-0.249039 -7.291183 -1.682938
-0.218918 -7.297775 -1.658646
-0.249191 -7.284103 -1.666214
-0.243820 -7.283920 -1.663895
-0.238907 -7.283066 -1.662460
-0.237106 -7.283310 -1.657028
-0.231308 -7.290390 -1.667404
-0.218399 -7.300674 -1.667709
-0.204575 -7.310684 -1.668076
-0.227036 -7.286209 -1.651535
-0.222946 -7.282181 -1.635635
-0.202560 -7.308731 -1.651779
-0.215836 -7.299393 -1.654892
-0.215897 -7.298233 -1.651474
-0.193771 -7.311630 -1.644302
-0.198502 -7.304794 -1.635880
-0.211014 -7.293503 -1.635727
-0.240555 -7.275620 -1.651230
-0.247726 -7.264664 -1.645432
-0.233231 -7.271194 -1.637802
-0.231552 -7.274490 -1.633102
-0.225052 -7.277145 -1.635086
-0.234146 -7.269333 -1.635757
-0.247391 -7.260483 -1.635330
-0.128860 -7.395035 -1.617569
-0.127914 -7.405594 -1.624008
-0.125381 -7.402451 -1.617538
-0.134750 -7.378952 -1.618454
-0.131485 -7.381851 -1.614456
-0.132034 -7.376358 -1.602280
-0.009720 -7.464859 -1.555984
-0.072678 -7.454697 -1.617630
-0.087296 -7.449692 -1.622635
-0.083939 -7.444077 -1.612625
-0.086319 -7.445236 -1.617142
-0.085220 -7.440445 -1.604233
-0.084366 -7.443436 -1.600876
-0.064713 -7.452805 -1.603714
-0.068192 -7.450638 -1.601761
-0.067825 -7.443893 -1.582413
-0.080826 -7.440201 -1.584854
-0.063797 -7.446609 -1.585892
-0.011734 -7.496384 -1.617508
-0.033218 -7.485947 -1.618759
-0.046127 -7.476028 -1.618362
-0.045395 -7.478256 -1.619644
-0.040909 -7.471329 -1.602615
-0.041885 -7.468948 -1.604263
-0.016403 -7.492935 -1.619827
-0.008499 -7.491196 -1.603714
-0.011581 -7.488632 -1.603958
-0.026291 -7.479721 -1.603287
-0.020065 -7.480515 -1.596512
-0.059219 -7.464920 -1.618057
-0.057236 -7.463089 -1.601730
-0.052231 -7.465347 -1.598343
-0.062271 -7.456345 -1.601273
-0.002853 -7.480850 -1.588730
-0.019882 -7.474014 -1.587692
-0.005600 -7.481094 -1.586227
-0.015610 -7.470139 -1.571732
-0.034897 -7.465927 -1.586960
-0.054337 -7.460464 -1.585587
-0.048019 -7.454727 -1.569992
-0.060501 -7.449692 -1.577194
-0.061203 -7.444260 -1.569656
-0.026596 -7.468063 -1.575211
-0.030899 -7.462326 -1.570938
-0.027176 -7.455917 -1.568771
-0.093369 -7.429153 -1.601273
-0.107193 -7.430893 -1.623550
-0.110062 -7.422836 -1.616867
-0.100723 -7.435928 -1.616592
-0.117630 -7.407791 -1.617477
-0.099503 -7.426804 -1.601974
-0.115463 -7.408005 -1.603653
-0.116196 -7.406448 -1.601089
-0.106949 -7.419968 -1.600784
-0.123123 -7.397659 -1.604263
-0.118332 -7.403885 -1.603714
-0.120895 -7.387558 -1.602341
-0.124405 -7.385818 -1.599960
-0.105850 -7.413437 -1.589676
-0.103348 -7.416611 -1.584763
-0.093979 -7.420120 -1.576157
-0.098373 -7.412033 -1.568954
-0.092026 -7.427933 -1.584854
-0.084610 -7.427750 -1.568832
-0.088425 -7.424606 -1.568802
-0.082047 -7.426865 -1.562607
-0.076187 -7.435959 -1.568985
-0.109024 -7.403458 -1.580032
-0.110458 -7.401138 -1.585434
-0.116409 -7.390305 -1.585678
-0.121689 -7.385117 -1.582504
-0.119980 -7.386734 -1.585831
-0.111526 -7.392990 -1.570633
-0.108047 -7.398880 -1.569229
-0.117294 -7.384201 -1.569626
-0.066513 -7.438370 -1.555649
-0.002548 -7.466904 -1.552414
-0.033401 -7.455215 -1.553848
-0.061386 -7.438492 -1.550827
-0.059128 -7.442307 -1.553360
-0.044205 -7.451279 -1.553970
-0.055923 -7.439438 -1.537216
-0.046158 -7.441513 -1.538467
-0.038803 -7.446365 -1.538162
-0.038467 -7.445572 -1.532242
-0.025772 -7.457657 -1.555099
-0.030716 -7.452286 -1.551682
-0.005325 -7.460892 -1.540024
-0.020370 -7.452774 -1.539322
-0.034256 -7.442276 -1.522202
-0.051712 -7.439285 -1.531235
-0.042465 -7.437943 -1.510452
-0.001358 -7.457321 -1.523911
-0.005508 -7.461227 -1.530563
-0.016006 -7.448868 -1.523300
-0.012833 -7.447220 -1.509232
-0.013199 -7.446304 -1.507034
-0.071823 -7.431961 -1.553055
-0.095566 -7.409409 -1.552780
-0.078201 -7.429916 -1.551620
-0.085251 -7.421677 -1.552689
-0.068649 -7.429062 -1.536911
-0.073929 -7.424332 -1.534225
-0.082230 -7.418869 -1.536545
-0.103165 -7.397690 -1.556351
-0.104355 -7.395462 -1.553177
-0.111679 -7.380356 -1.551620
-0.113266 -7.380417 -1.553635
-0.095016 -7.402267 -1.541977
-0.095505 -7.401962 -1.535660
-0.100204 -7.391586 -1.537216
-0.110001 -7.375351 -1.537064
-0.110184 -7.377548 -1.537460
-0.091232 -7.405411 -1.536850
-0.066635 -7.427170 -1.520584
-0.086319 -7.407120 -1.527725
-0.077408 -7.414444 -1.520645
-0.062698 -7.423569 -1.504532
-0.081985 -7.409103 -1.512833
-0.076950 -7.412369 -1.513535
-0.075760 -7.412949 -1.504257
-0.077835 -7.410233 -1.504105
-0.100937 -7.385696 -1.531235
-0.108017 -7.375504 -1.521164
-0.098404 -7.389908 -1.520828
-0.106430 -7.377335 -1.521744
-0.099533 -7.381180 -1.507126
-0.095596 -7.387314 -1.504623
-0.089310 -7.403580 -1.520523
-0.086105 -7.400650 -1.504379
-0.019485 -7.436295 -1.504074
-0.053299 -7.437027 -1.520950
-0.046616 -7.430893 -1.505356
-0.024490 -7.433395 -1.507034
-0.131973 -7.353745 -1.554245
-0.144699 -7.365768 -1.618698
-0.149124 -7.362625 -1.622910
-0.155258 -7.350388 -1.623184
-0.152878 -7.351730 -1.619217
-0.140854 -7.362167 -1.602707
-0.150711 -7.349716 -1.602921
-0.148483 -7.354172 -1.608749
-0.139633 -7.359085 -1.594742
-0.163620 -7.339005 -1.619339
-0.185410 -7.314133 -1.619553
-0.175552 -7.322586 -1.621445
-0.174393 -7.326614 -1.619461
-0.177109 -7.320877 -1.616379
-0.183792 -7.315079 -1.610916
-0.160110 -7.335648 -1.603287
-0.158493 -7.334305 -1.603745
-0.183853 -7.312607 -1.603134
-0.170883 -7.323257 -1.603378
-0.165054 -7.327530 -1.603226
-0.151840 -7.343094 -1.604355
-0.138016 -7.359451 -1.586533
-0.133957 -7.362259 -1.579971
-0.136002 -7.361099 -1.578629
-0.147507 -7.346664 -1.586807
-0.128342 -7.362076 -1.568558
-0.125900 -7.370590 -1.569992
-0.125229 -7.367111 -1.565842
-0.145462 -7.344711 -1.570480
-0.135635 -7.357193 -1.570297
-0.161850 -7.329300 -1.587997
-0.158676 -7.334305 -1.586868
-0.169662 -7.322037 -1.586929
-0.166458 -7.319016 -1.570786
-0.164536 -7.321304 -1.577072
-0.156021 -7.331772 -1.570633
-0.153366 -7.334000 -1.573929
-0.146103 -7.339340 -1.563065
-0.196579 -7.302902 -1.619522
-0.213089 -7.283737 -1.622116
-0.206924 -7.289505 -1.619797
-0.193497 -7.299973 -1.603409
-0.204239 -7.286880 -1.603592
-0.202988 -7.289322 -1.608658
-0.196579 -7.292801 -1.594284
-0.228867 -7.264145 -1.620041
-0.241074 -7.254288 -1.619858
-0.236404 -7.252975 -1.614853
-0.226273 -7.261581 -1.603867
-0.224655 -7.264114 -1.604355
-0.226639 -7.258316 -1.601364
-0.217087 -7.276505 -1.620041
-0.213120 -7.280014 -1.619247
-0.208115 -7.278488 -1.603775
-0.214828 -7.274277 -1.603745
-0.192276 -7.298752 -1.586929
-0.193344 -7.297256 -1.589401
-0.202042 -7.284744 -1.587265
-0.190140 -7.296371 -1.579910
-0.198868 -7.281631 -1.571152
-0.187698 -7.294296 -1.571030
-0.223465 -7.258804 -1.587662
-0.219345 -7.254776 -1.571671
-0.222702 -7.251266 -1.568192
-0.211533 -7.271042 -1.587631
-0.216812 -7.263657 -1.587906
-0.208755 -7.268295 -1.571426
-0.203384 -7.278854 -1.574875
-0.209763 -7.267532 -1.573746
-0.206558 -7.272659 -1.568283
-0.185898 -7.303696 -1.604355
-0.181870 -7.310715 -1.586807
-0.178513 -7.307449 -1.570724
-0.174026 -7.305283 -1.568375
-0.180099 -7.301865 -1.566330
-0.135422 -7.343918 -1.545975
-0.129074 -7.350967 -1.538040
-0.163620 -7.316269 -1.554581
-0.162552 -7.315201 -1.538101
-0.142227 -7.340164 -1.560471
-0.145096 -7.332840 -1.551620
-0.141037 -7.340500 -1.554550
-0.153305 -7.329178 -1.554398
-0.140366 -7.339828 -1.537979
-0.153885 -7.324722 -1.541397
-0.150314 -7.326340 -1.538223
-0.154984 -7.320175 -1.532547
-0.131638 -7.346024 -1.530807
-0.127640 -7.349625 -1.521591
-0.126175 -7.348190 -1.505142
-0.157791 -7.314133 -1.523575
-0.159775 -7.312515 -1.521866
-0.138809 -7.338333 -1.521530
-0.150955 -7.326370 -1.531204
-0.149490 -7.325485 -1.521652
-0.136612 -7.336288 -1.505203
-0.153214 -7.316635 -1.508682
-0.148117 -7.324173 -1.505203
-0.197464 -7.280258 -1.554672
-0.203781 -7.270828 -1.559311
-0.206589 -7.266159 -1.555130
-0.217514 -7.252975 -1.555283
-0.215469 -7.250107 -1.551590
-0.199539 -7.273117 -1.544479
-0.195511 -7.278366 -1.538315
-0.214584 -7.250076 -1.539078
-0.204147 -7.263809 -1.538834
-0.199936 -7.269791 -1.531204
-0.193161 -7.277573 -1.530472
-0.197128 -7.274399 -1.529251
-0.192947 -7.275864 -1.522049
-0.202927 -7.262589 -1.522324
-0.188400 -7.279190 -1.515396
-0.191208 -7.274155 -1.505661
-0.207932 -7.251144 -1.509628
-0.201859 -7.261520 -1.505814
-0.172928 -7.305832 -1.552048
-0.175735 -7.304764 -1.554520
-0.179916 -7.294601 -1.551620
-0.186508 -7.293137 -1.554550
-0.173782 -7.302902 -1.538162
-0.165970 -7.309647 -1.537704
-0.184402 -7.291122 -1.538223
-0.171524 -7.300705 -1.521835
-0.161606 -7.310226 -1.519638
-0.182632 -7.289383 -1.521835
-0.169785 -7.298996 -1.505447
-0.158432 -7.311264 -1.505417
-0.180618 -7.287399 -1.505478
-0.181595 -7.282913 -1.501053
-0.168533 -7.290848 -1.503494
-0.118332 -7.370712 -1.551315
-0.124954 -7.369736 -1.586838
-0.122971 -7.367844 -1.553818
-0.120255 -7.365311 -1.537582
-0.120712 -7.359329 -1.534409
-0.117661 -7.362839 -1.521347
-0.124741 -7.349838 -1.516281
-0.116409 -7.361649 -1.504898
-0.106247 -7.373856 -1.504776
-0.122482 -7.351059 -1.500778
-0.123489 -7.349319 -1.503799
-0.271317 -7.097977 -1.670944
-0.387619 -7.239212 -1.739548
-0.456223 -7.237076 -1.748062
-0.391403 -7.219620 -1.741318
-0.420761 -7.203842 -1.739914
-0.422379 -7.213577 -1.739304
-0.406540 -7.211929 -1.740555
-0.427780 -7.198441 -1.743271
-0.429398 -7.189194 -1.740616
-0.411606 -7.207443 -1.732193
-0.407089 -7.193375 -1.731522
-0.381607 -7.207504 -1.722794
-0.383255 -7.211258 -1.726517
-0.395279 -7.200272 -1.726425
-0.384018 -7.189560 -1.720322
-0.433426 -7.200699 -1.709244
-0.375290 -7.203079 -1.716141
-0.440750 -7.174240 -1.745010
-0.399307 -7.181656 -1.728043
-0.436050 -7.172989 -1.741745
-0.429062 -7.181412 -1.741043
-0.426163 -7.166306 -1.739975
-0.434677 -7.170914 -1.738785
-0.406967 -7.176895 -1.729691
-0.410477 -7.169510 -1.728195
-0.402237 -7.162186 -1.729019
-0.421738 -7.147659 -1.738297
-0.431686 -7.144211 -1.745407
-0.419907 -7.152481 -1.739700
-0.413284 -7.139511 -1.739609
-0.406815 -7.142380 -1.731583
-0.403824 -7.128647 -1.740372
-0.393082 -7.150497 -1.729599
-0.385574 -7.149368 -1.719193
-0.402664 -7.128708 -1.733444
-0.389084 -7.136642 -1.728867
-0.378830 -7.183365 -1.713364
-0.378555 -7.158401 -1.717972
-0.384537 -7.171860 -1.718246
-0.379776 -7.161392 -1.715622
-0.378769 -7.136520 -1.718430
-0.276566 -7.242416 -1.660172
-0.374069 -7.245804 -1.744186
-0.368515 -7.242935 -1.741196
-0.343826 -7.241592 -1.727371
-0.369919 -7.230728 -1.727737
-0.371964 -7.223251 -1.726395
-0.357132 -7.231339 -1.727097
-0.346970 -7.220993 -1.712662
-0.351700 -7.224075 -1.715103
-0.323105 -7.242966 -1.712784
-0.324814 -7.246231 -1.711502
-0.321304 -7.240952 -1.707352
-0.334702 -7.232376 -1.712723
-0.321335 -7.221817 -1.709732
-0.315384 -7.235214 -1.697769
-0.325272 -7.222885 -1.698044
-0.317245 -7.226364 -1.690933
-0.360794 -7.211838 -1.712173
-0.365738 -7.193253 -1.713669
-0.367020 -7.197922 -1.709671
-0.362839 -7.201248 -1.710373
-0.350876 -7.204788 -1.699997
-0.345749 -7.210129 -1.697952
-0.343857 -7.194138 -1.697830
-0.347183 -7.197952 -1.698410
-0.322708 -7.205734 -1.687668
-0.331833 -7.205673 -1.699142
-0.337601 -7.215164 -1.701340
-0.303543 -7.246445 -1.697800
-0.306320 -7.246017 -1.702896
-0.340256 -7.163040 -1.695236
-0.368271 -7.176895 -1.706528
-0.363052 -7.183670 -1.708420
-0.359329 -7.168869 -1.707535
-0.344742 -7.176804 -1.695786
-0.352646 -7.179855 -1.699753
-0.358658 -7.161423 -1.699875
-0.357040 -7.160873 -1.701309
-0.347000 -7.142624 -1.707169
-0.371201 -7.146317 -1.718185
-0.354355 -7.155411 -1.707077
-0.366013 -7.132797 -1.714981
-0.365585 -7.132645 -1.717819
-0.347183 -7.127701 -1.705826
-0.350113 -7.151932 -1.700363
-0.342453 -7.128159 -1.706558
-0.337296 -7.147873 -1.694199
-0.331650 -7.132675 -1.695602
-0.328751 -7.135483 -1.694565
-0.316299 -7.213791 -1.683212
-0.323318 -7.197006 -1.684250
-0.315292 -7.192825 -1.672165
-0.321030 -7.194565 -1.676254
-0.275803 -7.249771 -1.657028
-0.297287 -7.240219 -1.682449
-0.300491 -7.235580 -1.679550
-0.308426 -7.228195 -1.682541
-0.282761 -7.245377 -1.668289
-0.281631 -7.248001 -1.666580
-0.300888 -7.220627 -1.667374
-0.290756 -7.233658 -1.667099
-0.311111 -7.212112 -1.675003
-0.309341 -7.206772 -1.667953
-0.299850 -7.218246 -1.662216
-0.303696 -7.199142 -1.659500
-0.307816 -7.200790 -1.657150
-0.308273 -7.199539 -1.658340
-0.283707 -7.227066 -1.650558
-0.285263 -7.228195 -1.651474
-0.272720 -7.239090 -1.651657
-0.265976 -7.236801 -1.639206
-0.268021 -7.234421 -1.635849
-0.256607 -7.246201 -1.635818
-0.253433 -7.243637 -1.626511
-0.278641 -7.221512 -1.636063
-0.292496 -7.212173 -1.652328
-0.288223 -7.207565 -1.647690
-0.299393 -7.196701 -1.653214
-0.293991 -7.188065 -1.644638
-0.284256 -7.203934 -1.637253
-0.290970 -7.188156 -1.638138
-0.282608 -7.194229 -1.631821
-0.276260 -7.209793 -1.633011
-0.279160 -7.212479 -1.634293
-0.332443 -7.182877 -1.684769
-0.329330 -7.185196 -1.684219
-0.334946 -7.161697 -1.686722
-0.333359 -7.170059 -1.685471
-0.329178 -7.169022 -1.682510
-0.313614 -7.177444 -1.670914
-0.313889 -7.187424 -1.669449
-0.315659 -7.172806 -1.666916
-0.318039 -7.168198 -1.671005
-0.325607 -7.154129 -1.681656
-0.319717 -7.140274 -1.681351
-0.313980 -7.134567 -1.676926
-0.313156 -7.139328 -1.674393
-0.302597 -7.183426 -1.658096
-0.310684 -7.162155 -1.669907
-0.300095 -7.167862 -1.656967
-0.309769 -7.128433 -1.682083
-0.303238 -7.149094 -1.669968
-0.305862 -7.154800 -1.658920
-0.297775 -7.147537 -1.658279
-0.295456 -7.143356 -1.659897
-0.300217 -7.133469 -1.668961
-0.290726 -7.172897 -1.643692
-0.300491 -7.173843 -1.655350
-0.286209 -7.159317 -1.641403
-0.296371 -7.164932 -1.645950
-0.286606 -7.158005 -1.642990
-0.281265 -7.177963 -1.630447
-0.281723 -7.160599 -1.628616
-0.296585 -7.152664 -1.656082
-0.282791 -7.142746 -1.642197
-0.284409 -7.125473 -1.655685
-0.290207 -7.138809 -1.655930
-0.285141 -7.134659 -1.643936
-0.277176 -7.129288 -1.641891
-0.276352 -7.146133 -1.628189
-0.276291 -7.149246 -1.626480
-0.277390 -7.129715 -1.637680
-0.271347 -7.132370 -1.627762
-0.390488 -7.119247 -1.742081
-0.388931 -7.099319 -1.738205
-0.419327 -7.123703 -1.740402
-0.386124 -7.104782 -1.741348
-0.401321 -7.105026 -1.746597
-0.381363 -7.124161 -1.729080
-0.382675 -7.095749 -1.725174
-0.381271 -7.090469 -1.740829
-0.393509 -7.074997 -1.742874
-0.378250 -7.076126 -1.739853
-0.385696 -7.072281 -1.741562
-0.376480 -7.086197 -1.724106
-0.380600 -7.057053 -1.734573
-0.378494 -7.059311 -1.737961
-0.375198 -7.061203 -1.726944
-0.276169 -7.097580 -1.667892
-0.373764 -7.111435 -1.729263
-0.373856 -7.094376 -1.727371
-0.373245 -7.107285 -1.722153
-0.371017 -7.079941 -1.726395
-0.368149 -7.064743 -1.725327
-0.348434 -7.117630 -1.711136
-0.360214 -7.118668 -1.717392
-0.351486 -7.106277 -1.717850
-0.334213 -7.115433 -1.706833
-0.343735 -7.094376 -1.718124
-0.330246 -7.102951 -1.707382
-0.318954 -7.107468 -1.709091
-0.338058 -7.113297 -1.701859
-0.318710 -7.123672 -1.695358
-0.313187 -7.116348 -1.691513
-0.348495 -7.075058 -1.715103
-0.319992 -7.090042 -1.707047
-0.337051 -7.093094 -1.710526
-0.341751 -7.074356 -1.712051
-0.318436 -7.073410 -1.705612
-0.312271 -7.096054 -1.705551
-0.309341 -7.112534 -1.696030
-0.298569 -7.101303 -1.697006
-0.293869 -7.104813 -1.688583
-0.292282 -7.066055 -1.716934
-0.299667 -7.067368 -1.708786
-0.305557 -7.063522 -1.704697
-0.288315 -7.089127 -1.697800
-0.293106 -7.086166 -1.702988
-0.272293 -7.065109 -1.698532
-0.274826 -7.063583 -1.697372
-0.280869 -7.077133 -1.698044
-0.367691 -7.032120 -1.737259
-0.370285 -7.046341 -1.738266
-0.361832 -7.050766 -1.725143
-0.361038 -7.035355 -1.728989
-0.354355 -7.038986 -1.725449
-0.360031 -7.019882 -1.737564
-0.352768 -7.013535 -1.734451
-0.343948 -7.026321 -1.726578
-0.326309 -7.018143 -1.724350
-0.332809 -7.016830 -1.727554
-0.343582 -7.028366 -1.726517
-0.318161 -7.008499 -1.729691
-0.345383 -7.055588 -1.714981
-0.362381 -7.061691 -1.716660
-0.344559 -7.059738 -1.714279
-0.327805 -7.050095 -1.713455
-0.336319 -7.048355 -1.714737
-0.341782 -7.049728 -1.714706
-0.326859 -7.036942 -1.715500
-0.344376 -7.028580 -1.716690
-0.298843 -7.034256 -1.720963
-0.283096 -7.026352 -1.723343
-0.308517 -7.010269 -1.722244
-0.289871 -7.007278 -1.721298
-0.265091 -7.018967 -1.726303
-0.281357 -7.060440 -1.711746
-0.310013 -7.044388 -1.711868
-0.269272 -7.049393 -1.713058
-0.274368 -7.051437 -1.713211
-0.257492 -7.039413 -1.714401
-0.256241 -7.040970 -1.710495
-0.259872 -7.054184 -1.699875
-0.256699 -7.053299 -1.694748
-0.275772 -7.101028 -1.665085
-0.294479 -7.119125 -1.673111
-0.299606 -7.117447 -1.682938
-0.291641 -7.104935 -1.683243
-0.282700 -7.109604 -1.669937
-0.290054 -7.122513 -1.669815
-0.283127 -7.106308 -1.660995
-0.267654 -7.099899 -1.656326
-0.268906 -7.083328 -1.685532
-0.275803 -7.088120 -1.684464
-0.262314 -7.070236 -1.685471
-0.257187 -7.066940 -1.679276
-0.261307 -7.087265 -1.671860
-0.257187 -7.089401 -1.657303
-0.257706 -7.081741 -1.664017
-0.256027 -7.073502 -1.671494
-0.276474 -7.112869 -1.655930
-0.276657 -7.110489 -1.652084
-0.272568 -7.114883 -1.641342
-0.261917 -7.102859 -1.642166
-0.264786 -7.113876 -1.630966
-0.263168 -7.119827 -1.628067
-0.253067 -7.107468 -1.628769
-0.258560 -7.105087 -1.631882
-0.250809 -7.092667 -1.643295
-0.258072 -7.091843 -1.647598
-0.253372 -7.172775 -1.559189
-0.252060 -7.241745 -1.619980
-0.250961 -7.239334 -1.617020
-0.262527 -7.228928 -1.620193
-0.256119 -7.225021 -1.608505
-0.259140 -7.223953 -1.604385
-0.252426 -7.223587 -1.603775
-0.256393 -7.222855 -1.604599
-0.268112 -7.218460 -1.621292
-0.271805 -7.214676 -1.620682
-0.272079 -7.199905 -1.618729
-0.277023 -7.196640 -1.621902
-0.277145 -7.195694 -1.615646
-0.265030 -7.203506 -1.604752
-0.264664 -7.207535 -1.605301
-0.271744 -7.191269 -1.606155
-0.256912 -7.207901 -1.591049
-0.251846 -7.218307 -1.588760
-0.259872 -7.189468 -1.588730
-0.258530 -7.201370 -1.589676
-0.253647 -7.192795 -1.574600
-0.253952 -7.196793 -1.573746
-0.255569 -7.193039 -1.572189
-0.278244 -7.175308 -1.623825
-0.276108 -7.180740 -1.616104
-0.272110 -7.165726 -1.615341
-0.267166 -7.185562 -1.602615
-0.268112 -7.165115 -1.608932
-0.267227 -7.168320 -1.600937
-0.278244 -7.151840 -1.623856
-0.268997 -7.150040 -1.614395
-0.274063 -7.150772 -1.616257
-0.264328 -7.136063 -1.613907
-0.264267 -7.137009 -1.611954
-0.262283 -7.153610 -1.600418
-0.259720 -7.137466 -1.601608
-0.256546 -7.140152 -1.600174
-0.253036 -7.125137 -1.599380
-0.262039 -7.181534 -1.591171
-0.256363 -7.156754 -1.586258
-0.262100 -7.171036 -1.586563
-0.260178 -7.157059 -1.593582
-0.260452 -7.157761 -1.587296
-0.257736 -7.177200 -1.575180
-0.255814 -7.174423 -1.572464
-0.252029 -7.159012 -1.571671
-0.252548 -7.148056 -1.572769
-0.251755 -7.176559 -1.557816
-0.256943 -7.123093 -1.613998
-0.259079 -7.119888 -1.616470
-0.254593 -7.102615 -1.618027
-0.250473 -7.123032 -1.597610
-0.123764 -7.006516 -1.663040
-0.241653 -7.063522 -1.673325
-0.232132 -7.035660 -1.703568
-0.234848 -7.050919 -1.688980
-0.245132 -7.045700 -1.702011
-0.238266 -7.046249 -1.692917
-0.230759 -7.038956 -1.690109
-0.223648 -7.039932 -1.690079
-0.231461 -7.019333 -1.717636
-0.243820 -7.029739 -1.716202
-0.237747 -7.031204 -1.707993
-0.219437 -7.018509 -1.704758
-0.230270 -7.024094 -1.705246
-0.218887 -7.025650 -1.705246
-0.199051 -7.018723 -1.708511
-0.201553 -7.018356 -1.704575
-0.209549 -7.030319 -1.691940
-0.212784 -7.029800 -1.687759
-0.189957 -7.023270 -1.695145
-0.201797 -7.026871 -1.687973
-0.212112 -7.007767 -1.701157
-0.194473 -7.015457 -1.702896
-0.176743 -7.002518 -1.714737
-0.178482 -7.012070 -1.712021
-0.170670 -7.015945 -1.698288
-0.183243 -7.010574 -1.702560
-0.160965 -7.004440 -1.699081
-0.233292 -7.067795 -1.659775
-0.238937 -7.067123 -1.660416
-0.248550 -7.077347 -1.657761
-0.244492 -7.095963 -1.629227
-0.239761 -7.081833 -1.644363
-0.239304 -7.077957 -1.644241
-0.226669 -7.071182 -1.645798
-0.231949 -7.074783 -1.642288
-0.234940 -7.084305 -1.629929
-0.239639 -7.087723 -1.627731
-0.232162 -7.081619 -1.625107
-0.220779 -7.074173 -1.631607
-0.208420 -7.064346 -1.633011
-0.203476 -7.033401 -1.677811
-0.225815 -7.055527 -1.675613
-0.248215 -7.060165 -1.687241
-0.238632 -7.057755 -1.676926
-0.231277 -7.054855 -1.675156
-0.220291 -7.045731 -1.673935
-0.229446 -7.053635 -1.665268
-0.220749 -7.058090 -1.661240
-0.215927 -7.043839 -1.676407
-0.213150 -7.042007 -1.671951
-0.206924 -7.048386 -1.662979
-0.194351 -7.037979 -1.664444
-0.202011 -7.034103 -1.671036
-0.219315 -7.014389 -1.685104
-0.194687 -7.023422 -1.686111
-0.188492 -7.024002 -1.679855
-0.194901 -7.030563 -1.669113
-0.231033 -7.047562 -1.654678
-0.220322 -7.046707 -1.655502
-0.220718 -7.059891 -1.639877
-0.202377 -7.047714 -1.655594
-0.213516 -7.054062 -1.656082
-0.213882 -7.061600 -1.647324
-0.202621 -7.050522 -1.648392
-0.195236 -7.043015 -1.653366
-0.187637 -7.041367 -1.650406
-0.213730 -7.061325 -1.639023
-0.195450 -7.050064 -1.636307
-0.202591 -7.054764 -1.638565
-0.196365 -7.053665 -1.634262
-0.131088 -7.002518 -1.681717
-0.167526 -7.017502 -1.683365
-0.176712 -7.019363 -1.685013
-0.183426 -7.017929 -1.685715
-0.158920 -7.003159 -1.681046
-0.166153 -7.014786 -1.684860
-0.176895 -7.026474 -1.668045
-0.183731 -7.029129 -1.669754
-0.179459 -7.028488 -1.666397
-0.157669 -7.022385 -1.670059
-0.166397 -7.025314 -1.668747
-0.159348 -7.021561 -1.666763
-0.125259 -7.005264 -1.674728
-0.141373 -7.006424 -1.681747
-0.149033 -7.008133 -1.683182
-0.146164 -7.011734 -1.686996
-0.140579 -7.014481 -1.672653
-0.141586 -7.016678 -1.665512
-0.149277 -7.019058 -1.667160
-0.135483 -7.017014 -1.658127
-0.131271 -7.012741 -1.665573
-0.172073 -7.032181 -1.652512
-0.177048 -7.033005 -1.650894
-0.183884 -7.034653 -1.652420
-0.177231 -7.039566 -1.633743
-0.184097 -7.042862 -1.635696
-0.182510 -7.043930 -1.635971
-0.167038 -7.034683 -1.638046
-0.166611 -7.034073 -1.633560
-0.159592 -7.032486 -1.632004
-0.159439 -7.026138 -1.649185
-0.166458 -7.027634 -1.650650
-0.131363 -7.017868 -1.648209
-0.153397 -7.024521 -1.655380
-0.149368 -7.023697 -1.649643
-0.146988 -7.027664 -1.641190
-0.141678 -7.020645 -1.647812
-0.127518 -7.020920 -1.644272
-0.141800 -7.027206 -1.630692
-0.149490 -7.030350 -1.632614
-0.142929 -7.029678 -1.626419
-0.131454 -7.023239 -1.630875
-0.106308 -7.001907 -1.643265
-0.112930 -7.009109 -1.646072
-0.123886 -7.013504 -1.646042
-0.124039 -7.022629 -1.629349
-0.124008 -7.019760 -1.628891
-0.112991 -7.013199 -1.628464
-0.097488 -7.001968 -1.632431
-0.108414 -7.013474 -1.631454
-0.106430 -7.010117 -1.626572
-0.215012 -7.247330 -1.539474
-0.248032 -7.243790 -1.616928
-0.247665 -7.237350 -1.604080
-0.235580 -7.248825 -1.604172
-0.246445 -7.230270 -1.595108
-0.233078 -7.246353 -1.587906
-0.237869 -7.234909 -1.581406
-0.242813 -7.232529 -1.588242
-0.232346 -7.237076 -1.573318
-0.230453 -7.243729 -1.571671
-0.229202 -7.239639 -1.567673
-0.238724 -7.228470 -1.572281
-0.249466 -7.211899 -1.577164
-0.248856 -7.215286 -1.572556
-0.242783 -7.215530 -1.563034
-0.248215 -7.144547 -1.586563
-0.247330 -7.144058 -1.579117
-0.247726 -7.127914 -1.585068
-0.245346 -7.146042 -1.571640
-0.241409 -7.131210 -1.570969
-0.239090 -7.135757 -1.563705
-0.241165 -7.133194 -1.562912
-0.226517 -7.239883 -1.555649
-0.222458 -7.243332 -1.553513
-0.235275 -7.225052 -1.556137
-0.234970 -7.219742 -1.549149
-0.223312 -7.236710 -1.539474
-0.231583 -7.221390 -1.540085
-0.229782 -7.222519 -1.534653
-0.245255 -7.211716 -1.556473
-0.246201 -7.204025 -1.551590
-0.248489 -7.191330 -1.557968
-0.247116 -7.196304 -1.560471
-0.241257 -7.207718 -1.540421
-0.246567 -7.189407 -1.541519
-0.244583 -7.197647 -1.545456
-0.220566 -7.235611 -1.529099
-0.230057 -7.219864 -1.523605
-0.220779 -7.234177 -1.523178
-0.228165 -7.223404 -1.519363
-0.223923 -7.225662 -1.504654
-0.219040 -7.232468 -1.506760
-0.211838 -7.249039 -1.524460
-0.212082 -7.247604 -1.522812
-0.217300 -7.237015 -1.503250
-0.211197 -7.246719 -1.506241
-0.237808 -7.208054 -1.531204
-0.238846 -7.205307 -1.524094
-0.246231 -7.191849 -1.527847
-0.241501 -7.199081 -1.530533
-0.232346 -7.203964 -1.501328
-0.228470 -7.218277 -1.507156
-0.239273 -7.200272 -1.515427
-0.236557 -7.203049 -1.507736
-0.247330 -7.161514 -1.557205
-0.247971 -7.178574 -1.543106
-0.244156 -7.163528 -1.543961
-0.242355 -7.164139 -1.542740
-0.242142 -7.162155 -1.531601
-0.238876 -7.149460 -1.557541
-0.241745 -7.149979 -1.547806
-0.238327 -7.132828 -1.556107
-0.237381 -7.134018 -1.547104
-0.236099 -7.150925 -1.542618
-0.236740 -7.133652 -1.540970
-0.229294 -7.125809 -1.531601
-0.246841 -7.179184 -1.527817
-0.244675 -7.187485 -1.525101
-0.240799 -7.164963 -1.527542
-0.242630 -7.181412 -1.513168
-0.242355 -7.185135 -1.508713
-0.234879 -7.156845 -1.510086
-0.242416 -7.170547 -1.514572
-0.239059 -7.165878 -1.512375
-0.232742 -7.152695 -1.527847
-0.237289 -7.146133 -1.528793
-0.235275 -7.154587 -1.528671
-0.233292 -7.135452 -1.526199
-0.234299 -7.139542 -1.525223
-0.231644 -7.150955 -1.512436
-0.229294 -7.154465 -1.513046
-0.227737 -7.138351 -1.511856
-0.178177 -7.062851 -1.560440
-0.240494 -7.098038 -1.614670
-0.239914 -7.095688 -1.610825
-0.249680 -7.109238 -1.613998
-0.245010 -7.111649 -1.599564
-0.236771 -7.099960 -1.599960
-0.240280 -7.106430 -1.594498
-0.229904 -7.086929 -1.615555
-0.221176 -7.074417 -1.624557
-0.221390 -7.081284 -1.607407
-0.232651 -7.089279 -1.608078
-0.225113 -7.089371 -1.601089
-0.203964 -7.066635 -1.618454
-0.214066 -7.071762 -1.622696
-0.215195 -7.077042 -1.617355
-0.210617 -7.079361 -1.602859
-0.214249 -7.077591 -1.605301
-0.195847 -7.064346 -1.602188
-0.199753 -7.068741 -1.603836
-0.202927 -7.067368 -1.604141
-0.239761 -7.114395 -1.585251
-0.235764 -7.108078 -1.583389
-0.232986 -7.099350 -1.591568
-0.231033 -7.102921 -1.585739
-0.240524 -7.114212 -1.577499
-0.236557 -7.116043 -1.570450
-0.233902 -7.099960 -1.574448
-0.233292 -7.109177 -1.574997
-0.225876 -7.105576 -1.571365
-0.221573 -7.087143 -1.590042
-0.221603 -7.091171 -1.586349
-0.221756 -7.093369 -1.572739
-0.207870 -7.080765 -1.587906
-0.214432 -7.083755 -1.587936
-0.203201 -7.076157 -1.587448
-0.195633 -7.070816 -1.589188
-0.195999 -7.069351 -1.584610
-0.206100 -7.081650 -1.572708
-0.217697 -7.093185 -1.571671
-0.214554 -7.088089 -1.570206
-0.203293 -7.079453 -1.569534
-0.195114 -7.071091 -1.573715
-0.196121 -7.073685 -1.566879
-0.184616 -7.063614 -1.565933
-0.191910 -7.055954 -1.619736
-0.202805 -7.062057 -1.621597
-0.195633 -7.057175 -1.619247
-0.138565 -7.031845 -1.611771
-0.184219 -7.048325 -1.618332
-0.178452 -7.045975 -1.621292
-0.177383 -7.045700 -1.616501
-0.163589 -7.036392 -1.623215
-0.166733 -7.039536 -1.616196
-0.159683 -7.036392 -1.614273
-0.173630 -7.048325 -1.606766
-0.186844 -7.058487 -1.605270
-0.184433 -7.055954 -1.601425
-0.177505 -7.049728 -1.598740
-0.157455 -7.039444 -1.608963
-0.166855 -7.045303 -1.598923
-0.159836 -7.042679 -1.597061
-0.149551 -7.033463 -1.614731
-0.141983 -7.035416 -1.595322
-0.152664 -7.041824 -1.594376
-0.149643 -7.037979 -1.597183
-0.131607 -7.031631 -1.595657
-0.134293 -7.033951 -1.597061
-0.131516 -7.026840 -1.613113
-0.141861 -7.030411 -1.612808
-0.170090 -7.050125 -1.591965
-0.183914 -7.059952 -1.590347
-0.184464 -7.058121 -1.583298
-0.177628 -7.055496 -1.581406
-0.166977 -7.049973 -1.581375
-0.159897 -7.045975 -1.579178
-0.165665 -7.045273 -1.579391
-0.181992 -7.060928 -1.575180
-0.177719 -7.059067 -1.563553
-0.167130 -7.051590 -1.577011
-0.166977 -7.051010 -1.563034
-0.131332 -7.035385 -1.582016
-0.149734 -7.042252 -1.579575
-0.150375 -7.042984 -1.579239
-0.142044 -7.038437 -1.577408
-0.148636 -7.043808 -1.563980
-0.131638 -7.032394 -1.577286
-0.130844 -7.035629 -1.566452
-0.213791 -7.095169 -1.557022
-0.233414 -7.112534 -1.556961
-0.231796 -7.118515 -1.555954
-0.221970 -7.100021 -1.555527
-0.224533 -7.106033 -1.556107
-0.227768 -7.120590 -1.541336
-0.233810 -7.124741 -1.540848
-0.222336 -7.107162 -1.541061
-0.222183 -7.107315 -1.538437
-0.214737 -7.093887 -1.552750
-0.212357 -7.095871 -1.541794
-0.214859 -7.097977 -1.534927
-0.202225 -7.083633 -1.558029
-0.203384 -7.082687 -1.551620
-0.191452 -7.072952 -1.558945
-0.196243 -7.077896 -1.549149
-0.203476 -7.086533 -1.533829
-0.200821 -7.084366 -1.542770
-0.189316 -7.073990 -1.543900
-0.225967 -7.121506 -1.526199
-0.222366 -7.113022 -1.520981
-0.226456 -7.122940 -1.515182
-0.225662 -7.121658 -1.510727
-0.222549 -7.118973 -1.503555
-0.209946 -7.097092 -1.526810
-0.218643 -7.097977 -1.530380
-0.218185 -7.109329 -1.526443
-0.214981 -7.101517 -1.516983
-0.216415 -7.110214 -1.511307
-0.207626 -7.098312 -1.511765
-0.199234 -7.085159 -1.527573
-0.203629 -7.092117 -1.516403
-0.196213 -7.077469 -1.530380
-0.196365 -7.082779 -1.512863
-0.196854 -7.086349 -1.512558
-0.184708 -7.067337 -1.548141
-0.176041 -7.063919 -1.545303
-0.177841 -7.062790 -1.545731
-0.174301 -7.064774 -1.530106
-0.177902 -7.065659 -1.527725
-0.187424 -7.074936 -1.528732
-0.184769 -7.069534 -1.530014
-0.172867 -7.065475 -1.514847
-0.184860 -7.073166 -1.512222
-0.185806 -7.075760 -1.513535
-0.177933 -7.066544 -1.509323
-0.131638 -7.033005 -1.558884
-0.159958 -7.048172 -1.561050
-0.164413 -7.052963 -1.561996
-0.162216 -7.054062 -1.546890
-0.160049 -7.052261 -1.543320
-0.167099 -7.055405 -1.545425
-0.160446 -7.054916 -1.531662
-0.129196 -7.036423 -1.551132
-0.142075 -7.039658 -1.559067
-0.149765 -7.043167 -1.561203
-0.145187 -7.045517 -1.549118
-0.142014 -7.047104 -1.534164
-0.142166 -7.043839 -1.541397
-0.149796 -7.045792 -1.543228
-0.145279 -7.042587 -1.535507
-0.131729 -7.037979 -1.541458
-0.127029 -7.037491 -1.535965
-0.160110 -7.054367 -1.525192
-0.167130 -7.056900 -1.527206
-0.158829 -7.055710 -1.516434
-0.167160 -7.058456 -1.508987
-0.160141 -7.055954 -1.506943
-0.156876 -7.056686 -1.501266
-0.149857 -7.048660 -1.525345
-0.142227 -7.046982 -1.518509
-0.142166 -7.044785 -1.523026
-0.127060 -7.037491 -1.520309
-0.131729 -7.038406 -1.523026
-0.142227 -7.047226 -1.505020
-0.149918 -7.050919 -1.507309
-0.140030 -7.048080 -1.503342
-0.125473 -7.038254 -1.505020
-0.131790 -7.041519 -1.505203
-0.124252 -7.032578 -1.538864
-0.092026 -7.004623 -1.602158
-0.113022 -7.016983 -1.610794
-0.121567 -7.023819 -1.614182
-0.124100 -7.024216 -1.611313
-0.094315 -7.003555 -1.617416
-0.105942 -7.014664 -1.616257
-0.119217 -7.024979 -1.598984
-0.095200 -7.002151 -1.607315
-0.106491 -7.013382 -1.608749
-0.104660 -7.015305 -1.600815
-0.103012 -7.016068 -1.585434
-0.113083 -7.019241 -1.592758
-0.124161 -7.028549 -1.593704
-0.113846 -7.027634 -1.584488
-0.095230 -7.004990 -1.589462
-0.106522 -7.014481 -1.590439
-0.113174 -7.025284 -1.575607
-0.124222 -7.031082 -1.575668
-0.114182 -7.027451 -1.568680
-0.100113 -7.017502 -1.570358
-0.106583 -7.018967 -1.572891
-0.095291 -7.008957 -1.571884
-0.091995 -7.004623 -1.586411
-0.089798 -7.005661 -1.571152
-0.088516 -7.003616 -1.569382
-0.087540 -7.006760 -1.555954
-0.106613 -7.020645 -1.554733
-0.113144 -7.023941 -1.556778
-0.124191 -7.030045 -1.556870
-0.114151 -7.027420 -1.552994
-0.100235 -7.017410 -1.554611
-0.095291 -7.011124 -1.553909
-0.113144 -7.025070 -1.538559
-0.113266 -7.027878 -1.537552
-0.100327 -7.017380 -1.538895
-0.106613 -7.020248 -1.536118
-0.095291 -7.010910 -1.535385
-0.088547 -7.004410 -1.551071
-0.087692 -7.006699 -1.540207
-0.088547 -7.005264 -1.532761
-0.124283 -7.034470 -1.520737
-0.124313 -7.035721 -1.502487
-0.099472 -7.017776 -1.523392
-0.113174 -7.025803 -1.520248
-0.113205 -7.027878 -1.521896
-0.106613 -7.021164 -1.517807
-0.095291 -7.010910 -1.516953
-0.112045 -7.028458 -1.506485
-0.113174 -7.027328 -1.502121
-0.098831 -7.018082 -1.507828
-0.088333 -7.006332 -1.524368
-0.088577 -7.005966 -1.514450
-0.086990 -7.006973 -1.508957
-0.097366 -7.001663 -1.181015
-0.098038 -7.366135 -1.422714
-0.015060 -7.424850 -1.424881
-0.012314 -7.437851 -1.495163
-0.009171 -7.442703 -1.490921
-0.007156 -7.440842 -1.474503
-0.067825 -7.417496 -1.499252
-0.069229 -7.416428 -1.498947
-0.072586 -7.409958 -1.488083
-0.094498 -7.383957 -1.492111
-0.081406 -7.400375 -1.491257
-0.083786 -7.398483 -1.488083
-0.093185 -7.385056 -1.488327
-0.092880 -7.388565 -1.491653
-0.081314 -7.396225 -1.471786
-0.068497 -7.406235 -1.472092
-0.086868 -7.388199 -1.477615
-0.092361 -7.384262 -1.471786
-0.065628 -7.403580 -1.455826
-0.080093 -7.395035 -1.455307
-0.083694 -7.389938 -1.462173
-0.088699 -7.380844 -1.455673
-0.074539 -7.395065 -1.447891
-0.070511 -7.399124 -1.446640
-0.063583 -7.401718 -1.439468
-0.076370 -7.391617 -1.439194
-0.071823 -7.394669 -1.439346
-0.087631 -7.379868 -1.439163
-0.017685 -7.432816 -1.499008
-0.043503 -7.428085 -1.489151
-0.047653 -7.428055 -1.488754
-0.059616 -7.420761 -1.488358
-0.038223 -7.423264 -1.473251
-0.055862 -7.417282 -1.472244
-0.020218 -7.429550 -1.490982
-0.020004 -7.433517 -1.487808
-0.019363 -7.428757 -1.474380
-0.032120 -7.417709 -1.457474
-0.053146 -7.417709 -1.466995
-0.053116 -7.414780 -1.455978
-0.031387 -7.418106 -1.458603
-0.049606 -7.411575 -1.439865
-0.057175 -7.410049 -1.445084
-0.002914 -7.437027 -1.458389
-0.021500 -7.430649 -1.465714
-0.021042 -7.430283 -1.457443
-0.016708 -7.426315 -1.441360
-0.024826 -7.424301 -1.443802
-0.013962 -7.427261 -1.446243
-0.000443 -7.434799 -1.442032
-0.015152 -7.425095 -1.439346
-0.028610 -7.414505 -1.441299
-0.061661 -7.405106 -1.446213
-0.074753 -7.394913 -1.431778
-0.075607 -7.390915 -1.422653
-0.086807 -7.379074 -1.422623
-0.064590 -7.395889 -1.401077
-0.085434 -7.377792 -1.406174
-0.074600 -7.389938 -1.406143
-0.066971 -7.391373 -1.378891
-0.083420 -7.375900 -1.389786
-0.071365 -7.386948 -1.389938
-0.028000 -7.413925 -1.424667
-0.047684 -7.409805 -1.423447
-0.044235 -7.406631 -1.407272
-0.029221 -7.415909 -1.421951
-0.012772 -7.422745 -1.408524
-0.026871 -7.412918 -1.408127
-0.061325 -7.402176 -1.423141
-0.061508 -7.399796 -1.423111
-0.060776 -7.399124 -1.406540
-0.031937 -7.410690 -1.399887
