0.011520 -7.561905 10.344437
0.039993 -7.523392 10.371689
0.049606 -7.503067 10.373276
0.082932 -7.500229 10.366623
0.075119 -7.503098 10.339890
0.082932 -7.506393 10.336594
0.179337 -7.571976 10.371780
0.177597 -7.599625 10.282242
0.172501 -7.575394 10.277451
0.195816 -7.581650 10.291611
0.125961 -7.515915 10.298752
0.182266 -7.539383 10.262344
0.143448 -7.504990 10.268448
0.159073 -7.511917 10.267532
0.147446 -7.534042 10.285172
0.158859 -7.555344 10.282608
0.141769 -7.521408 10.301773
0.162552 -7.516068 10.284103
0.179245 -7.599258 10.351059
0.183823 -7.623489 10.336807
0.180222 -7.598587 10.330185
0.177017 -7.573563 10.323196
0.178970 -7.571732 10.317581
0.196457 -7.591812 10.362808
0.142410 -7.511856 10.369553
0.149765 -7.533188 10.333450
0.180344 -7.542648 10.328690
0.167801 -7.551712 10.323380
0.182297 -7.540634 10.318344
0.143417 -7.503159 10.320297
0.162521 -7.514572 10.336533
0.170761 -7.537918 10.351364
0.127609 -7.515305 10.347885
0.159409 -7.502335 10.362930
0.172653 -7.523819 10.358536
0.195816 -7.540146 10.342575
0.225906 -7.553207 10.318527
0.016983 -7.639175 10.473068
0.015579 -7.643051 10.410751
0.034683 -7.662430 10.396591
0.019669 -7.648788 10.391953
0.072220 -7.678238 10.398453
0.025497 -7.650955 10.452286
0.037247 -7.655319 10.462967
0.094772 -7.670273 10.492355
0.147232 -7.666428 10.492813
0.164322 -7.641922 10.388412
0.136246 -7.674240 10.392166
0.149612 -7.657913 10.391068
0.157089 -7.662064 10.378372
0.147049 -7.655991 10.450333
0.127457 -7.667618 10.461319
0.168930 -7.629959 10.456619
0.161240 -7.639603 10.448532
0.030533 -7.510025 10.493515
0.004959 -7.576279 10.413223
0.002426 -7.608505 10.420731
0.032059 -7.520584 10.419144
0.011490 -7.549881 10.382675
0.030563 -7.518814 10.394913
0.018967 -7.521469 10.376236
0.011490 -7.545486 10.431686
0.013565 -7.547073 10.411697
0.068405 -7.500748 10.388412
0.093857 -7.502029 10.375412
0.029556 -7.519699 10.471848
0.009293 -7.545547 10.462723
0.018478 -7.529221 10.450760
0.030533 -7.511581 10.440079
0.011459 -7.540695 10.480515
0.175949 -7.574234 10.478622
0.176010 -7.574142 10.426895
0.186935 -7.622269 10.384445
0.176010 -7.624008 10.390396
0.179367 -7.599106 10.433762
0.177322 -7.597763 10.409103
0.178970 -7.571701 10.427414
0.156754 -7.515152 10.428482
0.171310 -7.538315 10.405441
0.173050 -7.552811 10.390121
0.182358 -7.543472 10.376907
0.162491 -7.512863 10.389053
0.153366 -7.531845 10.431992
0.169998 -7.550949 10.423355
0.182541 -7.539597 10.431778
0.182236 -7.538742 10.425430
0.199478 -7.512894 10.430618
0.178574 -7.571396 10.483475
0.177078 -7.597580 10.464798
0.172531 -7.621353 10.451157
0.179489 -7.599136 10.485367
0.191238 -7.588120 10.455704
0.162277 -7.503403 10.486649
0.177567 -7.547897 10.466354
0.173325 -7.539902 10.457504
0.139023 -7.510788 10.437576
0.142929 -7.503769 10.437973
0.162399 -7.508224 10.437790
0.182205 -7.537338 10.478867
0.184341 -7.537125 10.482773
0.161728 -7.508224 10.475632
0.057419 -7.496872 10.488266
0.106125 -7.498978 10.205368
0.150162 -7.427078 10.240768
0.049515 -7.492233 10.468796
0.067673 -7.494888 10.362167
0.086716 -7.492264 10.304123
0.086746 -7.495499 10.254227
0.106064 -7.495651 10.254776
0.124710 -7.496964 10.256973
0.106003 -7.490891 10.302567
0.124619 -7.492264 10.304855
0.086655 -7.486954 10.351456
0.067734 -7.499710 10.314072
0.124619 -7.492966 10.360519
0.105942 -7.486862 10.351669
0.143326 -7.498550 10.368698
0.089188 -7.483658 10.491562
0.059769 -7.497696 10.435349
0.049576 -7.497696 10.420914
0.083725 -7.487900 10.433426
0.081375 -7.494339 10.394577
0.086594 -7.481339 10.398666
0.123825 -7.489944 10.392776
0.123306 -7.499741 10.380508
0.105789 -7.477036 10.393051
0.124435 -7.481735 10.399948
0.067612 -7.488998 10.409073
0.124924 -7.497482 10.431503
0.105698 -7.470779 10.495285
0.067551 -7.482254 10.455032
0.085922 -7.488144 10.442245
0.086533 -7.477432 10.448593
0.124466 -7.484695 10.459488
0.105759 -7.474442 10.444748
0.118973 -7.484055 10.480179
0.129288 -7.491501 10.479446
0.143234 -7.493881 10.417313
0.144943 -7.481430 10.420120
0.143143 -7.489792 10.467056
0.102341 -7.622238 10.979263
0.000717 -7.607834 10.696701
0.025162 -7.650833 10.618332
0.021713 -7.649582 10.559372
0.016861 -7.639603 10.530350
0.025314 -7.650894 10.507339
0.037247 -7.655472 10.520523
0.091324 -7.667679 10.553696
0.123154 -7.664413 10.523819
0.014389 -7.646713 10.579483
0.054733 -7.665237 10.592819
0.038193 -7.652847 10.582016
0.087784 -7.665024 10.615555
0.118942 -7.661240 10.586594
0.141159 -7.651535 10.571396
0.144821 -7.654312 10.509506
0.167984 -7.630417 10.509506
0.160660 -7.639175 10.505051
0.165756 -7.631454 10.564224
0.158005 -7.637131 10.565323
0.011429 -7.523422 10.624680
0.000443 -7.574631 10.519211
0.030502 -7.506912 10.545120
0.011459 -7.533646 10.526443
0.008408 -7.545242 10.517105
0.029312 -7.519638 10.526901
0.019119 -7.520004 10.518936
0.030502 -7.502670 10.595474
0.007492 -7.544907 10.571671
0.024857 -7.518021 10.578232
0.011459 -7.528671 10.575577
0.020157 -7.504654 10.584824
0.028641 -7.508102 10.584000
0.003830 -7.543594 10.623947
0.183151 -7.574936 10.588028
0.180496 -7.572891 10.536179
0.176071 -7.596786 10.522141
0.172958 -7.621658 10.506088
0.176315 -7.574142 10.530136
0.177994 -7.599838 10.539078
0.192245 -7.586685 10.561172
0.191452 -7.587784 10.508682
0.155807 -7.500046 10.561386
0.171463 -7.550461 10.525253
0.175308 -7.541428 10.509903
0.182114 -7.533585 10.529404
0.143082 -7.501968 10.508896
0.160110 -7.529221 10.527847
0.162125 -7.507706 10.528427
0.179886 -7.544998 10.558456
0.186020 -7.534805 10.534012
0.180496 -7.572464 10.577530
0.180466 -7.598862 10.588455
0.171707 -7.620712 10.564102
0.177078 -7.597580 10.576553
0.197098 -7.579910 10.608902
0.181473 -7.506943 10.604477
0.178421 -7.547684 10.569412
0.151566 -7.505844 10.579056
0.174118 -7.514328 10.588120
0.181747 -7.518631 10.564560
0.187729 -7.551041 10.602066
0.190140 -7.529068 10.582504
0.036057 -7.651352 10.735916
0.037888 -7.655472 10.686325
0.018753 -7.634415 10.653641
0.039627 -7.648880 10.645584
0.041519 -7.655411 10.670273
0.081894 -7.660660 10.681534
0.113022 -7.656815 10.652512
0.042221 -7.657059 10.746658
0.019516 -7.632339 10.715256
0.040726 -7.645859 10.708298
0.077591 -7.657455 10.745499
0.109940 -7.654495 10.714371
0.133011 -7.645370 10.697678
0.134171 -7.646225 10.639023
0.154037 -7.634140 10.628067
0.157059 -7.635208 10.626785
0.142563 -7.641464 10.696579
0.148666 -7.630051 10.693497
0.014023 -7.514175 10.735794
0.011429 -7.520157 10.676926
0.022079 -7.517044 10.631332
0.033463 -7.501511 10.631973
0.002548 -7.543137 10.678635
0.018173 -7.515640 10.683578
0.019638 -7.512772 10.659897
0.011429 -7.513382 10.724472
0.170090 -7.564865 10.722610
0.178177 -7.571091 10.652542
0.175858 -7.600876 10.646408
0.167313 -7.617355 10.627518
0.172684 -7.594193 10.640091
0.183884 -7.571121 10.626053
0.193283 -7.585251 10.667374
0.164627 -7.504257 10.686264
0.144272 -7.508896 10.640091
0.165543 -7.527115 10.626266
0.182419 -7.520767 10.631088
0.175461 -7.541885 10.678207
0.188492 -7.531326 10.638168
0.156570 -7.609085 10.722031
0.162155 -7.613419 10.692642
0.165909 -7.589035 10.707840
0.144943 -7.508804 10.745255
0.184067 -7.537491 10.697464
0.137222 -7.511887 10.701187
0.162247 -7.502304 10.711166
0.156418 -7.530960 10.689713
0.167221 -7.552536 10.740829
0.169571 -7.537338 10.744858
0.142990 -7.504501 10.725571
0.161758 -7.508224 10.743820
0.203506 -7.510452 10.727585
0.002914 -7.510269 10.952286
0.023178 -7.641769 10.871750
0.029739 -7.646652 10.803360
0.019638 -7.632065 10.774918
0.041092 -7.644913 10.768784
0.036423 -7.654922 10.797653
0.074448 -7.655075 10.808060
0.106857 -7.652176 10.776688
0.035599 -7.654648 10.853592
0.019821 -7.631638 10.835098
0.041794 -7.643112 10.830765
0.072189 -7.653397 10.869583
0.102554 -7.648972 10.841324
0.123520 -7.638229 10.827927
0.126358 -7.640335 10.765701
0.130234 -7.646774 10.764236
0.144974 -7.627243 10.756668
0.009567 -7.512619 10.844620
0.011063 -7.513168 10.789413
0.011398 -7.509293 10.776230
0.011398 -7.500961 10.822189
0.162216 -7.580490 10.864731
0.162277 -7.580399 10.810898
0.158615 -7.610733 10.755569
0.161270 -7.585495 10.772690
0.165237 -7.579086 10.753952
0.144150 -7.614395 10.789932
0.176285 -7.624191 10.784164
0.162521 -7.507156 10.797104
0.162247 -7.502274 10.768661
0.152023 -7.532883 10.801407
0.165787 -7.534378 10.808487
0.166245 -7.553024 10.795395
0.165909 -7.561630 10.786789
0.180923 -7.541946 10.809738
0.159073 -7.583786 10.834000
0.152390 -7.610977 10.833817
0.141678 -7.624771 10.819595
0.139847 -7.511032 10.858444
0.162216 -7.501663 10.825699
0.151810 -7.533066 10.855392
0.163376 -7.532547 10.870255
0.163773 -7.554123 10.852005
0.163559 -7.559830 10.848343
0.180496 -7.542526 10.864761
0.163589 -7.505692 10.850174
0.016739 -7.637009 10.998947
0.022812 -7.649948 10.898239
0.019882 -7.631546 10.895218
0.041611 -7.643784 10.889877
0.089432 -7.639114 10.920944
0.065781 -7.645340 10.897995
0.120712 -7.636093 10.890579
0.044846 -7.658035 10.976852
0.020035 -7.631271 10.955978
0.042801 -7.640427 10.954636
0.064468 -7.647659 10.999100
0.067398 -7.640945 10.964188
0.095474 -7.643967 10.969315
0.002426 -7.510086 10.894638
0.150589 -7.585495 10.987198
0.154678 -7.580399 10.899277
0.149826 -7.612137 10.890732
0.151596 -7.605362 10.882645
0.159378 -7.529465 10.935135
0.164566 -7.504318 10.903580
0.162247 -7.502731 10.885635
0.160141 -7.557205 10.912155
0.207504 -7.504898 10.885574
0.150742 -7.577408 10.964249
0.128525 -7.614761 10.957687
0.148514 -7.603043 10.946091
0.156540 -7.527237 10.998520
0.149765 -7.534073 10.966202
0.156876 -7.557114 10.968643
0.162369 -7.508743 10.953201
0.156570 -7.554459 10.976608
0.188400 -7.531540 10.964340
0.049271 -7.459702 10.997574
0.030441 -7.489304 10.747604
0.055984 -7.496384 10.597824
0.055496 -7.496201 10.541794
0.049515 -7.492905 10.525558
0.042831 -7.488754 10.513596
0.066238 -7.487381 10.551773
0.067551 -7.480911 10.508926
0.086502 -7.475845 10.502060
0.112625 -7.481827 10.529648
0.124374 -7.478958 10.507217
0.086472 -7.472061 10.552841
0.092667 -7.478867 10.540756
0.115158 -7.493668 10.558090
0.105667 -7.469131 10.549057
0.124252 -7.470718 10.551682
0.049515 -7.489517 10.577011
0.105637 -7.466995 10.602493
0.067520 -7.479385 10.562881
0.110153 -7.481003 10.582901
0.067490 -7.475479 10.613876
0.064896 -7.487991 10.605637
0.086441 -7.468826 10.604721
0.092270 -7.479446 10.594742
0.124283 -7.473801 10.612564
0.122543 -7.490738 10.601883
0.142929 -7.478653 10.619919
0.162186 -7.499710 10.537338
0.132889 -7.486526 10.528427
0.143112 -7.486801 10.518692
0.176804 -7.487381 10.617661
0.141312 -7.474960 10.571732
0.142960 -7.479843 10.565079
0.161972 -7.489395 10.579117
0.167862 -7.499741 10.574905
0.038681 -7.490280 10.749588
0.038620 -7.494492 10.679672
0.030472 -7.498825 10.646683
0.052536 -7.495163 10.650406
0.049484 -7.485458 10.627853
0.049454 -7.481308 10.678940
0.086411 -7.467819 10.660141
0.071213 -7.485519 10.650925
0.092422 -7.479233 10.648300
0.104568 -7.479019 10.633408
0.067459 -7.472672 10.666794
0.117050 -7.493057 10.660904
0.124313 -7.475266 10.671524
0.105637 -7.465744 10.657516
0.045731 -7.484787 10.725113
0.030441 -7.493698 10.696457
0.047531 -7.493393 10.701706
0.024368 -7.442123 10.704239
0.049393 -7.474442 10.726425
0.083115 -7.480850 10.743027
0.073746 -7.484604 10.700882
0.093094 -7.478317 10.701370
0.114731 -7.494064 10.716537
0.102798 -7.478409 10.687759
0.067429 -7.468460 10.718063
0.086411 -7.466263 10.715164
0.105637 -7.466293 10.715561
0.096695 -7.476273 10.738205
0.124222 -7.469223 10.720169
0.132980 -7.486465 10.743301
0.143051 -7.484512 10.685196
0.143600 -7.494400 10.649582
0.134201 -7.484695 10.633896
0.162033 -7.492386 10.639938
0.143051 -7.485275 10.743698
0.132706 -7.486771 10.689560
0.059433 -7.466141 10.981186
0.011398 -7.496597 10.874222
0.030411 -7.483902 10.797623
0.049362 -7.472153 10.780869
0.048538 -7.480972 10.775955
0.022049 -7.477036 10.790054
0.036667 -7.489578 10.804184
0.091843 -7.474594 10.790054
0.121567 -7.491379 10.761734
0.096939 -7.473068 10.750778
0.067398 -7.467239 10.773941
0.086349 -7.462296 10.767105
0.105576 -7.461929 10.766922
0.097397 -7.472427 10.804489
0.124313 -7.474686 10.785782
0.021286 -7.489243 10.867203
0.049362 -7.469101 10.834518
0.051712 -7.476669 10.826462
0.030411 -7.483658 10.855515
0.034164 -7.488693 10.858505
0.098190 -7.471359 10.857986
0.086960 -7.472885 10.842087
0.124252 -7.471848 10.839767
0.119003 -7.492477 10.818253
0.067368 -7.464066 10.827438
0.086319 -7.459885 10.821671
0.105545 -7.460037 10.822220
0.145157 -7.491776 10.863510
0.132950 -7.486435 10.797501
0.144424 -7.491196 10.806931
0.143021 -7.484146 10.799911
0.144485 -7.481430 10.860886
0.132614 -7.486923 10.852371
0.142990 -7.482742 10.856064
0.011368 -7.485703 10.976151
0.057877 -7.468277 10.928177
0.030380 -7.476761 10.904099
0.054947 -7.472275 10.877090
0.049332 -7.466476 10.889236
0.011368 -7.489304 10.922318
0.031326 -7.487717 10.912735
0.086288 -7.456802 10.934494
0.079697 -7.470383 10.892044
0.124252 -7.471878 10.898361
0.095810 -7.475937 10.888931
0.067337 -7.460098 10.880173
0.086288 -7.456619 10.875351
0.105515 -7.458725 10.878799
0.100601 -7.468033 10.909592
0.026718 -7.407516 10.906815
0.049301 -7.462173 10.941849
0.027939 -7.486526 10.966690
0.030380 -7.474899 10.960373
0.028549 -7.476608 10.958054
0.067337 -7.459457 10.997421
0.080826 -7.470749 10.950302
0.124252 -7.471420 10.956711
0.067337 -7.461899 10.941696
0.100815 -7.467789 10.964188
0.105515 -7.459305 10.938522
0.086258 -7.454636 10.990616
0.105484 -7.456619 10.993912
0.142960 -7.481003 10.971237
0.146194 -7.453598 10.922104
0.135880 -7.482468 10.902939
0.146011 -7.492416 10.920242
0.142990 -7.481583 10.913040
0.152359 -7.497391 10.968185
0.138412 -7.478989 10.954636
0.104996 -7.624252 11.457748
0.102737 -7.614975 11.444626
0.482529 -7.831619 11.111526
0.137741 -7.591171 11.223862
0.019424 -7.638992 11.112869
0.015335 -7.635941 11.060226
0.020096 -7.631210 11.016861
0.043381 -7.638931 11.017410
0.062729 -7.646347 11.061050
0.068100 -7.639084 11.027420
0.115097 -7.631882 11.017075
0.092850 -7.642014 11.032578
0.097549 -7.628830 11.051804
0.062485 -7.646164 11.120926
0.043259 -7.639359 11.077988
0.097885 -7.627945 11.114334
0.092117 -7.641464 11.093094
0.069382 -7.635544 11.093338
0.113480 -7.630630 11.079025
0.124741 -7.611923 11.022842
0.143234 -7.588730 11.105942
0.147324 -7.586960 11.045914
0.143509 -7.571854 11.035233
0.153244 -7.551895 11.041153
0.152969 -7.558853 11.028030
0.146042 -7.535660 11.025314
0.134964 -7.513229 11.027328
0.162552 -7.516953 11.024521
0.165237 -7.503433 11.012558
0.176895 -7.547592 11.033981
0.128860 -7.615036 11.075211
0.130386 -7.620560 11.077866
0.140762 -7.597122 11.077072
0.166916 -7.561478 11.101974
0.149307 -7.560440 11.087448
0.145004 -7.536209 11.081589
0.134933 -7.513321 11.082352
0.152542 -7.524155 11.064285
0.162003 -7.507950 11.071915
0.011276 -7.645737 11.233871
0.016861 -7.647781 11.180954
0.019058 -7.634415 11.135269
0.026779 -7.644455 11.160446
0.063614 -7.646988 11.178970
0.093491 -7.642471 11.150589
0.068314 -7.638657 11.150803
0.111954 -7.629471 11.141312
0.097672 -7.628708 11.175064
0.121506 -7.636673 11.185287
0.030319 -7.647110 11.214615
0.018692 -7.635605 11.195572
0.042282 -7.642380 11.197403
0.097672 -7.628799 11.237045
0.076492 -7.656601 11.217636
0.102005 -7.648880 11.196365
0.157089 -7.575150 11.226028
0.140701 -7.589890 11.164444
0.138016 -7.595047 11.141342
0.128677 -7.614883 11.135239
0.125290 -7.622787 11.139328
0.143936 -7.572189 11.153610
0.136398 -7.620743 11.182236
0.150436 -7.604507 11.180405
0.164780 -7.564468 11.160355
0.143417 -7.500870 11.159348
0.148117 -7.561050 11.144272
0.141495 -7.537704 11.141159
0.151230 -7.523117 11.126022
0.135147 -7.513321 11.137344
0.160019 -7.510696 11.129868
0.144547 -7.545181 11.174973
0.158707 -7.512527 11.187241
0.145279 -7.600571 11.249557
0.126633 -7.622299 11.193283
0.156143 -7.516098 11.246414
0.146469 -7.561783 11.201889
0.140396 -7.538254 11.198105
0.134903 -7.513474 11.193253
0.143356 -7.502182 11.232925
0.121628 -7.502182 11.479050
0.057846 -7.642685 11.370804
0.005783 -7.643753 11.287125
0.019180 -7.634262 11.259659
0.031570 -7.647995 11.272995
0.042618 -7.641525 11.260849
0.073074 -7.654037 11.283951
0.091141 -7.640732 11.275162
0.110428 -7.628372 11.264389
0.018021 -7.637589 11.317856
0.042892 -7.640915 11.324387
0.068649 -7.638016 11.338852
0.099838 -7.647202 11.321426
0.124008 -7.611374 11.263596
0.122086 -7.624283 11.254776
0.137833 -7.594894 11.323135
0.132645 -7.593399 11.286209
0.141586 -7.563889 11.263901
0.146896 -7.589340 11.295273
0.141586 -7.542892 11.300949
0.135483 -7.540359 11.260117
0.128433 -7.516220 11.257187
0.147446 -7.520187 11.252670
0.143387 -7.503098 11.368484
0.131851 -7.508133 11.340103
0.125626 -7.517441 11.316940
0.142349 -7.518967 11.313126
0.137680 -7.539871 11.368759
0.017044 -7.640671 11.440231
0.017502 -7.639328 11.378616
0.042526 -7.642044 11.385971
0.035599 -7.651016 11.388290
0.069016 -7.637100 11.403305
0.106277 -7.625198 11.393784
0.042313 -7.642685 11.448624
0.068710 -7.638138 11.465530
0.088394 -7.638626 11.464127
0.096085 -7.502640 11.455734
0.122238 -7.610001 11.388931
0.119675 -7.519974 11.380997
0.110245 -7.523911 11.449783
0.120682 -7.546677 11.448563
0.135574 -7.605148 11.479935
0.131424 -7.589981 11.395493
0.131088 -7.594223 11.401382
0.134811 -7.566849 11.385330
0.143326 -7.533859 11.432144
0.126724 -7.544113 11.383987
0.130997 -7.562271 11.418900
0.130386 -7.568771 11.447891
0.131210 -7.562424 11.480484
0.030289 -7.461838 11.491653
0.011307 -7.457901 11.236374
0.030289 -7.459946 11.117752
0.030319 -7.462601 11.061508
0.022842 -7.484726 11.019211
0.021896 -7.481155 11.008957
0.011368 -7.478439 11.024979
0.030350 -7.468246 11.009995
0.010757 -7.470505 11.060226
0.036514 -7.473587 11.057907
0.049271 -7.457993 11.054794
0.060867 -7.464218 11.034531
0.070389 -7.467087 11.055191
0.092422 -7.477463 11.001694
0.124222 -7.470657 11.015030
0.074173 -7.468430 11.001236
0.100784 -7.467819 11.019272
0.114792 -7.494492 11.040359
0.067307 -7.456100 11.052200
0.086227 -7.453476 11.048630
0.105484 -7.455917 11.052597
0.049240 -7.454544 11.109879
0.011337 -7.474014 11.078323
0.016403 -7.482468 11.070602
0.022141 -7.477646 11.080246
0.061722 -7.463028 11.088791
0.011673 -7.480820 11.123886
0.005722 -7.477280 11.121933
0.036545 -7.473618 11.112961
0.068130 -7.466324 11.110916
0.118973 -7.492844 11.090317
0.124222 -7.470688 11.074905
0.101761 -7.466476 11.073288
0.097092 -7.475754 11.105942
0.067276 -7.453354 11.108292
0.086197 -7.451706 11.106125
0.105453 -7.455856 11.112656
0.149002 -7.464371 11.106705
0.141953 -7.489273 11.044357
0.142960 -7.481003 11.030746
0.143631 -7.496140 11.011765
0.134872 -7.483871 11.014053
0.133713 -7.482864 11.117508
0.144180 -7.487350 11.080917
0.136673 -7.481400 11.066971
0.142960 -7.481461 11.091385
0.030228 -7.446457 11.219223
0.011307 -7.462601 11.182327
0.011337 -7.469681 11.132217
0.022995 -7.465439 11.148087
0.006882 -7.479111 11.177353
0.030289 -7.455734 11.172104
0.014969 -7.464798 11.166092
0.056595 -7.462296 11.157730
0.049210 -7.449478 11.162857
0.068436 -7.461014 11.185287
0.121323 -7.491989 11.142807
0.102493 -7.473648 11.154800
0.063370 -7.460800 11.142258
0.085342 -7.467361 11.147171
0.100876 -7.467697 11.129837
0.124161 -7.466537 11.129044
0.072067 -7.448990 11.186935
0.067245 -7.450089 11.164017
0.086166 -7.448837 11.162430
0.105453 -7.455673 11.173050
0.124100 -7.463394 11.185043
0.109970 -7.455276 11.173965
0.054123 -7.441788 11.248123
0.023666 -7.455246 11.216843
0.033646 -7.449844 11.217117
0.041458 -7.457016 11.201096
0.049118 -7.437515 11.205887
0.005966 -7.478775 11.234909
0.081406 -7.455887 11.225204
0.103531 -7.473282 11.209213
0.121933 -7.491806 11.197647
0.086075 -7.455917 11.215378
0.086044 -7.438309 11.207626
0.105301 -7.443985 11.216507
0.124039 -7.460617 11.242020
0.067093 -7.436081 11.203964
0.164993 -7.442398 11.197464
0.139816 -7.477036 11.173965
0.142929 -7.479813 11.149277
0.140274 -7.487961 11.166214
0.142929 -7.478989 11.208908
0.049271 -7.458206 11.486221
0.030319 -7.463852 11.369125
0.030258 -7.451950 11.288986
0.049149 -7.442032 11.274124
0.032974 -7.454086 11.251236
0.011154 -7.480637 11.298874
0.062119 -7.463669 11.305008
0.065903 -7.457352 11.306808
0.101700 -7.474106 11.267471
0.119308 -7.492966 11.256851
0.086075 -7.440231 11.271927
0.085770 -7.461105 11.290634
0.105362 -7.448532 11.284866
0.067093 -7.435104 11.263870
0.059860 -7.465652 11.370956
0.011337 -7.468185 11.313522
0.015091 -7.481979 11.361893
0.005661 -7.477432 11.346146
0.049240 -7.455856 11.357101
0.067276 -7.454544 11.355331
0.124405 -7.482468 11.336685
0.108047 -7.497604 11.327072
0.085007 -7.473831 11.369217
0.085342 -7.480789 11.344070
0.097000 -7.472244 11.358322
0.086258 -7.456375 11.358414
0.128922 -7.492050 11.356155
0.143265 -7.497177 11.297592
0.057968 -7.468216 11.486862
0.030319 -7.465103 11.433578
0.004410 -7.479080 11.404251
0.011337 -7.473068 11.383102
0.040665 -7.472366 11.388077
0.017349 -7.482803 11.423538
0.049271 -7.459671 11.425461
0.058578 -7.467422 11.429214
0.067307 -7.457993 11.423111
0.108841 -7.497391 11.382797
0.105728 -7.475449 11.387833
0.077713 -7.483963 11.410294
0.093521 -7.477066 11.419388
0.124588 -7.493973 11.416519
0.120590 -7.499374 11.420792
0.086319 -7.461533 11.428787
0.014481 -7.481796 11.480240
0.007431 -7.475052 11.457169
0.011337 -7.471634 11.443558
0.035690 -7.474442 11.451279
0.067307 -7.459915 11.489059
0.084793 -7.477737 11.444321
0.105667 -7.470108 11.442337
0.074722 -7.485245 11.471207
0.090652 -7.480972 11.479904
0.124680 -7.498581 11.486404
0.086349 -7.464188 11.495926
0.125015 -7.497482 11.417770
0.101242 -7.592270 11.950668
0.112839 -7.602859 11.718643
0.015854 -7.644333 11.563400
0.016434 -7.642532 11.501541
0.041458 -7.645187 11.509079
0.075638 -7.629044 11.548447
0.069260 -7.636612 11.531601
0.041946 -7.643967 11.575119
0.034073 -7.649857 11.577194
0.070053 -7.634628 11.598831
0.085312 -7.636307 11.594437
0.103958 -7.623459 11.584457
0.095291 -7.616928 11.536758
0.105026 -7.608780 11.516953
0.118576 -7.607254 11.519211
0.089798 -7.505264 11.521072
0.117233 -7.548172 11.510330
0.109756 -7.524185 11.507828
0.105667 -7.607101 11.583542
0.117508 -7.606430 11.583725
0.124771 -7.504562 11.622849
0.116745 -7.548477 11.568680
0.089035 -7.505661 11.579849
0.121902 -7.527725 11.582230
0.105270 -7.526108 11.571213
0.124832 -7.508835 11.565536
0.131882 -7.562943 11.604446
0.131912 -7.563004 11.541580
0.130081 -7.588974 11.521805
0.130753 -7.568680 11.504807
0.130875 -7.589584 11.583084
0.062057 -7.645828 11.739334
0.013199 -7.652054 11.682419
0.018112 -7.637924 11.636978
0.057571 -7.667343 11.662735
0.070419 -7.633682 11.665024
0.088821 -7.638992 11.651413
0.038773 -7.653152 11.692215
0.016678 -7.663528 11.711746
0.093582 -7.642532 11.706680
0.103256 -7.622940 11.648819
0.105606 -7.607468 11.647781
0.117661 -7.606552 11.646561
0.093155 -7.504074 11.632736
0.107651 -7.525223 11.626297
0.137741 -7.594803 11.697647
0.127640 -7.587112 11.651840
0.135086 -7.537888 11.685440
0.128342 -7.532700 11.633896
0.130905 -7.562180 11.669418
0.138870 -7.513504 11.702042
0.071091 -7.507889 11.969040
0.009720 -7.662369 11.865585
0.009293 -7.663406 11.797836
0.045486 -7.658340 11.811752
0.063431 -7.646805 11.801132
0.084610 -7.635788 11.786514
0.039139 -7.652390 11.824875
0.103561 -7.541214 11.845779
0.073593 -7.624985 11.808365
0.083115 -7.506210 11.826431
0.007095 -7.670059 11.988571
0.060135 -7.644363 11.936630
0.039902 -7.650345 11.894180
0.009872 -7.662033 11.932877
0.045822 -7.685043 11.918442
0.075394 -7.628860 11.932449
0.039871 -7.650436 11.960953
0.081253 -7.536057 11.988815
0.077560 -7.614029 11.890121
0.035843 -7.501511 11.931320
0.100052 -7.531967 11.912247
0.075699 -7.501572 11.904068
0.082596 -7.514755 11.904678
0.106247 -7.513412 11.897049
0.087112 -7.556198 11.981613
0.086777 -7.503830 11.947922
0.095169 -7.538712 11.977676
0.030350 -7.480606 11.977036
0.049240 -7.457809 11.742569
0.011368 -7.492325 11.602280
0.049271 -7.459366 11.551468
0.010513 -7.470871 11.510178
0.037399 -7.473862 11.506516
0.011307 -7.468704 11.502151
0.011307 -7.480698 11.536911
0.042496 -7.471878 11.557785
0.067337 -7.461441 11.554916
0.084274 -7.486313 11.521591
0.095779 -7.473984 11.530228
0.105728 -7.476120 11.514694
0.072495 -7.486221 11.531479
0.086349 -7.465988 11.562271
0.062912 -7.461472 11.537430
0.008804 -7.479782 11.594559
0.030380 -7.480667 11.584335
0.014175 -7.465897 11.562546
0.105911 -7.489273 11.598740
0.074631 -7.485428 11.586624
0.084579 -7.481888 11.593460
0.013870 -7.481583 11.721085
0.015732 -7.463821 11.675491
0.005386 -7.478592 11.651505
0.049210 -7.451523 11.667740
0.067245 -7.454239 11.672195
0.084885 -7.477646 11.665573
0.097885 -7.476700 11.675156
0.053604 -7.467636 11.718552
0.067245 -7.452957 11.735123
0.071060 -7.467361 11.708328
0.085312 -7.470993 11.736771
0.086197 -7.451797 11.733597
0.038528 -7.494766 11.976028
0.086624 -7.488937 11.857895
0.028000 -7.486526 11.796921
0.011307 -7.469284 11.760391
0.030289 -7.464310 11.752609
0.105576 -7.465134 11.755020
0.049332 -7.473373 11.965591
0.011337 -7.480179 11.909500
0.030350 -7.481155 11.911118
0.041611 -7.490585 11.913040
0.049393 -7.482956 11.914169
0.067551 -7.489517 11.924820
1.107559 -12.011063 19.742325
1.120712 -12.004959 19.716751
-0.403305 -9.199661 13.488876
-0.391068 -9.187668 13.473221
-0.068893 -9.010452 12.499161
-0.050247 -9.017868 12.499283
-0.046860 -9.009384 12.439316
-0.064957 -9.000473 12.367477
-0.004288 -9.000839 12.265762
-0.045242 -9.005264 12.372208
-0.004013 -9.015671 12.456039
-0.066208 -9.003677 12.436172
-0.023514 -9.007370 12.382187
-0.026382 -9.014511 12.444107
-0.282944 -9.075394 12.998886
-0.191452 -9.033554 12.748459
-0.109818 -9.169327 12.518204
-0.094254 -9.021347 12.618332
-0.072159 -9.018723 12.559982
-0.086166 -9.000931 12.503067
-0.053482 -9.025955 12.560349
-0.007034 -9.023178 12.517838
-0.029495 -9.022232 12.505386
-0.113235 -9.014206 12.617752
-0.107925 -9.000748 12.565628
-0.089249 -9.008743 12.564743
-0.076797 -9.030319 12.615341
-0.087967 -9.017838 12.596268
-0.056961 -9.034653 12.620865
-0.010513 -9.031754 12.578171
-0.031845 -9.028152 12.570389
-0.182266 -9.018387 12.722885
-0.145859 -9.025925 12.678146
-0.155624 -9.005630 12.681717
-0.139267 -9.019424 12.670334
-0.175858 -9.011215 12.709793
-0.165726 -9.031601 12.712296
-0.147629 -9.040756 12.709152
-0.126083 -9.046799 12.712875
-0.167648 -9.005875 12.708694
-0.101761 -9.040421 12.737747
-0.099136 -9.033768 12.672714
-0.117996 -9.003220 12.627853
-0.120132 -9.031693 12.663040
-0.080063 -9.038498 12.677170
-0.061234 -9.045364 12.678238
-0.036514 -9.039627 12.625961
-0.014694 -9.042038 12.635880
-0.062820 -9.049393 12.748001
-0.083023 -9.046036 12.740677
-0.039780 -9.047745 12.687973
-0.017197 -9.048203 12.701401
-0.270157 -9.070084 12.982376
-0.360947 -9.125320 12.939529
-0.303116 -9.185776 12.979874
-0.261124 -9.111282 12.999405
-0.257401 -9.076462 12.930130
-0.258316 -9.058334 12.934982
-0.263016 -9.057785 12.924759
-0.256027 -9.041367 12.915024
-0.261002 -9.113968 12.983047
-0.254807 -9.094681 12.950180
-0.270981 -9.078842 12.965714
-0.260727 -9.072678 12.943344
-0.260056 -9.049301 12.979233
-0.268143 -9.035324 12.967972
-0.254684 -9.042862 12.946487
-0.257523 -9.030533 12.964523
-0.192093 -9.081985 12.981247
-0.237991 -9.065201 12.862961
-0.199539 -9.063034 12.797806
-0.179672 -9.067429 12.803055
-0.168198 -9.072006 12.804703
-0.223831 -9.023788 12.803543
-0.201279 -9.034927 12.763168
-0.191483 -9.042221 12.757523
-0.207108 -9.026749 12.772324
-0.189621 -9.027206 12.751144
-0.198227 -9.000229 12.750229
-0.190750 -9.000198 12.769211
-0.216904 -9.052200 12.804306
-0.214523 -9.025314 12.805588
-0.205643 -9.018692 12.798111
-0.211655 -9.011765 12.798172
-0.147171 -9.061447 12.782272
-0.173813 -9.052383 12.752365
-0.153915 -9.056839 12.757614
-0.223770 -9.070175 12.850082
-0.194443 -9.080795 12.836197
-0.204971 -9.077164 12.850479
-0.185135 -9.081589 12.855637
-0.234726 -9.015884 12.873459
-0.220993 -9.058762 12.822220
-0.231888 -9.034439 12.823227
-0.190781 -9.001999 12.840103
-0.244888 -9.046890 12.861130
-0.235519 -9.047012 12.849014
-0.240280 -9.056473 12.861710
-0.238571 -9.016495 12.852982
-0.214218 -9.012039 12.855148
-0.150375 -9.059769 12.862320
-0.167587 -9.002853 12.840652
-0.015823 -9.044998 12.784286
-0.039413 -9.047012 12.766373
-0.217117 -9.115646 12.992569
-0.206833 -9.098801 12.915115
-0.230484 -9.087723 12.896866
-0.228592 -9.087296 12.880905
-0.247940 -9.076584 12.903976
-0.210739 -9.092178 12.901871
-0.184982 -9.085678 12.893143
-0.171036 -9.070511 12.884232
-0.234634 -9.012161 12.937271
-0.237167 -9.033524 12.886612
-0.242111 -9.014786 12.915726
-0.211655 -9.010910 12.934677
-0.201340 -9.101639 12.979904
-0.236374 -9.103134 12.947922
-0.231186 -9.108444 12.943466
-0.215012 -9.103317 12.960770
-0.190231 -9.056168 12.998917
-0.237106 -9.031113 12.952225
-0.214645 -9.029831 12.949600
-0.207993 -9.013321 12.942551
-0.003983 -9.016464 12.913834
-0.271347 -8.862106 12.385117
-0.097427 -8.847000 12.494583
-0.109085 -8.836227 12.221176
-0.132431 -8.888596 12.057755
-0.094162 -8.965225 12.110886
-0.110031 -8.944016 12.061142
-0.093887 -8.964340 12.040817
-0.072281 -8.965469 12.051682
-0.054642 -8.974258 12.049118
-0.010239 -8.974167 12.004227
-0.002090 -8.979996 12.002762
-0.034622 -8.978561 12.054611
-0.032181 -8.985672 12.039597
-0.018570 -8.994644 12.040726
-0.104202 -8.936905 12.035477
-0.122818 -8.920547 12.016830
-0.120956 -8.892746 12.002274
-0.112259 -8.949783 12.123062
-0.074570 -8.971298 12.113419
-0.038071 -8.987167 12.111618
-0.061935 -8.992416 12.089951
-0.015488 -8.987228 12.124893
-0.026138 -8.988968 12.097244
-0.121750 -8.892380 12.063950
-0.111313 -8.933487 12.090469
-0.124191 -8.924118 12.082016
-0.102341 -8.830032 12.117783
-0.106735 -8.827957 12.050247
-0.078476 -8.847214 12.001205
-0.118759 -8.822372 12.006302
-0.121902 -8.858047 12.049423
-0.120560 -8.851974 12.036331
-0.068588 -8.841934 12.048447
-0.001328 -8.833939 12.036880
-0.022995 -8.845718 12.004990
-0.073685 -8.768356 12.058762
-0.096756 -8.787521 12.021713
-0.076065 -8.787216 12.010696
-0.098068 -8.797897 12.045395
-0.098038 -8.803787 12.033646
-0.070145 -8.775070 12.060684
-0.052200 -8.766617 12.056137
-0.053940 -8.782028 12.003372
-0.052231 -8.772415 12.000565
-0.028366 -8.759445 12.028549
-0.008133 -8.773697 12.002121
-0.053879 -8.773911 12.055710
-0.031784 -8.766312 12.045120
-0.030411 -8.756485 12.042068
-0.008133 -8.753708 12.038223
-0.098221 -8.820328 12.119980
-0.112106 -8.830246 12.074265
-0.117966 -8.859940 12.116501
-0.119064 -8.844162 12.099564
-0.120712 -8.862106 12.113754
-0.022537 -8.845657 12.124863
-0.044479 -8.828842 12.077347
-0.096939 -8.802048 12.105423
-0.076065 -8.790146 12.078232
-0.087845 -8.802689 12.119247
-0.030472 -8.768936 12.123215
-0.036880 -8.755478 12.082077
-0.008133 -8.768234 12.122177
-0.127213 -8.931992 12.212845
-0.135605 -8.897018 12.187057
-0.126297 -8.929611 12.144577
-0.133347 -8.891129 12.125046
-0.097549 -8.973953 12.240768
-0.114029 -8.954453 12.187332
-0.096817 -8.972000 12.171494
-0.076431 -8.975967 12.177567
-0.038467 -8.988297 12.181870
-0.058609 -8.984299 12.175766
-0.021286 -8.991592 12.157333
-0.122543 -8.891983 12.125931
-0.116531 -8.930984 12.147751
-0.078415 -8.981064 12.241531
-0.049301 -8.999344 12.190262
-0.013809 -8.995682 12.213181
-0.123306 -8.891617 12.188278
-0.119583 -8.929520 12.207687
-0.120895 -8.876907 12.198135
-0.034470 -8.882187 12.217850
-0.076340 -8.821365 12.249985
-0.099564 -8.831314 12.183884
-0.109726 -8.835068 12.148697
-0.116409 -8.860641 12.181259
-0.119186 -8.853195 12.176132
-0.076279 -8.813736 12.174820
-0.073929 -8.794266 12.158554
-0.005386 -8.789261 12.165848
-0.054031 -8.799911 12.155472
-0.031876 -8.787827 12.138626
-0.059219 -8.811020 12.148819
-0.052322 -8.788956 12.150986
-0.048386 -8.785202 12.147018
-0.115891 -8.860916 12.245255
-0.098343 -8.831314 12.199356
-0.097092 -8.815353 12.188034
-0.119278 -8.859543 12.249496
-0.073990 -8.802383 12.234451
-0.065109 -8.798721 12.213272
-0.080032 -8.806351 12.190811
-0.052414 -8.800766 12.232010
-0.057114 -8.799179 12.193832
-0.008163 -8.791275 12.218613
-0.054092 -8.809433 12.233200
-0.031937 -8.803879 12.225327
-0.037552 -8.790237 12.222061
-0.030533 -8.793381 12.221603
-0.076523 -8.845291 12.480392
-0.130356 -8.940384 12.344742
-0.126846 -8.889908 12.311539
-0.129166 -8.937180 12.276840
-0.135910 -8.897934 12.258102
-0.137192 -8.901321 12.325394
-0.127670 -8.925613 12.326218
-0.106674 -8.972855 12.365402
-0.099991 -8.980209 12.303177
-0.115555 -8.958389 12.253342
-0.061996 -8.992966 12.306717
-0.017349 -8.992111 12.261490
-0.042160 -8.997574 12.311783
-0.121414 -8.892502 12.253769
-0.122635 -8.928055 12.267868
-0.025955 -8.877609 12.267838
-0.082626 -8.991837 12.369827
-0.094009 -8.978989 12.315292
-0.116318 -8.960434 12.323044
-0.020096 -8.998947 12.323013
-0.121017 -8.885422 12.339615
-0.098465 -8.842545 12.344955
-0.107712 -8.838943 12.294815
-0.120865 -8.874649 12.259598
-0.098434 -8.838852 12.274582
-0.094528 -8.833694 12.252823
-0.097153 -8.822159 12.262283
-0.117905 -8.859940 12.306747
-0.054153 -8.818130 12.310318
-0.031967 -8.814316 12.304855
-0.074051 -8.810989 12.311630
-0.072891 -8.809677 12.262100
-0.052475 -8.810013 12.310043
-0.059647 -8.809830 12.291885
-0.020920 -8.797989 12.303818
-0.010239 -8.796646 12.294510
-0.030594 -8.804703 12.302475
-0.008194 -8.809128 12.308609
-0.104630 -8.845169 12.370743
-0.119278 -8.859116 12.314011
-0.097244 -8.829086 12.337204
-0.090652 -8.835526 12.320877
-0.076401 -8.828018 12.324356
-0.067276 -8.812332 12.332108
-0.060959 -8.806961 12.362320
-0.030594 -8.808456 12.373367
-0.017227 -8.807236 12.365646
-0.131088 -8.942490 12.489639
-0.130539 -8.940964 12.417679
-0.135971 -8.898300 12.404282
-0.126755 -8.925613 12.391129
-0.133163 -8.915237 12.398361
-0.133530 -8.892197 12.489151
-0.128250 -8.924881 12.453934
-0.122177 -8.938065 12.484726
-0.103714 -8.989883 12.434402
-0.099960 -8.980331 12.376755
-0.118301 -8.965622 12.387985
-0.110825 -8.970840 12.425125
-0.084244 -8.996017 12.436844
-0.121078 -8.890701 12.412552
-0.123489 -8.891495 12.379318
-0.119583 -8.966599 12.479996
-0.120407 -8.971054 12.452866
-0.121292 -8.905746 12.499741
-0.121109 -8.892685 12.446426
-0.119705 -8.891129 12.490555
-0.007339 -8.897507 12.445602
-0.080185 -8.840439 12.461075
-0.097275 -8.832108 12.407303
-0.119339 -8.862930 12.384903
-0.113022 -8.862259 12.376205
-0.076431 -8.830978 12.394119
-0.089218 -8.836197 12.386581
-0.074081 -8.814590 12.382370
-0.071671 -8.821060 12.397720
-0.098526 -8.848648 12.419235
-0.060196 -8.815628 12.404099
-0.054153 -8.821579 12.380722
-0.031967 -8.818314 12.375992
-0.052475 -8.811966 12.378433
-0.010269 -8.802933 12.379562
-0.008194 -8.810196 12.375778
-0.074173 -8.824875 12.463028
-0.109879 -8.863754 12.444077
-0.103622 -8.847061 12.444321
-0.047012 -8.821793 12.483231
-0.054245 -8.835220 12.465988
-0.055069 -8.818985 12.441971
-0.031998 -8.829544 12.457809
-0.052567 -8.826157 12.464615
-0.030624 -8.816269 12.450516
-0.008194 -8.816605 12.450943
-0.198624 -8.702805 12.790268
-0.097702 -8.869553 12.729019
-0.138321 -8.961166 12.607712
-0.133194 -8.947952 12.555252
-0.125412 -8.931137 12.553360
-0.126541 -8.925705 12.520645
-0.131546 -8.960770 12.596634
-0.131180 -8.918900 12.618912
-0.133011 -8.922592 12.578476
-0.140457 -8.910324 12.608017
-0.124222 -8.981064 12.585770
-0.121841 -8.965500 12.542374
-0.121750 -8.974655 12.521500
-0.105179 -8.993668 12.502670
-0.119736 -8.891891 12.558365
-0.117630 -8.894302 12.515030
-0.020950 -8.905136 12.526627
-0.119644 -8.885086 12.615921
-0.121353 -8.910934 12.573715
-0.120010 -8.893173 12.577469
-0.030533 -8.910538 12.602768
-0.096481 -8.861618 12.598648
-0.074295 -8.836624 12.546402
-0.100418 -8.853592 12.520889
-0.104019 -8.866531 12.515396
-0.098709 -8.863815 12.506851
-0.070267 -8.845139 12.536972
-0.052628 -8.835648 12.544815
-0.050339 -8.828598 12.520432
-0.054306 -8.846756 12.548935
-0.032028 -8.839676 12.538712
-0.030685 -8.828964 12.535172
-0.074356 -8.844009 12.624222
-0.098892 -8.868973 12.586258
-0.097549 -8.857407 12.576248
-0.098801 -8.873917 12.587997
-0.076645 -8.858841 12.566330
-0.065445 -8.847427 12.607559
-0.052689 -8.842880 12.622391
-0.032120 -8.828812 12.564804
-0.054337 -8.851852 12.623367
-0.032059 -8.846054 12.614914
-0.047226 -8.834854 12.597122
-0.030716 -8.835281 12.611404
-0.166336 -8.964706 12.729996
-0.143661 -8.973892 12.674667
-0.145279 -8.979111 12.652206
-0.130905 -8.998093 12.631699
-0.144943 -8.954300 12.646957
-0.144028 -8.980667 12.672592
-0.146255 -8.989426 12.661423
-0.146469 -8.925919 12.656631
-0.136276 -8.921036 12.640213
-0.167191 -8.981033 12.741348
-0.166977 -8.999222 12.710983
-0.171066 -8.989456 12.697403
-0.168594 -8.978531 12.701797
-0.162338 -8.980606 12.715652
-0.143570 -8.952438 12.700241
-0.155136 -8.949387 12.701126
-0.143112 -8.939987 12.694351
-0.128799 -8.924637 12.714462
-0.130844 -8.919449 12.692459
-0.098892 -8.880447 12.732559
-0.098892 -8.881271 12.665848
-0.118393 -8.893967 12.644699
-0.121201 -8.901108 12.626938
-0.081894 -8.877029 12.736801
-0.121323 -8.910080 12.707321
-0.115067 -8.895523 12.714249
-0.119705 -8.889114 12.689346
-0.007278 -8.928207 12.715958
-0.076767 -8.871384 12.719254
-0.095078 -8.864395 12.673416
-0.097641 -8.863846 12.652847
-0.076706 -8.864182 12.641190
-0.092667 -8.871933 12.658737
-0.042984 -8.843552 12.675522
-0.019272 -8.834824 12.644547
-0.074478 -8.859787 12.714676
-0.054428 -8.869553 12.716415
-0.032150 -8.867355 12.713120
-0.046829 -8.856216 12.694168
-0.052780 -8.858261 12.712265
-0.030777 -8.851913 12.702988
-0.315292 -8.886215 12.822037
-0.013779 -8.943954 12.896072
-0.215286 -8.998062 12.859116
-0.210739 -8.994095 12.802109
-0.188766 -8.986313 12.761307
-0.195084 -8.995407 12.750900
-0.143417 -8.958054 12.788193
-0.180466 -8.972763 12.754257
-0.167343 -8.969894 12.782578
-0.144058 -8.982529 12.811111
-0.211258 -8.993973 12.841354
-0.188614 -8.979660 12.820236
-0.166519 -8.974716 12.812546
-0.012466 -8.906296 12.861465
-0.121017 -8.939835 12.778488
-0.080368 -8.894852 12.765610
-0.030869 -8.876602 12.806992
-0.026657 -8.877060 12.769608
-0.032242 -8.896225 12.823013
-0.027206 -8.973495 12.896744
-0.409042 -9.219223 13.471085
-0.389603 -9.225235 13.493484
-0.130447 -9.337845 13.023361
-0.148697 -9.379745 13.002121
-0.069260 -9.474197 13.035294
-0.055374 -9.438797 13.039810
-0.053940 -9.459671 13.022141
-0.323624 -9.115158 13.225143
-0.300339 -9.126938 13.116318
-0.267044 -9.126907 13.050766
-0.267929 -9.133499 13.054092
-0.292343 -9.135483 13.102097
-0.250320 -9.139694 13.121353
-0.272659 -9.141739 13.104080
-0.250351 -9.142349 13.097366
-0.297195 -9.092728 13.102890
-0.283524 -9.090378 13.039078
-0.278854 -9.099716 13.007187
-0.267044 -9.107895 13.003098
-0.282425 -9.073349 13.027023
-0.285721 -9.117966 13.053818
-0.285538 -9.098587 13.048904
-0.290726 -9.074661 13.040359
-0.279099 -9.065598 13.039322
-0.260147 -9.052536 13.053604
-0.257034 -9.037704 13.017502
-0.257858 -9.041885 13.050674
-0.308182 -9.121262 13.115555
-0.299423 -9.097916 13.077927
-0.282913 -9.070541 13.080551
-0.290878 -9.103043 13.117599
-0.299423 -9.055435 13.083054
-0.281754 -9.059677 13.072037
-0.281937 -9.057877 13.074814
-0.327469 -9.148605 13.237747
-0.315201 -9.140030 13.161942
-0.251999 -9.141525 13.176956
-0.298080 -9.150742 13.154953
-0.276871 -9.153397 13.128464
-0.266525 -9.158554 13.185776
-0.278030 -9.155899 13.158951
-0.331650 -9.132217 13.242630
-0.321579 -9.157059 13.211868
-0.312607 -9.180374 13.238510
-0.332901 -9.166275 13.220871
-0.337357 -9.142044 13.226974
-0.267899 -9.180222 13.248764
-0.303940 -9.166306 13.207565
-0.307602 -9.158707 13.192978
-0.282516 -9.167770 13.218613
-0.328842 -9.119217 13.187729
-0.299515 -9.084213 13.180435
-0.307693 -9.111649 13.140915
-0.306168 -9.092239 13.125443
-0.312210 -9.120956 13.170364
-0.305710 -9.077927 13.175461
-0.302200 -9.090195 13.165085
-0.283249 -9.081680 13.167068
-0.282333 -9.070602 13.163742
-0.261093 -9.085464 13.171616
-0.258743 -9.072403 13.165329
-0.307480 -9.105484 13.202713
-0.236252 -9.074142 13.166977
-0.230453 -9.129501 13.077499
-0.245895 -9.128067 13.062027
-0.238052 -9.125656 13.015854
-0.218369 -9.114975 13.070541
-0.241470 -9.116440 13.003189
-0.237778 -9.057480 13.059830
-0.214523 -9.025833 13.013412
-0.235397 -9.041397 13.049088
-0.212418 -9.043411 13.051163
-0.205307 -9.099594 13.062943
-0.238449 -9.125443 13.168900
-0.405655 -9.253525 13.494980
-0.368576 -9.266190 13.494492
-0.392776 -9.233780 13.456528
-0.377090 -9.191177 13.369644
-0.358719 -9.199570 13.367020
-0.315628 -9.201218 13.305008
-0.292404 -9.190353 13.278122
-0.356491 -9.135452 13.308762
-0.344833 -9.162155 13.271530
-0.343674 -9.187424 13.279861
-0.327774 -9.173599 13.263107
-0.356949 -9.130020 13.268356
-0.333572 -9.141190 13.277023
-0.355911 -9.171951 13.301468
-0.340256 -9.179276 13.309433
-0.331436 -9.125931 13.304855
-0.340103 -9.142166 13.291336
-0.282394 -9.167618 13.301559
-0.309189 -9.180283 13.263687
-0.265823 -9.158890 13.261673
-0.349625 -9.207199 13.351913
-0.334183 -9.190750 13.313522
-0.315170 -9.196121 13.316574
-0.339828 -9.205887 13.368271
-0.303238 -9.207352 13.359695
-0.283920 -9.194565 13.339981
-0.357101 -9.132004 13.350357
-0.368729 -9.168533 13.329239
-0.352249 -9.182205 13.316574
-0.354904 -9.146011 13.335373
-0.358749 -9.169815 13.356186
-0.349075 -9.137589 13.349716
-0.279526 -9.133286 13.331039
-0.272873 -9.177719 13.335922
-0.341965 -9.122849 13.340530
-0.324112 -9.114883 13.293411
-0.308029 -9.121475 13.297195
-0.283340 -9.102219 13.280960
-0.285782 -9.115219 13.258987
-0.305984 -9.086563 13.259201
-0.295181 -9.093399 13.261215
-0.284195 -9.112167 13.282516
-0.314377 -9.115799 13.334946
-0.306595 -9.104111 13.356735
-0.378922 -9.170120 13.444138
-0.399612 -9.193497 13.435959
-0.384293 -9.210800 13.416153
-0.379898 -9.193985 13.406693
-0.379105 -9.171646 13.432785
-0.350784 -9.235214 13.480728
-0.373764 -9.196609 13.424576
-0.324142 -9.219681 13.382217
-0.319382 -9.207382 13.378708
-0.345749 -9.221756 13.421951
-0.366074 -9.219376 13.413162
-0.349167 -9.229813 13.412796
-0.326187 -9.221115 13.412979
-0.355118 -9.151596 13.415634
-0.369125 -9.164474 13.413101
-0.330978 -9.146439 13.431137
-0.332413 -9.152847 13.416214
-0.332657 -9.143143 13.427658
-0.306778 -9.174179 13.436966
-0.372879 -9.237717 13.462387
-0.373734 -9.239975 13.442673
-0.331100 -9.238571 13.457474
-0.318253 -9.222580 13.449814
-0.306473 -9.205734 13.444504
-0.373764 -9.162094 13.477280
-0.564560 -9.364792 13.996353
-0.573715 -9.331589 13.959915
-0.526016 -9.330551 13.838120
-0.517471 -9.288315 13.804031
-0.503403 -9.307571 13.778732
-0.500809 -9.299606 13.790298
-0.526443 -9.313583 13.842361
-0.510025 -9.326187 13.830368
-0.511703 -9.335739 13.826309
-0.540512 -9.296371 13.864182
-0.514481 -9.282150 13.840622
-0.524521 -9.303879 13.873581
-0.538010 -9.325821 13.970963
-0.550125 -9.335434 13.922653
-0.516434 -9.344101 13.883682
-0.533646 -9.333908 13.890884
-0.549759 -9.322678 13.900894
-0.513931 -9.338699 13.929337
-0.520065 -9.269547 13.909317
-0.517075 -9.300613 13.905869
-0.524063 -9.295975 13.937271
-0.500412 -9.292007 13.929367
-0.501022 -9.274155 13.907883
-0.548843 -9.313644 13.965805
-0.557449 -9.344559 13.946793
-0.540451 -9.353073 13.942245
-0.520920 -9.356796 13.948166
-0.564713 -9.309555 13.997665
-0.532669 -9.292313 13.958450
-0.529617 -9.291519 13.956985
-0.469406 -9.249863 13.834030
-0.443802 -9.314346 13.716690
-0.465286 -9.260025 13.623276
-0.407181 -9.272842 13.551468
-0.378922 -9.254074 13.515884
-0.400162 -9.253738 13.502975
-0.425430 -9.263992 13.555099
-0.408432 -9.250473 13.558273
-0.402481 -9.273148 13.541367
-0.450333 -9.274979 13.606735
-0.441635 -9.250992 13.567307
-0.461899 -9.289169 13.621109
-0.441177 -9.275955 13.598862
-0.426773 -9.276901 13.624527
-0.384598 -9.281662 13.587418
-0.384628 -9.269424 13.571732
-0.432480 -9.283340 13.603500
-0.413010 -9.288681 13.606705
-0.402817 -9.294174 13.606400
-0.365891 -9.267471 13.569016
-0.435806 -9.324020 13.716324
-0.433243 -9.325241 13.630844
-0.489273 -9.268112 13.681198
-0.453568 -9.297531 13.635483
-0.460495 -9.302963 13.638382
-0.442520 -9.310715 13.636337
-0.451584 -9.289780 13.630356
-0.475143 -9.287277 13.656509
-0.476120 -9.269058 13.669083
-0.452805 -9.263199 13.662918
-0.420181 -9.308212 13.655075
-0.424637 -9.306717 13.631027
-0.475876 -9.264633 13.736679
-0.479935 -9.300674 13.717575
-0.463181 -9.310379 13.711227
-0.466599 -9.255966 13.716782
-0.495468 -9.285477 13.734512
-0.457809 -9.296951 13.746811
-0.371475 -9.271378 13.666122
-0.371811 -9.264603 13.660568
-0.441666 -9.047012 13.649429
-0.454178 -9.229233 13.597122
-0.408340 -9.215530 13.540604
-0.417496 -9.242325 13.511612
-0.428726 -9.248459 13.561966
-0.431107 -9.222061 13.537857
-0.415451 -9.231094 13.531448
-0.379990 -9.196579 13.555923
-0.391617 -9.187393 13.542770
-0.378647 -9.172531 13.509140
-0.417221 -9.210892 13.600143
-0.425583 -9.208603 13.592972
-0.427353 -9.218521 13.591232
-0.403366 -9.201035 13.563919
-0.427322 -9.240616 13.605423
-0.334854 -9.216385 13.544876
-0.356003 -9.177994 13.528366
-0.438400 -9.226425 13.733475
-0.471939 -9.244583 13.677322
-0.451187 -9.248764 13.637405
-0.450333 -9.231247 13.685379
-0.439957 -9.234024 13.660538
-0.423874 -9.212204 13.671524
-0.380081 -9.214005 13.630814
-0.435379 -9.221878 13.661545
-0.427261 -9.217026 13.662766
-0.418259 -9.210342 13.669754
-0.404068 -9.217392 13.661758
-0.449661 -9.228958 13.719559
-0.429672 -9.228043 13.725266
-0.394180 -9.235092 13.719009
-0.497116 -9.348526 13.888229
-0.472427 -9.335983 13.837082
-0.449722 -9.340683 13.807297
-0.485977 -9.317520 13.772202
-0.470627 -9.330948 13.765610
-0.468185 -9.324234 13.771744
-0.437057 -9.323441 13.800125
-0.469833 -9.254257 13.784286
-0.476791 -9.286942 13.794510
-0.451248 -9.250290 13.788162
-0.429428 -9.263382 13.806076
-0.423386 -9.307297 13.790512
-0.492111 -9.334549 13.826950
-0.489792 -9.280075 13.849960
-0.499832 -9.281174 13.837784
-0.476089 -9.268753 13.817459
-0.498795 -9.310776 13.857132
-0.428329 -9.286148 13.837723
-0.469040 -9.271927 13.915024
-0.499619 -9.264206 13.910477
-0.498337 -9.248123 13.819992
-0.453964 -9.249557 13.824356
-0.470657 -9.247208 13.755539
-0.373703 -9.133774 13.836502
-0.776993 -10.069839 15.557724
-0.747971 -10.014267 15.540695
-0.682877 -8.120224 15.382370
-0.732712 -9.503403 14.475174
-0.729507 -9.249405 14.384750
-0.661087 -9.366959 14.239243
-0.630081 -9.375656 14.118301
-0.596664 -9.397446 14.099503
-0.570023 -9.380325 14.055984
-0.556076 -9.397232 14.034103
-0.613510 -9.388046 14.106033
-0.579605 -9.407455 14.092117
-0.637833 -9.328964 14.113998
-0.570145 -9.314926 14.104233
-0.605820 -9.365768 14.059738
-0.581192 -9.353043 14.007126
-0.597031 -9.340439 14.020004
-0.573227 -9.337936 14.004288
-0.588730 -9.374680 14.054306
-0.560623 -9.349197 14.033920
-0.545853 -9.368362 14.001938
-0.528183 -9.366653 14.002884
-0.553909 -9.317337 14.023422
-0.567459 -9.282547 14.005081
-0.541000 -9.287918 14.020645
-0.578445 -9.374191 14.102982
-0.620163 -9.346817 14.085464
-0.578720 -9.339462 14.083725
-0.563614 -9.312149 14.084152
-0.566208 -9.306046 14.072830
-0.675827 -9.397018 14.236130
-0.652023 -9.384933 14.180130
-0.637222 -9.396500 14.168076
-0.659714 -9.407516 14.226730
-0.625443 -9.386459 14.209854
-0.643570 -9.415024 14.222977
-0.622421 -9.413986 14.238693
-0.619919 -9.406601 14.160477
-0.596237 -9.396378 14.194687
-0.638687 -9.339188 14.202621
-0.643204 -9.359055 14.140701
-0.665421 -9.366135 14.206589
-0.645889 -9.361801 14.200943
-0.615677 -9.335159 14.232590
-0.615921 -9.334763 14.154312
-0.603653 -9.360580 14.143631
-0.596970 -9.329636 14.133438
-0.598679 -9.328720 14.205215
-0.620590 -9.351425 14.195358
-0.905136 -9.089401 14.207230
-0.790634 -9.182114 14.204971
-0.807419 -9.168533 14.208328
-0.877182 -9.117386 14.217606
-0.890366 -9.104507 14.187515
-0.757217 -9.455887 14.454086
-0.772781 -9.443222 14.468643
-0.774490 -9.377853 14.480240
