5.179703 -3.801804 4.107407
5.186356 -3.798019 4.095352
5.183334 -3.795792 4.115707
5.180588 -3.786148 4.113663
5.127884 -3.770920 4.113113
5.178482 -3.773026 4.104630
5.174149 -3.760513 4.098770
5.179428 -3.753830 4.097855
5.170578 -3.767410 4.121262
5.174545 -3.770157 4.124252
5.177383 -3.752365 4.118973
5.192764 -3.802689 4.077652
5.190231 -3.790848 4.069870
5.234451 -3.876907 4.243820
5.182816 -3.815231 4.168655
5.172318 -3.813675 4.179672
5.240891 -3.870285 4.142227
5.203751 -3.851151 4.134720
5.214493 -3.852585 4.126999
5.205673 -3.847977 4.144638
5.223129 -3.860672 4.142685
5.193222 -3.822861 4.131088
5.189682 -3.832230 4.148392
5.187515 -3.818680 4.149460
5.206802 -3.848831 4.171432
5.204056 -3.849686 4.169937
5.195724 -3.850418 4.173630
5.239151 -3.872299 4.167374
5.221390 -3.862625 4.167831
5.187546 -3.835251 4.172958
5.180740 -3.812057 4.127853
5.176895 -3.806686 4.130966
5.177689 -3.791641 4.134048
5.174606 -3.810196 4.155289
5.174149 -3.789078 4.154099
5.174759 -3.750473 4.139694
5.167099 -3.774155 4.143875
5.171982 -3.768295 4.145004
5.173691 -3.811386 4.166946
5.173172 -3.782547 4.158005
5.177536 -3.811325 4.187393
5.170547 -3.786453 4.174149
5.164719 -3.777939 4.168167
5.168747 -3.765945 4.165298
5.169937 -3.772202 4.165115
5.167160 -3.764786 4.186966
5.185623 -3.837784 4.197891
5.170334 -3.816391 4.204544
5.183334 -3.841324 4.222305
5.168045 -3.819931 4.228989
5.187088 -3.839279 4.249619
5.181625 -3.843246 4.247665
5.237198 -3.874802 4.192245
5.202469 -3.851303 4.195358
5.217819 -3.866867 4.218063
5.200516 -3.849197 4.214066
5.187698 -3.849716 4.212509
5.219559 -3.864883 4.192856
5.193130 -3.841965 4.214340
5.195389 -3.845413 4.233139
5.200180 -3.854813 4.219742
5.215988 -3.869125 4.243210
5.198410 -3.856888 4.245010
5.167526 -3.784256 4.194687
5.161270 -3.784439 4.190964
5.170151 -3.810867 4.206985
5.174149 -3.808853 4.207718
5.165207 -3.782547 4.215836
5.159470 -3.786697 4.216141
5.167557 -3.779892 4.202835
5.164841 -3.771622 4.204727
5.163071 -3.761826 4.206680
5.169693 -3.805588 4.227219
5.163681 -3.810226 4.246292
5.166214 -3.803024 4.247543
5.156998 -3.790695 4.240433
5.161423 -3.760635 4.228409
5.160629 -3.776596 4.247330
5.160995 -3.779465 4.235519
5.160904 -3.771103 4.244705
5.307053 -3.876938 4.127945
5.349808 -3.886032 4.010483
5.346573 -3.885696 4.038223
5.309708 -3.875076 4.076706
5.285782 -3.877029 4.096664
5.296249 -3.904953 4.118149
5.284409 -3.878006 4.122238
5.340164 -3.885330 4.067764
5.315323 -3.905319 4.081528
5.338333 -3.885025 4.094894
5.337021 -3.884689 4.121841
5.291153 -3.870682 4.022079
5.270798 -3.864700 4.020187
5.250626 -3.857559 4.018906
5.268875 -3.867142 4.044815
5.289322 -3.872940 4.046799
5.311203 -3.873642 4.051468
5.365128 -3.865555 4.027939
5.337631 -3.867935 4.007614
5.314072 -3.871231 4.000870
5.313614 -3.870041 4.027420
5.369675 -3.845413 4.025284
5.366989 -3.851395 4.021652
5.373611 -3.826706 4.022995
5.336960 -3.867294 4.033951
5.336227 -3.866776 4.060257
5.359146 -3.865219 4.057205
5.364029 -3.845047 4.054337
5.366379 -3.826309 4.052872
5.369888 -3.806961 4.024857
5.363113 -3.786911 4.028366
5.360519 -3.766891 4.029678
5.363480 -3.806564 4.054337
5.356674 -3.786484 4.057877
5.351913 -3.766434 4.060379
5.288040 -3.873795 4.072372
5.266983 -3.869553 4.069534
5.265060 -3.871964 4.094254
5.263504 -3.873520 4.119522
5.309280 -3.873703 4.103561
5.354385 -3.864883 4.085892
5.335251 -3.866806 4.086319
5.358902 -3.844681 4.083206
5.360306 -3.825974 4.082260
5.334915 -3.865280 4.113327
5.349014 -3.864517 4.115005
5.355545 -3.844345 4.111221
5.355972 -3.825577 4.110794
5.357895 -3.806198 4.083420
5.350967 -3.786087 4.087082
5.345322 -3.765976 4.090103
5.353134 -3.805832 4.112228
5.344559 -3.785660 4.116806
5.339920 -3.765549 4.119278
5.302963 -3.904648 4.140823
5.305344 -3.878830 4.153122
5.261490 -3.876236 4.144180
5.282852 -3.879562 4.147568
5.259964 -3.877701 4.169632
5.281235 -3.881271 4.172867
5.305832 -3.904343 4.165665
5.304825 -3.877640 4.180069
5.334915 -3.884384 4.149307
5.331772 -3.884048 4.177444
5.307693 -3.904037 4.191116
5.279434 -3.883377 4.197983
5.258102 -3.879868 4.194687
5.307022 -3.903702 4.218033
5.302322 -3.881485 4.204239
5.278275 -3.883835 4.224106
5.256760 -3.880875 4.220474
5.255295 -3.882248 4.246140
5.276779 -3.885147 4.249802
5.301712 -3.880630 4.231155
5.307053 -3.903397 4.244644
5.329422 -3.883713 4.205215
5.327377 -3.883408 4.232925
5.350449 -3.843979 4.140274
5.346115 -3.864182 4.142868
5.334579 -3.863754 4.140396
5.349930 -3.825211 4.140396
5.342422 -3.863846 4.171280
5.333633 -3.863693 4.166733
5.345627 -3.843643 4.169296
5.345688 -3.824844 4.169083
5.347794 -3.805435 4.141403
5.337814 -3.785263 4.146805
5.332169 -3.765091 4.149826
5.342178 -3.805038 4.170883
5.331772 -3.784836 4.176529
5.325363 -3.764694 4.180008
5.339188 -3.863480 4.199539
5.333298 -3.862137 4.193954
5.339828 -3.843246 4.198959
5.339920 -3.824448 4.198715
5.335495 -3.863144 4.228104
5.332352 -3.862076 4.220444
5.331802 -3.861069 4.247482
5.335678 -3.842880 4.227798
5.335281 -3.824081 4.227859
5.312149 -3.763809 4.240524
5.337357 -3.804672 4.199997
5.326431 -3.784439 4.206009
5.319168 -3.764236 4.209976
5.330734 -3.804276 4.230301
5.320877 -3.784042 4.235703
5.177811 -3.732620 4.134506
5.180527 -3.748672 4.052750
5.187424 -3.739487 4.051376
5.193161 -3.743637 4.010880
5.197372 -3.727341 4.007065
5.190048 -3.741379 4.030930
5.193436 -3.742325 4.019760
5.195877 -3.726303 4.028366
5.203506 -3.711502 4.004410
5.209061 -3.695480 4.001419
5.201950 -3.710403 4.025650
5.211716 -3.697372 4.025894
5.209793 -3.701523 4.019119
5.193192 -3.724380 4.048782
5.209641 -3.695908 4.046768
5.218124 -3.691330 4.035110
5.201553 -3.710098 4.047806
5.237106 -3.676468 4.008926
5.221542 -3.685623 4.004257
5.222641 -3.686417 4.027512
5.238663 -3.677567 4.032578
5.222763 -3.686508 4.050125
5.239273 -3.677994 4.055557
5.185562 -3.738174 4.072525
5.182480 -3.735947 4.092758
5.184494 -3.738266 4.109787
5.181076 -3.734940 4.114334
5.190231 -3.740952 4.065079
5.192154 -3.723618 4.070541
5.190384 -3.722366 4.091782
5.200150 -3.709122 4.069290
5.216324 -3.693008 4.071213
5.206863 -3.700302 4.064468
5.208939 -3.695419 4.068802
5.199478 -3.708633 4.091385
5.210800 -3.696762 4.092911
5.188889 -3.721298 4.113297
5.215225 -3.692368 4.106552
5.197525 -3.707260 4.112534
5.204910 -3.699539 4.110153
5.207413 -3.694351 4.112900
5.222397 -3.686264 4.072433
5.241959 -3.679855 4.080246
5.243301 -3.680832 4.104019
5.223099 -3.686752 4.095627
5.223312 -3.686905 4.118515
5.187149 -3.720078 4.134689
5.180374 -3.736374 4.154922
5.176376 -3.731583 4.156174
5.185287 -3.718735 4.156021
5.171738 -3.748276 4.160110
5.169937 -3.746994 4.181595
5.174728 -3.730392 4.177750
5.183914 -3.717758 4.177811
5.196579 -3.706589 4.134567
5.207443 -3.694382 4.135696
5.202255 -3.698441 4.155655
5.213547 -3.693588 4.142654
5.196426 -3.706497 4.157272
5.209396 -3.696030 4.160233
5.195786 -3.706039 4.179672
5.209152 -3.695877 4.182968
5.211319 -3.696732 4.179459
5.225815 -3.688705 4.166183
5.249130 -3.681015 4.136398
5.244064 -3.681351 4.127396
5.223862 -3.687302 4.141769
5.246872 -3.683334 4.152451
5.245926 -3.687332 4.174240
5.249405 -3.685135 4.177414
5.166763 -3.744675 4.201981
5.173080 -3.729233 4.199417
5.174149 -3.733475 4.199570
5.182755 -3.716934 4.199844
5.164719 -3.743210 4.223404
5.171249 -3.727921 4.220963
5.163925 -3.742630 4.245865
5.169968 -3.727005 4.243027
5.172775 -3.732986 4.245468
5.182632 -3.717087 4.222885
5.180252 -3.715408 4.244095
5.226669 -3.689285 4.189835
5.194962 -3.705460 4.202011
5.202988 -3.699051 4.202072
5.210159 -3.696335 4.215103
5.209274 -3.695969 4.206070
5.244278 -3.688492 4.210403
5.227707 -3.690048 4.213730
5.193741 -3.704575 4.224045
5.209732 -3.696274 4.229507
5.193405 -3.704361 4.246902
5.203690 -3.699692 4.248550
5.242752 -3.689285 4.246445
5.229446 -3.691299 4.238266
5.306870 -3.725693 4.137344
5.295822 -3.687607 4.012253
5.308334 -3.706985 4.057755
5.353409 -3.748520 4.007492
5.341507 -3.727737 4.013840
5.317673 -3.707565 4.026596
5.332657 -3.727219 4.044632
5.345078 -3.748062 4.037979
5.291428 -3.669540 4.023972
5.278641 -3.665634 4.003891
5.255661 -3.672104 4.026810
5.250473 -3.672470 4.024368
5.257431 -3.670547 4.017227
5.260849 -3.672928 4.042343
5.285782 -3.670609 4.031815
5.293228 -3.675766 4.060104
5.288803 -3.673996 4.060898
5.322739 -3.678940 4.025253
5.295792 -3.706375 4.090714
5.337082 -3.747574 4.068375
5.324783 -3.726730 4.075027
5.330582 -3.747147 4.098068
5.317673 -3.726242 4.105087
5.256271 -3.675674 4.071976
5.263840 -3.675034 4.067245
5.252975 -3.676743 4.063828
5.265884 -3.676468 4.091507
5.251114 -3.678635 4.099991
5.264786 -3.680252 4.120346
5.270401 -3.679611 4.117783
5.286636 -3.677017 4.097397
5.280441 -3.705643 4.125412
5.296646 -3.725143 4.169357
5.280838 -3.687820 4.172348
5.285324 -3.690048 4.175369
5.323959 -3.746689 4.127975
5.315567 -3.746201 4.158951
5.283951 -3.681747 4.134598
5.275742 -3.683365 4.144852
5.269150 -3.682724 4.167740
5.305801 -3.745651 4.190811
5.286514 -3.724594 4.201523
5.278214 -3.692245 4.209579
5.254074 -3.688400 4.204178
5.273117 -3.723953 4.235672
5.300278 -3.745255 4.220505
5.258102 -3.691238 4.230545
5.275894 -3.695663 4.246597
5.246811 -3.888962 4.402145
5.232925 -3.878311 4.269485
5.231247 -3.880203 4.294907
5.229691 -3.881668 4.320694
5.213058 -3.888382 4.343857
5.209763 -3.875259 4.345993
5.208572 -3.875809 4.372391
5.249680 -3.886642 4.349930
5.228439 -3.882370 4.346939
5.226700 -3.884384 4.372482
5.180466 -3.848984 4.251663
5.179550 -3.846146 4.272507
5.180222 -3.835556 4.257401
5.165939 -3.822861 4.253830
5.179886 -3.833939 4.266983
5.164017 -3.825394 4.278946
5.173630 -3.848343 4.290878
5.177933 -3.847794 4.298141
5.174515 -3.829971 4.285904
5.162003 -3.828201 4.303940
5.172470 -3.831772 4.301834
5.170029 -3.826675 4.305588
5.214462 -3.870529 4.268906
5.196793 -3.858658 4.270493
5.213058 -3.871750 4.294724
5.194626 -3.861679 4.295303
5.162674 -3.800430 4.267899
5.154465 -3.794907 4.264603
5.156204 -3.775955 4.278000
5.158737 -3.777847 4.256882
5.159805 -3.759476 4.250229
5.157181 -3.757584 4.271286
5.152725 -3.796951 4.290085
5.159256 -3.809647 4.286118
5.159775 -3.798294 4.288803
5.156540 -3.795944 4.309464
5.155472 -3.756332 4.293137
5.153976 -3.774368 4.299484
5.146255 -3.756058 4.308334
5.157120 -3.775040 4.292770
5.175827 -3.850845 4.323044
5.168869 -3.847763 4.330765
5.166702 -3.824234 4.326279
5.160599 -3.829391 4.329971
5.182266 -3.855179 4.347122
5.174728 -3.851151 4.349533
5.164993 -3.847214 4.370865
5.181046 -3.854263 4.369736
5.159439 -3.829880 4.356400
5.165695 -3.828476 4.346512
5.163010 -3.821487 4.346695
5.160965 -3.819992 4.368607
5.211349 -3.873550 4.320297
5.193100 -3.863144 4.321060
5.191452 -3.864944 4.346725
5.189957 -3.866318 4.372665
5.150131 -3.801285 4.314285
5.148422 -3.803238 4.339920
5.154739 -3.794601 4.331406
5.151901 -3.772842 4.321152
5.153885 -3.755173 4.315170
5.155014 -3.774216 4.338577
5.150070 -3.771500 4.343063
5.151749 -3.753647 4.336838
5.145309 -3.755997 4.335190
5.166763 -3.770584 4.328506
5.152725 -3.793137 4.353226
5.147171 -3.804001 4.366257
5.140610 -3.766647 4.356003
5.150467 -3.752701 4.359238
5.150925 -3.769577 4.365280
5.148605 -3.770462 4.365372
5.225327 -3.885330 4.398758
5.204819 -3.887650 4.382919
5.206528 -3.878464 4.397629
5.195877 -3.886856 4.421768
5.205521 -3.878555 4.424454
5.245560 -3.889633 4.428604
5.223984 -3.886246 4.425064
5.222519 -3.887497 4.451279
5.203720 -3.880661 4.450150
5.189072 -3.886154 4.461197
5.244095 -3.890732 4.454910
5.202347 -3.881638 4.476547
5.243149 -3.890762 4.481918
5.221268 -3.888870 4.477524
5.176987 -3.851273 4.390030
5.173050 -3.853043 4.375229
5.172318 -3.852371 4.402451
5.157181 -3.833176 4.381302
5.157364 -3.817307 4.389206
5.160538 -3.826065 4.391617
5.176376 -3.850815 4.413315
5.160294 -3.846634 4.410812
5.187057 -3.868668 4.424942
5.171280 -3.847031 4.432816
5.170029 -3.855850 4.427261
5.155838 -3.834152 4.407608
5.154953 -3.815536 4.410873
5.154068 -3.836319 4.433243
5.155685 -3.823807 4.436874
5.152206 -3.813522 4.432358
5.188828 -3.866684 4.399246
5.150986 -3.791855 4.375351
5.146683 -3.807999 4.406113
5.145401 -3.806076 4.391953
5.148361 -3.789932 4.396774
5.148422 -3.771042 4.383255
5.147171 -3.769394 4.387772
5.140427 -3.764481 4.384140
5.148575 -3.751328 4.381210
5.146683 -3.769028 4.405289
5.147476 -3.750534 4.403915
5.143814 -3.807724 4.417892
5.146042 -3.788223 4.418533
5.144089 -3.767166 4.408798
5.139328 -3.764816 4.410965
5.136276 -3.770462 4.434708
5.142929 -3.766312 4.431564
5.145889 -3.770035 4.429031
5.185257 -3.870926 4.450546
5.154800 -3.846024 4.450546
5.166855 -3.843765 4.452927
5.168533 -3.857193 4.453445
5.152786 -3.837112 4.459763
5.153671 -3.845627 4.491562
5.183914 -3.871780 4.477066
5.166855 -3.858994 4.479385
5.146683 -3.819412 4.481003
5.139938 -3.812820 4.468979
5.151199 -3.838699 4.485916
5.138077 -3.815170 4.494705
5.161819 -3.840012 4.472549
5.159134 -3.838028 4.494278
5.148453 -3.810745 4.452957
5.143845 -3.807541 4.446548
5.141769 -3.810532 4.443253
5.144394 -3.787033 4.440933
5.141281 -3.784744 4.462082
5.145004 -3.768600 4.446060
5.134079 -3.773697 4.459885
5.141586 -3.765335 4.454239
5.145432 -3.808517 4.474289
5.136948 -3.806870 4.485916
5.143051 -3.806778 4.496231
5.139450 -3.783401 4.484451
5.141129 -3.767807 4.474258
5.131363 -3.778244 4.484360
5.139389 -3.763748 4.476242
5.140121 -3.768051 4.485947
5.138199 -3.762863 4.499191
5.266647 -3.921677 4.375443
5.301498 -3.878708 4.258713
5.306046 -3.903061 4.271927
5.275253 -3.886581 4.275497
5.253799 -3.883560 4.271866
5.274094 -3.887070 4.301804
5.252182 -3.885178 4.297470
5.299149 -3.882156 4.283279
5.306656 -3.902725 4.298355
5.298050 -3.882523 4.309708
5.324539 -3.883041 4.261185
5.323318 -3.882736 4.288589
5.263840 -3.922318 4.323044
5.272659 -3.888229 4.327744
5.251236 -3.885117 4.324142
5.304764 -3.902390 4.326279
5.298264 -3.879501 4.338120
5.268265 -3.921982 4.347488
5.271774 -3.887955 4.354599
5.303116 -3.902054 4.354172
5.297470 -3.879013 4.365158
5.320175 -3.882401 4.317184
5.317307 -3.882034 4.345718
5.315292 -3.881729 4.373856
5.332779 -3.862839 4.256271
5.331772 -3.842514 4.256607
5.330032 -3.823715 4.257431
5.328659 -3.862473 4.285294
5.337021 -3.845627 4.282883
5.326981 -3.842178 4.286026
5.325668 -3.823318 4.286636
5.307022 -3.763412 4.270096
5.309219 -3.783218 4.295700
5.298416 -3.762924 4.301773
5.325821 -3.803848 4.259659
5.313217 -3.783585 4.266678
5.321121 -3.803482 4.289047
5.325363 -3.862137 4.313980
5.322922 -3.861771 4.342239
5.324783 -3.841843 4.314102
5.322098 -3.822983 4.315445
5.321732 -3.841476 4.342728
5.319077 -3.861435 4.371414
5.318466 -3.822617 4.344437
5.315140 -3.841080 4.373459
5.313431 -3.822250 4.374313
5.305069 -3.782822 4.324936
5.292648 -3.762466 4.331985
5.310898 -3.802689 4.348648
5.296860 -3.782364 4.356613
5.283585 -3.761978 4.364182
5.316177 -3.803085 4.318710
5.268112 -3.921341 4.401749
5.300980 -3.901749 4.382431
5.270920 -3.887680 4.381516
5.296280 -3.879593 4.391647
5.267593 -3.921005 4.429276
5.269119 -3.889786 4.407120
5.268478 -3.888870 4.434586
5.299118 -3.901413 4.410629
5.295700 -3.878555 4.419174
5.309677 -3.881027 4.431351
5.313065 -3.881363 4.402206
5.269211 -3.920670 4.455643
5.267044 -3.889969 4.460922
5.298355 -3.901047 4.438278
5.295029 -3.877731 4.446640
5.297867 -3.900742 4.465836
5.308243 -3.880692 4.459427
5.270645 -3.920334 4.482162
5.265793 -3.890579 4.487595
5.293411 -3.879318 4.472733
5.296219 -3.900406 4.494125
5.305252 -3.880356 4.488541
5.311874 -3.840744 4.402451
5.308334 -3.821854 4.404343
5.308365 -3.840378 4.431686
5.304459 -3.821487 4.433792
5.316055 -3.861069 4.400192
5.312881 -3.860733 4.429214
5.304916 -3.802292 4.379105
5.291855 -3.781967 4.386520
5.281296 -3.761612 4.392593
5.300552 -3.801895 4.408768
5.286728 -3.781570 4.416672
5.274521 -3.761185 4.423721
5.310013 -3.860367 4.458145
5.306625 -3.840012 4.459946
5.301132 -3.821121 4.463028
5.308395 -3.860031 4.486435
5.304031 -3.839676 4.488785
5.297958 -3.820786 4.492264
5.295822 -3.801498 4.438705
5.292313 -3.801132 4.468063
5.270615 -3.760788 4.453262
5.281754 -3.781143 4.446854
5.287949 -3.800766 4.498032
5.278091 -3.780777 4.476303
5.266190 -3.760361 4.483261
5.162704 -3.728592 4.381851
5.168320 -3.725815 4.264847
5.162094 -3.741318 4.267563
5.180008 -3.715225 4.267044
5.161057 -3.740585 4.289963
5.168167 -3.730881 4.290573
5.167587 -3.725296 4.287491
5.159073 -3.739151 4.311630
5.166550 -3.724533 4.309952
5.178757 -3.714340 4.289291
5.177567 -3.713486 4.311630
5.232346 -3.693344 4.263809
5.210678 -3.696976 4.253433
5.208908 -3.696091 4.250870
5.193741 -3.704605 4.270401
5.210892 -3.697098 4.276840
5.245926 -3.722702 4.304581
5.193069 -3.704147 4.293137
5.204269 -3.700241 4.295059
5.206894 -3.698502 4.287613
5.210220 -3.696640 4.299606
5.240402 -3.692764 4.283585
5.232590 -3.693527 4.287308
5.234604 -3.694962 4.312363
5.158035 -3.738388 4.334183
5.163773 -3.731003 4.337387
5.163651 -3.728806 4.335709
5.165970 -3.724136 4.332870
5.177658 -3.713577 4.335129
5.134750 -3.730026 4.359940
5.157272 -3.737839 4.357010
5.163803 -3.722580 4.354538
5.162888 -3.729538 4.373001
5.177505 -3.713455 4.358505
5.233627 -3.722061 4.338577
5.192429 -3.703690 4.315964
5.212173 -3.698044 4.324631
5.205826 -3.697708 4.323318
5.199478 -3.698013 4.340195
5.191513 -3.703049 4.338638
5.238419 -3.695084 4.320328
5.237289 -3.696854 4.338058
5.230087 -3.721664 4.367691
5.212234 -3.698105 4.348190
5.191818 -3.703262 4.362381
5.211990 -3.697922 4.371536
5.203995 -3.699448 4.359970
5.236526 -3.696976 4.357071
5.241806 -3.700027 4.365341
5.162918 -3.721970 4.377335
5.162369 -3.721573 4.400497
5.154709 -3.736008 4.378433
5.153641 -3.735214 4.401138
5.175400 -3.711960 4.380295
5.174576 -3.711380 4.403244
5.145615 -3.749191 4.426041
5.152817 -3.734634 4.424149
5.168167 -3.730850 4.410538
5.162582 -3.726242 4.408035
5.162216 -3.728622 4.428177
5.161575 -3.720993 4.423538
5.174362 -3.711227 4.426773
5.244736 -3.702133 4.391464
5.204849 -3.701065 4.388077
5.191422 -3.702988 4.385666
5.202316 -3.700638 4.396530
5.213882 -3.699265 4.396774
5.235123 -3.697281 4.393234
5.192215 -3.703568 4.410019
5.213211 -3.698807 4.419968
5.201614 -3.698654 4.431992
5.190964 -3.702682 4.432724
5.198776 -3.698196 4.432968
5.246719 -3.703537 4.416916
5.232834 -3.700577 4.430618
5.165146 -3.730362 4.451004
5.143936 -3.747971 4.448410
5.151627 -3.733780 4.446915
5.160629 -3.720322 4.446518
5.161667 -3.724991 4.443863
5.158524 -3.718796 4.468552
5.173477 -3.710587 4.449844
5.142349 -3.746811 4.470901
5.150223 -3.732773 4.469589
5.156052 -3.725693 4.473007
5.141220 -3.746017 4.493881
5.148636 -3.731644 4.492142
5.161880 -3.720016 4.478348
5.162857 -3.729904 4.491684
5.171951 -3.709518 4.472397
5.170944 -3.708786 4.495499
5.156540 -3.717361 4.490768
5.248978 -3.741959 4.438553
5.246658 -3.741562 4.467270
5.212387 -3.698227 4.443039
5.200821 -3.696854 4.467545
5.189957 -3.701950 4.455673
5.212601 -3.698380 4.467117
5.249649 -3.705612 4.443222
5.241379 -3.699783 4.460129
5.207474 -3.719833 4.490189
5.239273 -3.741104 4.499100
5.196701 -3.697403 4.478928
5.188400 -3.700851 4.478256
5.209274 -3.696030 4.488266
5.245590 -3.702744 4.487717
5.261703 -3.742844 4.376724
5.292435 -3.744766 4.251541
5.262131 -3.723404 4.268600
5.264114 -3.695480 4.258621
5.284592 -3.744278 4.282730
5.264328 -3.695877 4.282211
5.276901 -3.743790 4.313980
5.267776 -3.743301 4.346176
5.255783 -3.742416 4.407303
5.184097 -3.887161 4.915390
5.176224 -3.876358 4.637833
5.182053 -3.885452 4.500626
5.179062 -3.884964 4.541275
5.242386 -3.890121 4.509384
5.200546 -3.883865 4.502304
5.199722 -3.883377 4.529709
5.220047 -3.889542 4.504196
5.218124 -3.889297 4.558670
5.198959 -3.882736 4.557327
5.240768 -3.891708 4.535599
5.219193 -3.889145 4.531570
5.178543 -3.875381 4.583603
5.239731 -3.891861 4.562729
5.216721 -3.890366 4.585342
5.190536 -3.885117 4.586166
5.197586 -3.883804 4.583969
5.239151 -3.890762 4.590744
5.215988 -3.889725 4.613113
5.196548 -3.883896 4.611282
5.237747 -3.891769 4.617538
5.123978 -3.784805 4.617264
5.182449 -3.873062 4.503342
5.165298 -3.860397 4.505630
5.181473 -3.873032 4.530533
5.149277 -3.841141 4.511581
5.154984 -3.834946 4.514755
5.136337 -3.817123 4.520706
5.146530 -3.819595 4.527634
5.150192 -3.845078 4.531967
5.163986 -3.861252 4.532303
5.162582 -3.862320 4.558884
5.180191 -3.873764 4.557327
5.147964 -3.841965 4.538284
5.151596 -3.832443 4.535995
5.148972 -3.830490 4.557907
5.135056 -3.817917 4.547531
5.138321 -3.782578 4.507462
5.141830 -3.805862 4.519241
5.135910 -3.806442 4.526962
5.130264 -3.778610 4.511398
5.135513 -3.780533 4.529129
5.140060 -3.767532 4.520493
5.139755 -3.767624 4.527237
5.137466 -3.762344 4.522598
5.138901 -3.803696 4.540817
5.129288 -3.778549 4.538712
5.136673 -3.761765 4.546036
5.134964 -3.780136 4.552841
5.161057 -3.863815 4.585312
5.145126 -3.844498 4.571915
5.146225 -3.843979 4.564377
5.144638 -3.845535 4.590744
5.140945 -3.816971 4.572739
5.133713 -3.818863 4.574265
5.144516 -3.827164 4.578293
5.142990 -3.847244 4.617111
5.178055 -3.874161 4.611740
5.159866 -3.864304 4.612381
5.142105 -3.825394 4.600540
5.131973 -3.820816 4.600510
5.139297 -3.823318 4.622482
5.136551 -3.814926 4.618240
5.137711 -3.806137 4.568924
5.136093 -3.801651 4.562607
5.135483 -3.801193 4.586349
5.126114 -3.781693 4.591660
5.144150 -3.767410 4.569931
5.134293 -3.779648 4.576492
5.127426 -3.780869 4.564682
5.136368 -3.765884 4.566086
5.135880 -3.761185 4.569565
5.135208 -3.760696 4.593307
5.132950 -3.799332 4.608505
5.132401 -3.778244 4.599136
5.131790 -3.777817 4.623032
5.133896 -3.764877 4.612076
5.133133 -3.759171 4.615799
5.174942 -3.876999 4.664932
5.236526 -3.892319 4.644669
5.214645 -3.890610 4.639999
5.195297 -3.884445 4.638382
5.213486 -3.891006 4.667282
5.194077 -3.885117 4.665482
5.235672 -3.891922 4.672440
5.174210 -3.876358 4.692947
5.173019 -3.876755 4.720352
5.171768 -3.877426 4.747726
5.234787 -3.891708 4.700211
5.212326 -3.891342 4.694687
5.193100 -3.884995 4.693130
5.211288 -3.891403 4.722305
5.192093 -3.884995 4.720810
5.209915 -3.892380 4.749435
5.190475 -3.886581 4.747574
5.233383 -3.892654 4.727310
5.122757 -3.785446 4.644455
5.120804 -3.787979 4.670547
5.120224 -3.786758 4.699020
5.118973 -3.787430 4.726456
5.158279 -3.865768 4.638931
5.163589 -3.862320 4.653366
5.141495 -3.848587 4.643784
5.130081 -3.823196 4.626541
5.128677 -3.824295 4.653397
5.135544 -3.820511 4.643631
5.153030 -3.854446 4.668533
5.139359 -3.851517 4.669540
5.156662 -3.867447 4.665421
5.133591 -3.819077 4.666519
5.127457 -3.824905 4.680618
5.130966 -3.797867 4.631180
5.130478 -3.797501 4.655319
5.133438 -3.759415 4.640579
5.130417 -3.776779 4.646286
5.131119 -3.812363 4.663437
5.128433 -3.796005 4.678085
5.129745 -3.776321 4.670273
5.132614 -3.758804 4.664383
5.130905 -3.757584 4.687485
5.155838 -3.866989 4.693314
5.155106 -3.856003 4.695175
5.139542 -3.848465 4.699081
5.153366 -3.854721 4.718460
5.134720 -3.819901 4.692215
5.127060 -3.823227 4.709366
5.155716 -3.864639 4.722458
5.139786 -3.845169 4.728836
5.137039 -3.821640 4.719162
5.137161 -3.821732 4.744186
5.126999 -3.820694 4.738754
5.127823 -3.795547 4.702255
5.128799 -3.775620 4.694138
5.127945 -3.775009 4.718124
5.129990 -3.756912 4.711411
5.129074 -3.796494 4.728256
5.126907 -3.774246 4.742020
5.129074 -3.756241 4.735397
5.249802 -3.757492 4.715439
5.272507 -3.918320 4.646988
5.270615 -3.919998 4.509628
5.293716 -3.875992 4.501846
5.264847 -3.890518 4.514755
5.293777 -3.900070 4.523056
5.292526 -3.876572 4.528732
5.304123 -3.880020 4.516617
5.271957 -3.919662 4.536362
5.263809 -3.890640 4.541885
5.302689 -3.879654 4.544968
5.294144 -3.899704 4.550369
5.290451 -3.879288 4.554337
5.271866 -3.919327 4.564041
5.270828 -3.918961 4.592361
5.262589 -3.891159 4.568863
5.302628 -3.879318 4.572617
5.293167 -3.899399 4.578568
5.290390 -3.876846 4.583176
5.270187 -3.918655 4.620529
5.262161 -3.889816 4.597000
5.260788 -3.890701 4.623886
5.291336 -3.899033 4.607407
5.301010 -3.879013 4.601242
5.289413 -3.876877 4.610550
5.305679 -3.859695 4.515457
5.300980 -3.839340 4.518021
5.294113 -3.820389 4.521957
5.303879 -3.859360 4.544022
5.298752 -3.838974 4.546890
5.290878 -3.820023 4.551437
5.284653 -3.800369 4.527481
5.275131 -3.780411 4.505508
5.260849 -3.759964 4.513901
5.283493 -3.800064 4.555740
5.271927 -3.780014 4.534958
5.257645 -3.759567 4.543350
5.302597 -3.859024 4.572372
5.296890 -3.838608 4.575607
5.289627 -3.819687 4.579819
5.300308 -3.858658 4.601456
5.294907 -3.838303 4.604507
5.288040 -3.819321 4.608505
5.279068 -3.799637 4.586075
5.267532 -3.779648 4.565170
5.254318 -3.759171 4.573044
5.276505 -3.799301 4.615372
5.265305 -3.779251 4.594223
5.252274 -3.758835 4.602005
5.263931 -3.778946 4.622879
5.292892 -3.898727 4.634262
5.300461 -3.878677 4.629379
5.260178 -3.889694 4.652023
5.287888 -3.878067 4.637344
5.273849 -3.917953 4.674118
5.259018 -3.890030 4.679398
5.293686 -3.898392 4.661636
5.287094 -3.877579 4.665237
5.299820 -3.878311 4.657639
5.298630 -3.877975 4.686264
5.275742 -3.917648 4.701004
5.257553 -3.891281 4.706284
5.293167 -3.898056 4.689926
5.285934 -3.878036 4.692612
5.293106 -3.897720 4.718002
5.299698 -3.877640 4.713669
5.277847 -3.917313 4.727768
5.256577 -3.891129 4.734116
5.284470 -3.879105 4.719650
5.294693 -3.897385 4.745132
5.282730 -3.880936 4.746292
5.299332 -3.877304 4.742020
5.299667 -3.858322 4.629593
5.294754 -3.837936 4.632401
5.287338 -3.818985 4.636765
5.300156 -3.857742 4.657150
5.298630 -3.857407 4.686020
5.293259 -3.837601 4.661179
5.289169 -3.818680 4.663528
5.276382 -3.798965 4.643295
5.250900 -3.758499 4.630692
5.264023 -3.778610 4.650742
5.278488 -3.798660 4.669937
5.251450 -3.758163 4.658310
5.265640 -3.778305 4.677719
5.252060 -3.757858 4.685959
5.297379 -3.857071 4.714828
5.292709 -3.837265 4.689468
5.284988 -3.818314 4.694077
5.297623 -3.856735 4.742813
5.289871 -3.836899 4.719284
5.283340 -3.817947 4.723190
5.290359 -3.836563 4.747147
5.276779 -3.798294 4.699020
5.261215 -3.777908 4.708511
5.273361 -3.797928 4.729233
5.261215 -3.777573 4.736649
5.250259 -3.757156 4.743362
5.139481 -3.744766 4.637833
5.159012 -3.725082 4.516647
5.156357 -3.726120 4.519638
5.141220 -3.746017 4.517929
5.149094 -3.731979 4.516586
5.172592 -3.709976 4.520981
5.158249 -3.718613 4.516281
5.141434 -3.746170 4.542221
5.148911 -3.731857 4.540543
5.156143 -3.730057 4.555008
5.158859 -3.719070 4.540939
5.163986 -3.729568 4.533463
5.173904 -3.710953 4.546280
5.231796 -3.740616 4.531052
5.199234 -3.697830 4.504227
5.188126 -3.700668 4.502029
5.200882 -3.699783 4.526718
5.189621 -3.701736 4.527420
5.214493 -3.699753 4.516830
5.218643 -3.702713 4.544601
5.197922 -3.697830 4.540604
5.192184 -3.703598 4.553848
5.159134 -3.719284 4.589676
5.140305 -3.745377 4.565445
5.147812 -3.731033 4.563736
5.154739 -3.725540 4.565781
5.140244 -3.745316 4.589676
5.149063 -3.731949 4.589157
5.154739 -3.730362 4.591690
5.173782 -3.710861 4.570389
5.158188 -3.718613 4.564560
5.139206 -3.744583 4.613113
5.148453 -3.731552 4.612991
5.158524 -3.718857 4.613541
5.173447 -3.710617 4.594406
5.173508 -3.710678 4.618881
5.225235 -3.740158 4.562668
5.197830 -3.730423 4.584854
5.223404 -3.739792 4.591507
5.192764 -3.703995 4.578629
5.195389 -3.701767 4.578537
5.221451 -3.704697 4.571335
5.215652 -3.739273 4.624069
5.193924 -3.704849 4.604019
5.191879 -3.709000 4.617844
5.224380 -3.706772 4.598251
5.224380 -3.706772 4.622726
5.147934 -3.731186 4.637009
5.152481 -3.733322 4.629471
5.158218 -3.718643 4.637711
5.174484 -3.711380 4.644241
5.137772 -3.743546 4.660843
5.151535 -3.732162 4.665726
5.147507 -3.730850 4.661148
5.138229 -3.743881 4.685898
5.147293 -3.730728 4.685593
5.158463 -3.718826 4.687149
5.174088 -3.711075 4.668472
5.158279 -3.718674 4.662308
5.217087 -3.738998 4.651169
5.193375 -3.704453 4.627975
5.193283 -3.704391 4.652451
5.223923 -3.706467 4.646866
5.216476 -3.738663 4.679581
5.193985 -3.704880 4.677689
5.222794 -3.705673 4.670517
5.148636 -3.737106 4.704453
5.137131 -3.743088 4.709641
5.147110 -3.730576 4.710159
5.174515 -3.711411 4.693558
5.158218 -3.718643 4.711655
5.173508 -3.710709 4.717422
5.135757 -3.742111 4.733200
5.146072 -3.729843 4.734024
5.147141 -3.737717 4.741562
5.174484 -3.711411 4.743149
5.157608 -3.718216 4.735916
5.218521 -3.738388 4.706497
5.194199 -3.705063 4.702652
5.203476 -3.702133 4.714554
5.221207 -3.704544 4.693832
5.221024 -3.704422 4.718460
5.216141 -3.738022 4.736191
5.193710 -3.704727 4.727005
5.220871 -3.704330 4.743240
5.165726 -3.877151 4.916092
5.170761 -3.877396 4.775558
5.169632 -3.877701 4.803238
5.232071 -3.893387 4.754623
5.207718 -3.895432 4.775375
5.189285 -3.887009 4.775131
5.220047 -3.936935 4.792374
5.207260 -3.893967 4.804184
5.187912 -3.887955 4.802414
5.230484 -3.894852 4.781570
5.230087 -3.893234 4.810501
5.156723 -3.881332 4.826431
5.186813 -3.888107 4.830307
5.168320 -3.878433 4.830795
5.186142 -3.887192 4.858932
5.160965 -3.881149 4.869705
5.167831 -3.876999 4.859787
5.229019 -3.893417 4.838425
5.206131 -3.894272 4.831985
5.218460 -3.936234 4.850418
5.235306 -3.935837 4.868423
5.205368 -3.893570 4.860519
5.227493 -3.894638 4.865738
5.117783 -3.787888 4.754013
5.116226 -3.789352 4.781052
5.116348 -3.786301 4.811050
5.124649 -3.772598 4.789902
5.124466 -3.819321 4.823502
5.123306 -3.819687 4.851395
5.121353 -3.803207 4.813644
5.124710 -3.793289 4.824387
5.114243 -3.789200 4.837326
5.123672 -3.771896 4.814133
5.122116 -3.770737 4.837845
5.121262 -3.802841 4.855423
5.123642 -3.792496 4.848648
5.115280 -3.783646 4.869064
5.124313 -3.772354 4.865250
5.174911 -3.870834 4.763229
5.155380 -3.862869 4.751328
5.139084 -3.844315 4.757217
5.153488 -3.865128 4.777786
5.137741 -3.822189 4.769730
5.127151 -3.817581 4.768570
5.138260 -3.843765 4.785446
5.152817 -3.864243 4.806259
5.168594 -3.866104 4.782516
5.164200 -3.862839 4.803635
5.136246 -3.821060 4.793442
5.125961 -3.818039 4.796249
5.127365 -3.795242 4.751572
5.126419 -3.794540 4.775681
5.125198 -3.772995 4.765366
5.128555 -3.755875 4.759811
5.130234 -3.764999 4.773727
5.126694 -3.794754 4.801041
5.127823 -3.755356 4.784164
5.127121 -3.754837 4.808578
5.158157 -3.858322 4.823257
5.136856 -3.844833 4.812759
5.151474 -3.865158 4.833725
5.135361 -3.846054 4.840012
5.132614 -3.841690 4.818039
5.133408 -3.818954 4.815964
5.133255 -3.818863 4.841110
5.151047 -3.863541 4.862839
5.157059 -3.857498 4.847580
5.130936 -3.841263 4.859360
5.136032 -3.841507 4.871109
5.138412 -3.822708 4.871353
5.132462 -3.764694 4.816208
5.127274 -3.754959 4.833939
5.131851 -3.764297 4.857834
5.126694 -3.754532 4.858658
5.128281 -3.763321 4.844620
5.163284 -3.880905 4.912430
5.247269 -3.935501 4.889481
5.203842 -3.894821 4.887833
5.248062 -3.897171 4.898300
5.226059 -3.895676 4.893234
5.230179 -3.922745 4.934525
5.202866 -3.894669 4.916183
5.244034 -3.904709 4.921585
5.223495 -3.899551 4.918961
5.183640 -3.885635 4.944717
5.161697 -3.880417 4.953995
5.185165 -3.878983 4.977524
5.238846 -3.915268 4.942947
5.201004 -3.896835 4.943069
5.220718 -3.904099 4.944290
5.228714 -3.922318 4.976303
5.237961 -3.914871 4.971603
5.202042 -3.891525 4.974991
5.219894 -3.903549 4.973038
5.124710 -3.813156 4.883774
5.123123 -3.802536 4.897903
5.123703 -3.771927 4.890091
5.115219 -3.780991 4.899094
5.124680 -3.810501 4.913834
5.114914 -3.779037 4.928757
5.122787 -3.802109 4.939743
5.123734 -3.807480 4.972733
5.163437 -3.862259 4.879044
5.151321 -3.860123 4.893265
5.145706 -3.828140 4.903793
5.137589 -3.841171 4.903366
5.137894 -3.833878 4.904312
5.151505 -3.856888 4.923630
5.168869 -3.866348 4.909775
5.146835 -3.828995 4.930496
5.137589 -3.831924 4.933914
5.126083 -3.794327 4.876328
5.127609 -3.795456 4.903275
5.126389 -3.754318 4.883774
5.131027 -3.763870 4.899521
5.128342 -3.763596 4.891647
5.128983 -3.796494 4.930191
5.125168 -3.773026 4.917038
5.126816 -3.754623 4.909653
5.127640 -3.755264 4.936050
5.178421 -3.873520 4.944565
5.150406 -3.857071 4.951920
5.166428 -3.872635 4.947403
5.138962 -3.840836 4.945816
5.140549 -3.824326 4.950180
5.134537 -3.837326 4.958786
5.148544 -3.859238 4.978928
5.131058 -3.843826 4.982986
5.166336 -3.870132 4.977524
5.133530 -3.819107 4.969162
5.133163 -3.840225 4.986008
5.125015 -3.806900 4.944595
5.129623 -3.796951 4.956467
5.126144 -3.773727 4.943588
5.131180 -3.765305 4.939560
5.131454 -3.763504 4.941605
5.130142 -3.757095 4.964127
5.129349 -3.802017 4.983871
5.136032 -3.801712 4.988510
5.131638 -3.777786 4.974655
5.139725 -3.764114 4.999252
5.137253 -3.763351 4.985519
5.298782 -3.915237 4.884811
5.282913 -3.916611 4.781052
5.278854 -3.916946 4.755356
5.255234 -3.891953 4.761398
5.281204 -3.882156 4.773422
5.297562 -3.897049 4.771591
5.300034 -3.876968 4.769760
5.286118 -3.916275 4.807388
5.254349 -3.891586 4.789536
5.279526 -3.883835 4.800308
5.301987 -3.876663 4.796829
5.298874 -3.896713 4.799057
5.291702 -3.915909 4.832291
5.253372 -3.891495 4.817551
5.277817 -3.885605 4.827164
5.300552 -3.896378 4.826370
5.304672 -3.876328 4.823471
5.303879 -3.875778 4.839401
5.297165 -3.915573 4.857285
5.251724 -3.893051 4.844620
5.275864 -3.887894 4.853806
5.250107 -3.894577 4.871750
5.305435 -3.896042 4.851730
5.308578 -3.875992 4.849442
5.300003 -3.882919 4.862930
5.298447 -3.856400 4.770493
5.289841 -3.836227 4.775711
5.280441 -3.817581 4.753159
5.282272 -3.817276 4.780258
5.299667 -3.856094 4.798019
5.291275 -3.835892 4.803116
5.284317 -3.816971 4.807327
5.273117 -3.797623 4.757584
5.262589 -3.777267 4.764023
5.251633 -3.756882 4.770798
5.274399 -3.797287 4.785080
5.276596 -3.797012 4.812057
5.262466 -3.776932 4.792435
5.254257 -3.756577 4.797531
5.309433 -3.864456 4.818558
5.302872 -3.855759 4.824387
5.294540 -3.835587 4.829453
5.287216 -3.816666 4.833939
5.305801 -3.855453 4.850967
5.298599 -3.835342 4.855362
5.291672 -3.816422 4.859604
5.280502 -3.796738 4.838058
5.267746 -3.776718 4.817551
5.257828 -3.756332 4.823715
5.285934 -3.796219 4.863144
5.270462 -3.776413 4.844315
5.260574 -3.756088 4.850540
5.273483 -3.776138 4.870987
5.273270 -3.935074 4.901535
5.308029 -3.895706 4.878586
5.273392 -3.891495 4.879623
5.270706 -3.895676 4.905136
5.297012 -3.887833 4.887924
5.311203 -3.875687 4.876297
5.311722 -3.895340 4.904861
5.265152 -3.907120 4.925949
5.302658 -3.914871 4.910995
5.283157 -3.934708 4.923935
5.293320 -3.894485 4.911880
5.309280 -3.895004 4.935135
5.313858 -3.875351 4.903183
5.314713 -3.875015 4.931351
5.259232 -3.954910 4.939743
5.260941 -3.954544 4.967545
5.286789 -3.934372 4.950363
5.259506 -3.918777 4.946579
5.301743 -3.914536 4.940323
5.291367 -3.896744 4.938736
5.290115 -3.897263 4.966843
5.309219 -3.894669 4.964005
5.262741 -3.907883 4.982224
5.278824 -3.934006 4.984451
5.298264 -3.914169 4.971451
5.299301 -3.913834 4.999680
5.310837 -3.894302 4.991837
5.311661 -3.855148 4.875748
5.304886 -3.835037 4.879898
5.298935 -3.816147 4.883530
5.308853 -3.834732 4.905960
5.302628 -3.815872 4.909836
5.311600 -3.834427 4.932907
5.306076 -3.815598 4.936325
5.315201 -3.854843 4.902084
5.316635 -3.854507 4.929886
5.290482 -3.795944 4.888840
5.264694 -3.755814 4.876511
5.278061 -3.775894 4.896683
5.268784 -3.755569 4.902573
5.291367 -3.795639 4.916946
5.278488 -3.775558 4.925125
5.269608 -3.755264 4.930832
5.309860 -3.815292 4.962662
5.316788 -3.874680 4.958786
5.319138 -3.854202 4.957016
5.315475 -3.834152 4.959183
5.322220 -3.853867 4.983841
5.320633 -3.874374 4.985123
5.321335 -3.833878 4.984238
5.317917 -3.815048 4.986313
5.296982 -3.795395 4.942062
5.301651 -3.795120 4.967911
5.271103 -3.754990 4.958725
5.284164 -3.775345 4.950302
5.311020 -3.794907 4.990677
5.278275 -3.754776 4.982986
5.292374 -3.775162 4.973831
5.299454 -3.774948 4.998184
5.133560 -3.740524 4.881943
5.135452 -3.741867 4.757797
5.144363 -3.728622 4.757370
5.150742 -3.724564 4.751633
5.133377 -3.740372 4.780869
5.157608 -3.718216 4.760849
5.172623 -3.710068 4.766403
5.143784 -3.728195 4.781815
5.134079 -3.740891 4.806595
5.145248 -3.729263 4.808273
5.153854 -3.726395 4.799454
5.168625 -3.727432 4.784714
5.173965 -3.711044 4.792709
5.157333 -3.718033 4.785599
5.156845 -3.717697 4.810287
5.219955 -3.737778 4.762131
5.193558 -3.704605 4.751755
5.202774 -3.702042 4.761276
5.217789 -3.702164 4.765427
5.191818 -3.703384 4.775162
5.225388 -3.737564 4.787125
5.232498 -3.737411 4.811142
5.216354 -3.701157 4.789200
5.192551 -3.703903 4.800949
5.199997 -3.700882 4.807419
5.249710 -3.705734 4.811569
5.177170 -3.727310 4.829239
5.133652 -3.740585 4.831406
5.145432 -3.729416 4.833633
5.159103 -3.719315 4.837570
5.175552 -3.712204 4.819321
5.134232 -3.741013 4.857224
5.145584 -3.729538 4.859085
5.154922 -3.727188 4.846725
5.169296 -3.726669 4.868729
5.176163 -3.712631 4.845139
5.158279 -3.718735 4.862137
5.175095 -3.711868 4.869461
5.237320 -3.737167 4.836655
5.193008 -3.704239 4.826584
5.214676 -3.699936 4.812790
5.211655 -3.697830 4.835251
5.242081 -3.700363 4.829819
5.244247 -3.737015 4.860855
5.192001 -3.703506 4.850906
5.197983 -3.700119 4.853897
5.209000 -3.695938 4.858078
5.190323 -3.702316 4.874710
5.237228 -3.696945 4.850662
5.228470 -3.690781 4.867905
5.144547 -3.728775 4.883469
5.152542 -3.726242 4.893051
5.157272 -3.718033 4.886581
5.172592 -3.710068 4.892563
5.133835 -3.740738 4.907700
5.143997 -3.728378 4.908432
5.132706 -3.739914 4.932205
5.141861 -3.727066 4.932053
5.165329 -3.726120 4.909470
5.155075 -3.716446 4.909958
5.153488 -3.715286 4.934036
5.167892 -3.706711 4.913620
5.183426 -3.697433 4.919205
5.164383 -3.704208 4.935867
5.246780 -3.736740 4.887894
5.206772 -3.694351 4.881424
5.191818 -3.697189 4.899124
5.187912 -3.700638 4.897934
5.203323 -3.691940 4.903702
5.249710 -3.736496 4.914780
5.214737 -3.715225 4.908340
5.227097 -3.715225 4.929276
5.223557 -3.687332 4.888809
5.212967 -3.679855 4.929947
5.196671 -3.687210 4.922958
5.220352 -3.685074 4.911331
5.249893 -3.685928 4.930283
5.159134 -3.725510 4.949539
5.151016 -3.725723 4.939651
5.134506 -3.741257 4.959610
5.143021 -3.727921 4.958847
5.150925 -3.713486 4.957260
5.176132 -3.692245 4.937881
5.158615 -3.700089 4.956039
5.169876 -3.687759 4.957565
5.185715 -3.688339 4.957169
5.142197 -3.727341 4.983841
5.138412 -3.744095 4.989151
5.156876 -3.725052 4.990921
5.148087 -3.711411 4.980240
5.157730 -3.699448 4.980942
5.183426 -3.687851 4.998611
5.237686 -3.715164 4.951370
5.242111 -3.714920 4.977493
5.182968 -3.677505 4.961258
5.178543 -3.674362 4.982773
5.167892 -3.686356 4.981430
5.238968 -3.678238 4.945663
5.203720 -3.673325 4.946854
5.189590 -3.682175 4.941879
5.198563 -3.669693 4.967667
5.228867 -3.671188 4.961868
5.198807 -3.669876 4.993729
5.228745 -3.666733 4.998886
5.226578 -3.669571 4.985519
5.273239 -3.702316 4.926468
5.258224 -3.711746 4.794113
5.256363 -3.736313 4.939316
5.256180 -3.735977 4.968338
5.258713 -3.735703 4.995682
5.243698 -3.828842 5.888412
5.247879 -3.854263 5.392105
5.246353 -3.880112 5.138657
5.182022 -3.880997 5.002640
5.244370 -3.895920 5.012741
5.205521 -3.879837 5.011307
5.225021 -3.887680 5.012161
5.204117 -3.881638 5.052078
5.244736 -3.892349 5.043808
5.225998 -3.882431 5.044327
5.245438 -3.887924 5.075546
5.227432 -3.876114 5.077347
5.246170 -3.883316 5.107498
5.221573 -3.882065 5.100174
5.172501 -3.851273 5.018600
5.156357 -3.835861 5.023056
5.163467 -3.841141 5.037949
5.176498 -3.838028 5.056137
5.189590 -3.864853 5.015518
5.207077 -3.873062 5.044510
5.191055 -3.858231 5.048599
5.154190 -3.794388 5.022446
5.152237 -3.754166 5.028549
5.153885 -3.802658 5.033920
5.150742 -3.788620 5.048264
5.155319 -3.763657 5.033493
5.157181 -3.776901 5.042282
5.163132 -3.815262 5.065567
5.180496 -3.841507 5.085770
5.179672 -3.826889 5.092514
5.209152 -3.865005 5.078690
5.193985 -3.847885 5.084366
5.210617 -3.858475 5.112015
5.227646 -3.872879 5.108414
5.188034 -3.819321 5.108047
5.195755 -3.840500 5.118271
5.172806 -3.808121 5.066788
5.165115 -3.802719 5.079849
5.168930 -3.785507 5.079971
5.163254 -3.762192 5.065445
5.168503 -3.763748 5.080032
5.168900 -3.797165 5.106613
5.174179 -3.788406 5.094772
5.177902 -3.792099 5.115128
5.170944 -3.767807 5.099258
5.177200 -3.752731 5.122574
5.230026 -3.882095 5.145462
5.246353 -3.877487 5.169510
5.237259 -3.882034 5.190475
5.246719 -3.882095 5.236374
5.181961 -3.818161 5.127365
5.228622 -3.867691 5.140915
5.211777 -3.852737 5.144913
5.189651 -3.841537 5.131180
5.196976 -3.834610 5.151291
5.203171 -3.830460 5.149460
5.212509 -3.848068 5.177170
5.228928 -3.864120 5.172409
5.198349 -3.828232 5.184830
5.199356 -3.841568 5.176895
5.175217 -3.802750 5.125504
5.187271 -3.798965 5.150894
5.178787 -3.773544 5.133408
5.179703 -3.763840 5.126083
5.174088 -3.780716 5.146774
5.182968 -3.756912 5.154770
5.184769 -3.802750 5.171127
5.184067 -3.809891 5.162094
5.184128 -3.777451 5.165268
5.184433 -3.763626 5.170120
5.186081 -3.759201 5.184525
5.179153 -3.764481 5.186996
5.190018 -3.796890 5.147293
5.193558 -3.803574 5.183792
5.246902 -3.873428 5.201462
5.229813 -3.859146 5.205032
5.216599 -3.840347 5.189468
5.213181 -3.843643 5.209457
5.247147 -3.869980 5.233170
5.230148 -3.855484 5.236862
5.206802 -3.841507 5.222000
5.199936 -3.821304 5.218857
5.213974 -3.838760 5.242142
5.186722 -3.800095 5.197983
5.180984 -3.763077 5.211472
5.180649 -3.757675 5.220993
5.191971 -3.798172 5.195541
5.190506 -3.782089 5.198288
5.192703 -3.802689 5.216324
5.195663 -3.750046 5.190414
5.189774 -3.761887 5.214951
5.202347 -3.810013 5.219376
5.194412 -3.784927 5.229019
5.190353 -3.787704 5.235855
5.193405 -3.764511 5.245468
5.308945 -3.912064 5.139359
5.299667 -3.913467 5.028488
5.275467 -3.933670 5.015671
5.265457 -3.898453 5.017105
5.292892 -3.887711 5.001724
5.292221 -3.886734 5.031021
5.270187 -3.933304 5.048264
5.301315 -3.913132 5.056503
5.266800 -3.892410 5.049820
5.291946 -3.884750 5.061050
5.313248 -3.893967 5.019211
5.317398 -3.893631 5.045578
5.303391 -3.912766 5.084366
5.271866 -3.932968 5.076370
5.267380 -3.888321 5.081375
5.291641 -3.882889 5.091171
5.306686 -3.912430 5.111465
5.267349 -3.885635 5.112045
5.290085 -3.884140 5.119217
5.320602 -3.893295 5.072586
5.323563 -3.892929 5.099869
5.322159 -3.874008 5.013077
5.327133 -3.853561 5.009537
5.326462 -3.833603 5.009811
5.325180 -3.814804 5.010483
5.326859 -3.873703 5.039017
5.330338 -3.853256 5.036453
5.332779 -3.844284 5.036911
5.335770 -3.852951 5.061935
5.328140 -3.853256 5.059677
5.330368 -3.833298 5.036240
5.330063 -3.814560 5.036270
5.283188 -3.754532 5.008774
5.307053 -3.774765 5.022202
5.288773 -3.754318 5.034195
5.310867 -3.774490 5.048782
5.293869 -3.754105 5.059982
5.318344 -3.794724 5.014847
5.322617 -3.794449 5.041092
5.329605 -3.873337 5.066299
5.333542 -3.873032 5.092880
5.323715 -3.861588 5.082962
5.337723 -3.852615 5.089859
5.332565 -3.832962 5.063919
5.331650 -3.814224 5.064346
5.336411 -3.832657 5.090530
5.334152 -3.813919 5.091843
5.337082 -3.872696 5.119827
5.321182 -3.865250 5.109421
5.340561 -3.852280 5.117203
5.338272 -3.832352 5.118546
5.337204 -3.813583 5.119125
5.294266 -3.753769 5.088943
5.300674 -3.753586 5.114029
5.324722 -3.794144 5.068802
5.313339 -3.774185 5.076309
5.329147 -3.793869 5.095108
5.330185 -3.793564 5.123703
5.314713 -3.773880 5.104660
5.289719 -3.882370 5.149460
5.267593 -3.882370 5.143265
5.267166 -3.880722 5.173447
5.288956 -3.881638 5.179062
5.325424 -3.892624 5.127945
5.330215 -3.892258 5.154099
5.314011 -3.911728 5.165390
5.332596 -3.891922 5.181992
5.288345 -3.880508 5.209030
5.267227 -3.877884 5.204575
5.267288 -3.875046 5.235855
5.287735 -3.879318 5.239151
5.313950 -3.911362 5.195053
5.335739 -3.891556 5.209457
5.318344 -3.911026 5.221695
5.335587 -3.891220 5.239243
5.319016 -3.868057 5.136520
5.339615 -3.872360 5.147476
5.343582 -3.851974 5.144547
5.340805 -3.832016 5.146225
5.339890 -3.813309 5.146683
5.316940 -3.870529 5.163895
5.342728 -3.872025 5.174820
5.345779 -3.851639 5.172531
5.341507 -3.812973 5.175034
5.344803 -3.831711 5.172958
5.303757 -3.753281 5.141342
5.305130 -3.752975 5.169968
5.332932 -3.793228 5.151260
5.318680 -3.773605 5.131332
5.334976 -3.792923 5.179367
5.320267 -3.773270 5.159775
5.345352 -3.871689 5.202591
5.315201 -3.872238 5.191910
5.347733 -3.851303 5.200729
5.348373 -3.845871 5.216537
5.346786 -3.831406 5.201157
5.352615 -3.838028 5.192642
5.344894 -3.812668 5.202316
5.313553 -3.873611 5.220200
5.347214 -3.871353 5.230972
5.350601 -3.850967 5.228378
5.345963 -3.849197 5.243637
5.349167 -3.831039 5.229172
5.307785 -3.752701 5.197739
5.310898 -3.752426 5.225327
5.338211 -3.792618 5.206772
5.322647 -3.772995 5.187637
5.327164 -3.772751 5.214249
5.339676 -3.792313 5.235458
5.346024 -3.812332 5.231186
5.325272 -3.772354 5.245255
5.185989 -3.744797 5.139786
5.153641 -3.735641 5.020859
5.156479 -3.717484 5.014297
5.162979 -3.703232 5.011887
5.173019 -3.690018 5.012253
5.177689 -3.725418 5.039841
5.165085 -3.733475 5.038437
5.165329 -3.744125 5.058334
5.168930 -3.726456 5.052444
5.177750 -3.713821 5.052261
5.187027 -3.700027 5.051895
5.242966 -3.714645 5.005966
5.197098 -3.700668 5.042404
5.198776 -3.688736 5.054306
5.216751 -3.688583 5.051682
5.240585 -3.714249 5.036667
5.187424 -3.680679 5.017258
5.228989 -3.671280 5.013718
5.207260 -3.675827 5.027817
5.211990 -3.679184 5.058487
5.233231 -3.674240 5.043839
5.179703 -3.741287 5.090347
5.171860 -3.748856 5.090958
5.173752 -3.729935 5.083359
5.183578 -3.718002 5.084152
5.179520 -3.734116 5.115341
5.186569 -3.720139 5.113388
5.189072 -3.725449 5.085861
5.192581 -3.703995 5.083481
5.196243 -3.700485 5.089523
5.202744 -3.691544 5.084335
5.236404 -3.713791 5.068680
5.195358 -3.705978 5.112534
5.206436 -3.694168 5.114273
5.240036 -3.713577 5.095627
5.241592 -3.680161 5.078110
5.215714 -3.681808 5.088303
5.242661 -3.680893 5.105423
5.220413 -3.685135 5.119217
5.183395 -3.736893 5.145615
5.187057 -3.739548 5.175827
5.198990 -3.725388 5.131546
5.190018 -3.722641 5.143234
5.200485 -3.702927 5.138260
5.198318 -3.708084 5.141861
5.208542 -3.695694 5.142776
5.203201 -3.725143 5.175430
5.192856 -3.724686 5.172623
5.200607 -3.709732 5.170670
5.212112 -3.698227 5.172867
5.244888 -3.682480 5.134018
5.222580 -3.686691 5.147812
5.245468 -3.682877 5.161118
5.223404 -3.687271 5.175217
5.194931 -3.726181 5.201370
5.189804 -3.741562 5.205276
5.201645 -3.724716 5.217484
5.206741 -3.706406 5.187790
5.201859 -3.710648 5.198593
5.214249 -3.699753 5.201675
5.225357 -3.688675 5.203842
5.191422 -3.742722 5.233719
5.197433 -3.727982 5.230667
5.204758 -3.712723 5.228256
5.215378 -3.700546 5.229599
5.214584 -3.710678 5.237930
5.226852 -3.689713 5.232132
5.246323 -3.683487 5.188614
5.246872 -3.683853 5.215897
5.245346 -3.682816 5.241257
5.272293 -3.734329 5.133011
5.261581 -3.735428 5.022903
5.264847 -3.735184 5.049942
5.267136 -3.734909 5.077682
5.271164 -3.734665 5.104324
5.261948 -3.684128 5.104019
5.302780 -3.702744 5.154678
5.275772 -3.734085 5.160202
5.296371 -3.698257 5.175064
5.257767 -3.682266 5.150284
5.277267 -3.733780 5.188828
5.278244 -3.733475 5.217850
5.281235 -3.687729 5.213730
5.286819 -3.691605 5.192429
5.283035 -3.733261 5.244370
5.280197 -3.686996 5.239578
5.256760 -3.682266 5.245255
5.222641 -3.840683 5.398636
5.247574 -3.866104 5.265213
5.230423 -3.852066 5.268661
5.208878 -3.814804 5.252853
5.201492 -3.814499 5.252945
5.215378 -3.832382 5.276047
5.213425 -3.841415 5.266922
5.247726 -3.863083 5.296799
5.231186 -3.847305 5.301498
5.218185 -3.821609 5.289352
5.218246 -3.841263 5.311325
5.215317 -3.829727 5.307419
5.197372 -3.802505 5.260544
5.197403 -3.787125 5.258957
5.194199 -3.763199 5.258499
5.197464 -3.767471 5.276596
5.191788 -3.781174 5.269852
5.201706 -3.811172 5.284744
5.202469 -3.790817 5.291214
5.201828 -3.802292 5.304764
5.217453 -3.811905 5.299271
5.203293 -3.754471 5.288223
5.198746 -3.768417 5.305008
5.193253 -3.774429 5.304123
5.195053 -3.762833 5.301529
5.247787 -3.860123 5.328476
5.215836 -3.825485 5.340073
5.224625 -3.826340 5.323135
5.231705 -3.843185 5.333969
5.247971 -3.856857 5.360489
5.216263 -3.821640 5.372543
5.221115 -3.840988 5.355148
5.230911 -3.830948 5.356918
5.220291 -3.813705 5.348099
5.231949 -3.839828 5.366104
5.219009 -3.822250 5.372177
5.203140 -3.804581 5.318985
5.206406 -3.793686 5.322403
5.195145 -3.766647 5.339279
5.201492 -3.770401 5.335068
5.204880 -3.755600 5.336533
5.204208 -3.798935 5.352646
5.204025 -3.801987 5.348343
