5.913284 11.728806 3.303177
5.918411 11.741287 3.298141
5.884415 11.686966 3.361191
5.906418 11.718063 3.322769
5.890945 11.693832 3.312607
5.899338 11.706680 3.320358
5.884109 11.687820 3.338669
5.891617 11.694382 3.330399
5.900070 11.706741 3.336472
5.899155 11.707260 3.343369
5.906967 11.718277 3.340622
5.913528 11.728165 3.325760
5.917923 11.741104 3.316269
5.917648 11.740982 3.334366
5.888504 11.693069 3.349625
5.888870 11.693222 3.367630
5.899094 11.707474 3.366287
5.906662 11.718155 3.358780
5.913223 11.729050 3.348923
5.918259 11.741226 3.352158
5.913315 11.728806 3.371750
5.918411 11.741318 3.370132
5.766617 11.654037 3.455460
5.788803 11.652298 3.383469
5.768204 11.649460 3.384903
5.756332 11.650833 3.377335
5.778091 11.652603 3.393448
5.809311 11.656235 3.405258
5.809158 11.656570 3.382492
5.767075 11.652603 3.408981
5.766769 11.653641 3.432297
5.779068 11.654526 3.429001
5.789627 11.655930 3.414169
5.788437 11.653366 3.406754
5.788345 11.653610 3.429764
5.808640 11.658157 3.428879
5.849686 11.665543 3.380844
5.840073 11.668625 3.383286
5.829788 11.659256 3.381027
5.817703 11.658707 3.399490
5.829269 11.660812 3.404465
5.867355 11.675339 3.382065
5.849472 11.666306 3.403976
5.866806 11.677048 3.405594
5.828934 11.662491 3.413803
5.818558 11.660446 3.435043
5.829147 11.661240 3.427536
5.866623 11.674484 3.414597
5.861862 11.673721 3.408127
5.848465 11.669205 3.427994
5.865952 11.679703 3.429489
5.808487 11.658676 3.452042
5.780594 11.657578 3.464951
5.758926 11.659073 3.454483
5.789261 11.657700 3.456100
5.765915 11.656113 3.479263
5.807846 11.660568 3.475784
5.787369 11.656540 3.476852
5.788406 11.661850 3.498581
5.807083 11.662735 3.499649
5.848557 11.669113 3.450882
5.828659 11.662674 3.451004
5.828812 11.663315 3.455521
5.841812 11.673996 3.460098
5.866318 11.678635 3.452042
5.862930 11.675766 3.443893
5.866135 11.676926 3.456650
5.828049 11.664566 3.474716
5.820175 11.663651 3.471085
5.827499 11.666092 3.498367
5.828293 11.665939 3.497696
5.848099 11.670486 3.474411
5.864792 11.679459 3.480179
5.866135 11.679184 3.475266
5.847610 11.671951 3.498001
5.865341 11.680893 3.499130
5.865799 11.680191 3.498703
5.906265 11.718063 3.449722
5.884048 11.688126 3.384445
5.887314 11.692581 3.386368
5.898788 11.708450 3.389542
5.900467 11.705063 3.377670
5.905533 11.717697 3.377274
5.887558 11.692703 3.404465
5.904892 11.717453 3.395645
5.918472 11.741379 3.388168
5.913223 11.729141 3.394791
5.918564 11.741409 3.406235
5.883896 11.688583 3.407516
5.900009 11.707413 3.419754
5.898666 11.708878 3.412643
5.883255 11.690598 3.431198
5.884567 11.691452 3.423843
5.898483 11.709488 3.435837
5.906326 11.718063 3.413284
5.906662 11.718216 3.431351
5.913315 11.728958 3.417709
5.918839 11.741562 3.424271
5.882492 11.690598 3.442886
5.879684 11.689377 3.462326
5.882950 11.691574 3.454544
5.899765 11.708817 3.461655
5.898514 11.709427 3.458817
5.913528 11.728348 3.440475
5.917862 11.741135 3.442825
5.913528 11.728409 3.463547
5.917374 11.740982 3.461197
5.882492 11.692917 3.478073
5.876755 11.688156 3.481796
5.898270 11.710159 3.482162
5.903275 11.716812 3.469101
5.904037 11.717148 3.487137
5.917068 11.740829 3.479538
5.913101 11.729752 3.487167
5.918167 11.741318 3.497391
5.612778 11.893021 3.450638
5.585007 11.786484 3.323196
5.582108 11.790482 3.264572
5.585556 11.783615 3.262466
5.584213 11.787521 3.284744
5.584946 11.786575 3.304153
5.586685 11.785965 3.297989
5.582565 11.819687 3.256607
5.583328 11.818649 3.275955
5.587479 11.842148 3.270248
5.585831 11.844437 3.250473
5.594345 11.859665 3.266800
5.584427 11.817123 3.295486
5.587051 11.842789 3.288834
5.588516 11.840744 3.308609
5.594864 11.858932 3.285934
5.594162 11.859909 3.304367
5.585495 11.785751 3.342545
5.588150 11.789017 3.333817
5.588425 11.789627 3.368973
5.587021 11.783707 3.362534
5.584976 11.816330 3.314774
5.587997 11.841446 3.327225
5.585251 11.815964 3.333908
5.594681 11.859238 3.323563
5.594162 11.859940 3.342178
5.585007 11.816330 3.352737
5.588821 11.840378 3.346664
5.586258 11.814621 3.372543
5.588791 11.840408 3.365677
5.594650 11.859299 3.361435
5.603867 11.875931 3.320755
5.602646 11.877579 3.263504
5.610977 11.895401 3.260300
5.611649 11.894455 3.279465
5.621353 11.908218 3.258835
5.622086 11.907242 3.278000
5.602768 11.877396 3.282394
5.603592 11.876297 3.301712
5.611954 11.894089 3.298416
5.620926 11.908798 3.296127
5.610611 11.895920 3.316483
5.603806 11.876022 3.339615
5.612442 11.893448 3.336441
5.620468 11.909470 3.314682
5.622330 11.906937 3.334671
5.603348 11.876663 3.358292
5.614059 11.891220 3.356308
5.621902 11.907516 3.353287
5.622269 11.907028 3.372452
5.632889 11.921921 3.313766
5.643600 11.934860 3.256027
5.632767 11.922012 3.257339
5.632278 11.922775 3.275803
5.644730 11.933426 3.275406
5.643753 11.934738 3.293625
5.632858 11.921921 3.294937
5.643143 11.935532 3.312088
5.666855 11.959091 3.254135
5.654343 11.948196 3.254532
5.654556 11.947861 3.273422
5.668137 11.957413 3.273575
5.680435 11.968887 3.254257
5.680283 11.969101 3.272903
5.653610 11.949173 3.291611
5.654495 11.948013 3.310928
5.680923 11.968277 3.292007
5.667374 11.958389 3.291916
5.667618 11.958054 3.310867
5.681412 11.967667 3.311081
5.745773 11.994247 3.260818
5.712479 11.982498 3.257126
5.696030 11.976761 3.255295
5.695602 11.977310 3.273788
5.712723 11.982162 3.276016
5.728134 11.989944 3.258316
5.728622 11.989334 3.277359
5.745224 11.994949 3.279282
5.712204 11.982864 3.294510
5.696121 11.976669 3.292831
5.696426 11.976273 3.311813
5.710617 11.984940 3.312424
5.727798 11.990433 3.295700
5.743484 11.997208 3.297134
5.643600 11.934952 3.331192
5.631912 11.923233 3.332047
5.644394 11.933853 3.350540
5.632401 11.922623 3.351212
5.633682 11.920883 3.370865
5.643265 11.935410 3.368759
5.681168 11.967972 3.329788
5.654770 11.947647 3.329910
5.667526 11.958237 3.329636
5.654526 11.948013 3.348618
5.654831 11.947586 3.367722
5.667221 11.958603 3.348312
5.666946 11.959000 3.367050
5.680313 11.969070 3.348160
5.680161 11.969345 3.366928
5.744034 11.996536 3.316269
5.696701 11.975906 3.330826
5.709885 11.985916 3.330826
5.727005 11.991440 3.314072
5.728104 11.990036 3.333542
5.742722 11.998215 3.334396
5.695328 11.977707 3.348892
5.709824 11.985977 3.349655
5.696243 11.976517 3.368332
5.710495 11.985123 3.368973
5.742691 11.998306 3.353256
5.726791 11.991745 3.351669
5.726212 11.992538 3.370255
5.742935 11.997940 3.372360
5.588699 11.790146 3.439285
5.587357 11.783218 3.381882
5.589310 11.791458 3.404556
5.587784 11.782608 3.401291
5.587692 11.782761 3.420425
5.588699 11.840500 3.384628
5.586441 11.814407 3.391739
5.589645 11.839249 3.404282
5.595291 11.858414 3.380844
5.594101 11.860031 3.399155
5.586563 11.814224 3.410965
5.585770 11.815292 3.429642
5.589157 11.839951 3.423080
5.594406 11.859634 3.418381
5.587509 11.783005 3.439560
5.588211 11.782028 3.459274
5.590744 11.778458 3.480148
5.590775 11.794479 3.475693
5.587875 11.812393 3.469376
5.587845 11.812454 3.488602
5.586777 11.813889 3.449448
5.588089 11.841415 3.441544
5.589951 11.838852 3.461899
5.595444 11.858231 3.438126
5.597031 11.856033 3.458267
5.589493 11.839493 3.480789
5.596420 11.856918 3.477066
5.595688 11.857925 3.495834
5.603958 11.875870 3.453842
5.603836 11.876022 3.377548
5.613754 11.891647 3.375076
5.603195 11.876877 3.396164
5.612717 11.893112 3.393417
5.621658 11.907852 3.391037
5.603256 11.876846 3.415237
5.611771 11.894363 3.411911
5.603500 11.876480 3.434464
5.612686 11.893173 3.431473
5.622086 11.907303 3.410294
5.622604 11.906631 3.429642
5.622421 11.906845 3.448624
5.620255 11.909836 3.466385
5.604019 11.875839 3.473038
5.611893 11.894241 3.469223
5.602890 11.877365 3.491501
5.611465 11.894852 3.488113
5.620438 11.909592 3.485611
5.642838 11.936050 3.444443
5.643112 11.935623 3.387589
5.632034 11.923111 3.388840
5.633774 11.920792 3.408890
5.643417 11.935226 3.406754
5.633255 11.921494 3.427597
5.643936 11.934555 3.426071
5.667007 11.958908 3.386002
5.655685 11.946457 3.387161
5.655045 11.947311 3.405746
5.666611 11.959488 3.404709
5.680099 11.969406 3.385818
5.678848 11.971054 3.404037
5.654129 11.948532 3.424179
5.665909 11.960464 3.423264
5.679459 11.970230 3.423386
5.725876 11.992996 3.388992
5.696152 11.976669 3.387192
5.709732 11.985794 3.387527
5.694504 11.978806 3.405197
5.709976 11.985458 3.406662
5.695145 11.977982 3.424576
5.709061 11.986679 3.425125
5.741776 11.999496 3.409622
5.725327 11.993698 3.407639
5.723618 11.995956 3.425644
5.632431 11.922623 3.446152
5.642654 11.936295 3.463425
5.632767 11.922195 3.465439
5.643051 11.935745 3.482773
5.632675 11.922287 3.484512
5.666306 11.959915 3.442551
5.654404 11.948196 3.443375
5.653458 11.949509 3.461838
5.666000 11.960312 3.461441
5.680527 11.968887 3.443069
5.679276 11.970535 3.461349
5.653763 11.949112 3.481125
5.667007 11.959030 3.481125
5.665512 11.960983 3.499344
5.679123 11.970749 3.480362
5.678268 11.971909 3.498947
5.722977 11.996811 3.444290
5.694717 11.978561 3.443344
5.707962 11.988144 3.443497
5.693893 11.979691 3.461899
5.708084 11.988022 3.462631
5.724014 11.995407 3.464005
5.693863 11.979691 3.481003
5.707199 11.989182 3.481186
5.693192 11.980606 3.499710
5.722122 11.997940 3.481949
5.870193 11.969742 3.446732
5.929977 11.781021 3.325363
5.923965 11.761276 3.258163
5.928299 11.770462 3.264481
5.928421 11.780350 3.254471
5.923965 11.761276 3.276016
5.924484 11.758743 3.265945
5.927994 11.780167 3.272446
5.929520 11.809830 3.258682
5.931961 11.799179 3.251053
5.930862 11.805771 3.280167
5.931473 11.798996 3.269028
5.924393 11.761459 3.293747
5.924240 11.759537 3.289017
5.927872 11.780136 3.290329
5.924362 11.759171 3.311752
5.924759 11.761642 3.311508
5.928085 11.780228 3.308151
5.929123 11.766708 3.305344
5.931046 11.798843 3.287003
5.930984 11.805344 3.302933
5.931534 11.799026 3.304672
5.931290 11.816269 3.266953
5.927780 11.831924 3.266068
5.925491 11.847855 3.264816
5.920853 11.863083 3.264359
5.931534 11.816360 3.284653
5.929214 11.832535 3.283371
5.931778 11.816483 3.302414
5.930466 11.833054 3.300735
5.925705 11.847977 3.282516
5.921585 11.863388 3.281876
5.926956 11.848465 3.299881
5.922195 11.863632 3.299484
5.925705 11.762070 3.329117
5.924545 11.758652 3.334457
5.932968 11.799637 3.322037
5.931686 11.803360 3.325180
5.933517 11.799850 3.339737
5.924576 11.758621 3.357376
5.926285 11.762314 3.346878
5.928360 11.780350 3.343887
5.928909 11.767807 3.347214
5.925827 11.762131 3.365036
5.929977 11.781052 3.361252
5.931107 11.798904 3.358566
5.932175 11.801804 3.347641
5.932571 11.800613 3.370224
5.932632 11.816849 3.319962
5.929123 11.832504 3.319077
5.933243 11.817123 3.337631
5.930283 11.832993 3.336533
5.928391 11.849075 3.317215
5.923569 11.864212 3.316818
5.927505 11.848740 3.335373
5.923660 11.864243 3.334641
5.932938 11.817001 3.355667
5.930679 11.833176 3.354294
5.933151 11.817093 3.373520
5.931900 11.833694 3.371780
5.928726 11.849228 3.352859
5.924850 11.864731 3.352097
5.929489 11.849564 3.370468
5.926865 11.865555 3.369278
5.805557 11.997971 3.328995
5.812302 11.993881 3.264236
5.763504 11.998123 3.263443
5.808487 11.994217 3.255020
5.784073 11.998428 3.267654
5.808212 11.994553 3.273727
5.763168 11.998550 3.282089
5.806778 11.996414 3.291794
5.783554 11.999069 3.286209
5.806168 11.997177 3.310379
5.863632 11.961197 3.252365
5.865738 11.962021 3.269394
5.832047 11.983536 3.259384
5.833054 11.983932 3.276901
5.842422 11.978073 3.266373
5.848251 11.973038 3.255661
5.849442 11.973495 3.273087
5.867874 11.962845 3.286484
5.868942 11.963242 3.303970
5.840439 11.980606 3.284256
5.813339 11.994247 3.281784
5.836868 11.985367 3.293442
5.838791 11.982712 3.302292
5.814743 11.994797 3.299210
5.836105 11.985062 3.311630
5.852798 11.974747 3.289749
5.851822 11.974411 3.307968
5.804337 11.999557 3.347275
5.869431 11.963425 3.321671
5.869797 11.963608 3.339432
5.837051 11.984909 3.320328
5.816299 11.995407 3.316605
5.817032 11.995651 3.334335
5.836105 11.986160 3.338821
5.838028 11.985825 3.328873
5.853134 11.974899 3.325424
5.855118 11.975662 3.342636
5.869766 11.963608 3.357376
5.871384 11.964218 3.374741
5.834183 11.988602 3.356766
5.816635 11.995529 3.352493
5.838943 11.986160 3.346512
5.818649 11.996323 3.369797
5.832657 11.990555 3.374985
5.838303 11.985947 3.364731
5.855728 11.975906 3.360367
5.918289 11.879776 3.316544
5.916183 11.878891 3.263870
5.910751 11.893784 3.263748
5.911545 11.894089 3.281235
5.904099 11.908401 3.264023
5.889084 11.936966 3.265213
5.896072 11.922012 3.264816
5.916733 11.879166 3.281448
5.917984 11.879654 3.298813
5.911636 11.894150 3.298996
5.904160 11.908401 3.281784
5.889481 11.937119 3.282852
5.897781 11.922714 3.281998
5.905716 11.909042 3.298996
5.888504 11.936752 3.301010
5.898239 11.922897 3.299667
5.877884 11.949448 3.267166
5.879959 11.950211 3.284225
5.879593 11.950119 3.302200
5.911240 11.894028 3.316971
5.919266 11.880173 3.334061
5.914597 11.895340 3.333633
5.906052 11.909195 3.316757
5.888901 11.936935 3.318741
5.899338 11.923355 3.317093
5.889694 11.937241 3.336319
5.899673 11.923477 3.334854
5.906845 11.909500 3.334305
5.919388 11.880234 3.351883
5.914383 11.895279 3.351608
5.920914 11.880844 3.369247
5.915634 11.895767 3.369064
5.900894 11.923965 3.352310
5.901352 11.924149 3.370071
5.908188 11.910080 3.351700
5.910049 11.910782 3.368942
5.880478 11.950455 3.319748
5.882248 11.951157 3.336990
5.880875 11.956192 3.337509
5.891251 11.937881 3.353653
5.883011 11.951431 3.354630
5.881668 11.955215 3.357101
5.882675 11.951309 3.372696
5.891708 11.938034 3.371414
5.925552 11.755875 3.448441
5.924911 11.761734 3.383408
5.924820 11.757919 3.380081
5.929184 11.766678 3.388657
5.926041 11.762253 3.401047
5.924667 11.758408 3.403244
5.930618 11.781326 3.379013
5.932114 11.799332 3.376175
5.931229 11.781601 3.396835
5.932938 11.799515 3.392899
5.934616 11.800369 3.393234
5.925308 11.761948 3.419418
5.929672 11.764328 3.429886
5.925278 11.756607 3.425613
5.926773 11.762589 3.436966
5.931412 11.781693 3.414810
5.933640 11.797440 3.415237
5.934555 11.800339 3.411270
5.932358 11.782089 3.432541
5.935562 11.800797 3.428940
5.933823 11.834457 3.389023
5.933640 11.817307 3.391342
5.930435 11.849960 3.388107
5.927628 11.865860 3.386948
5.932114 11.850632 3.405441
5.927902 11.865982 3.404831
5.935226 11.817978 3.408737
5.933121 11.834213 3.407272
5.935928 11.818253 3.426529
5.933884 11.834518 3.425003
5.933670 11.851273 3.422867
5.929276 11.866531 3.422318
5.926315 11.762375 3.455307
5.932144 11.782028 3.450729
5.933914 11.796555 3.438065
5.934738 11.800461 3.447372
5.934189 11.795853 3.460953
5.935593 11.800827 3.465164
5.925613 11.762100 3.473770
5.929977 11.763077 3.471359
5.924973 11.757614 3.472183
5.925125 11.757248 3.495224
5.926529 11.762527 3.491623
5.934372 11.795303 3.483963
5.930588 11.781357 3.469498
5.936356 11.801132 3.483017
5.930893 11.781509 3.487564
5.937332 11.818832 3.444046
5.933823 11.834518 3.443069
5.937027 11.818741 3.462234
5.935104 11.835037 3.460678
5.934097 11.851456 3.440750
5.930252 11.866959 3.439957
5.933548 11.851273 3.459030
5.930130 11.866928 3.458084
5.935379 11.835159 3.478683
5.937057 11.818771 3.498520
5.935715 11.835312 3.496689
5.933212 11.851151 3.477249
5.929977 11.866867 3.476242
5.934616 11.851700 3.494858
5.931076 11.867325 3.493942
5.937515 11.818924 3.480209
5.844620 11.988358 3.452805
5.873123 11.964890 3.392105
5.840500 11.986771 3.381973
5.820572 11.997025 3.387161
5.822250 11.997635 3.404617
5.842606 11.987564 3.399246
5.831375 11.992172 3.393326
5.856979 11.976395 3.377914
5.858505 11.976974 3.395370
5.874039 11.965256 3.409775
5.873398 11.965012 3.428055
5.872086 11.967361 3.428574
5.843155 11.987808 3.417099
5.826736 11.999313 3.421066
5.828964 11.995255 3.411057
5.829117 11.995041 3.430313
5.843704 11.987991 3.435013
5.859482 11.977371 3.413040
5.862106 11.978378 3.430130
5.862930 11.978683 3.466049
5.828110 11.996353 3.448929
5.825058 11.998734 3.439835
5.825363 11.999832 3.466507
5.827408 11.999619 3.457138
5.867447 11.973221 3.464462
5.863663 11.978989 3.483902
5.863785 11.977829 3.481644
5.846207 11.988968 3.470352
5.861771 11.980423 3.499771
5.846970 11.989243 3.488266
5.924362 11.882278 3.439896
5.921127 11.880936 3.387100
5.916275 11.896042 3.386765
5.923599 11.881943 3.404160
5.917618 11.896561 3.404221
5.902786 11.924728 3.387466
5.902451 11.924606 3.405563
5.910294 11.910904 3.386795
5.910660 11.911057 3.404617
5.918655 11.896988 3.421829
5.924179 11.882156 3.421951
5.904739 11.925491 3.422745
5.910782 11.911118 3.422592
5.892044 11.938187 3.389267
5.885025 11.952225 3.389816
5.880020 11.957321 3.375351
5.895401 11.939499 3.406021
5.876572 11.961685 3.392624
5.886246 11.952713 3.407333
5.876175 11.962173 3.411636
5.896500 11.939926 3.423599
5.887924 11.953384 3.424759
5.917343 11.896500 3.440384
5.923782 11.882065 3.458176
5.919693 11.897415 3.457504
5.904282 11.925339 3.440933
5.904343 11.925369 3.459000
5.910995 11.911209 3.440536
5.912613 11.911850 3.457993
5.924942 11.882523 3.475845
5.919357 11.897293 3.475723
5.926865 11.883286 3.493210
5.920456 11.897751 3.493423
5.906235 11.926102 3.476364
5.912643 11.911880 3.476059
5.914200 11.912491 3.493607
5.907578 11.926682 3.493973
5.898392 11.940659 3.440933
5.875259 11.965744 3.445450
5.887497 11.953232 3.442947
5.898270 11.940628 3.459061
5.876694 11.966293 3.462997
5.888535 11.953629 3.460648
5.898544 11.940750 3.477066
5.878281 11.966904 3.480515
5.889084 11.953873 3.478561
5.899521 11.941116 3.494827
5.879776 11.967484 3.498123
5.890549 11.954422 3.496140
5.932785 11.936996 3.965958
5.685287 11.684830 3.706589
5.605911 11.749985 3.501846
5.606583 11.746506 3.524063
5.672073 11.676926 3.567642
5.662857 11.680496 3.508041
5.678574 11.671188 3.526291
5.673813 11.672012 3.519150
5.673019 11.674240 3.543259
5.661728 11.685776 3.550949
5.680252 11.674637 3.562424
5.743607 11.657211 3.505478
5.705856 11.666336 3.503189
5.698502 11.664047 3.513382
5.710526 11.663193 3.528122
5.721939 11.658585 3.508591
5.743179 11.658401 3.529068
5.705795 11.666763 3.544998
5.698196 11.664993 3.536942
5.697495 11.666977 3.560959
5.748367 11.661087 3.541885
5.721420 11.660141 3.532364
5.745651 11.659714 3.531479
5.720688 11.662155 3.556351
5.742355 11.660812 3.553207
5.643906 11.691757 3.506363
5.649307 11.688400 3.526993
5.642410 11.695908 3.531265
5.627060 11.718399 3.531723
5.640976 11.699875 3.556168
5.661362 11.687485 3.593155
5.670883 11.680191 3.592270
5.680832 11.675797 3.597946
5.669601 11.683792 3.617111
5.742844 11.659409 3.575882
5.711288 11.664688 3.563705
5.696640 11.669357 3.585220
5.705215 11.669510 3.587387
5.746201 11.660782 3.566971
5.720413 11.662979 3.579941
5.747818 11.663681 3.584183
5.712204 11.666550 3.599442
5.695999 11.671158 3.609268
5.747269 11.662888 3.602829
5.720230 11.663528 3.603470
5.742752 11.659805 3.599319
5.741409 11.663589 3.624161
5.650833 11.691574 3.563065
5.640091 11.702347 3.580521
5.627457 11.719193 3.567123
5.651596 11.693069 3.598709
5.638840 11.705734 3.605331
5.629105 11.722610 3.603378
5.738754 11.671249 3.697586
5.682693 11.679550 3.634323
5.668594 11.686569 3.641678
5.684158 11.682541 3.670517
5.748947 11.666306 3.639145
5.712875 11.667892 3.635086
5.695694 11.672073 3.633041
5.704300 11.673935 3.630173
5.718399 11.668777 3.652359
5.747330 11.666092 3.626480
5.719254 11.666306 3.627945
5.740463 11.666245 3.648636
5.714432 11.671036 3.671371
5.694656 11.674973 3.657669
5.718216 11.669357 3.676041
5.694321 11.675949 3.681564
5.703873 11.676010 3.672501
5.746323 11.670914 3.669418
5.740219 11.667068 3.672409
5.659927 11.694046 3.636490
5.653305 11.696579 3.635025
5.637680 11.708969 3.630112
5.636398 11.712570 3.655106
5.630081 11.724655 3.639267
5.654465 11.698959 3.671036
5.634842 11.716812 3.680435
5.667770 11.689011 3.666183
5.658371 11.701279 3.680099
5.630905 11.726334 3.675125
5.745621 11.674454 3.712082
5.716476 11.674301 3.701584
5.703018 11.679977 3.715317
5.692276 11.681686 3.707474
5.716843 11.675919 3.708237
5.716232 11.674973 3.725449
5.690872 11.685593 3.732712
5.718552 11.679398 3.744766
5.738205 11.672745 3.721756
5.737320 11.675369 3.746445
5.666763 11.691818 3.690903
5.656235 11.702652 3.707535
5.665787 11.694534 3.715652
5.631851 11.728256 3.711105
5.633224 11.721207 3.705917
5.658524 11.700760 3.721970
5.664871 11.697128 3.740372
5.687149 11.688675 3.743210
5.657333 11.704849 3.743637
5.632065 11.724533 3.731003
5.633286 11.731247 3.747482
5.782272 11.671646 3.692093
5.806168 11.665512 3.570175
5.781296 11.658981 3.500443
5.765305 11.657822 3.503006
5.764999 11.658768 3.526505
5.760239 11.663162 3.531052
5.786697 11.658554 3.500687
5.785904 11.660812 3.524673
5.806931 11.663254 3.522964
5.764420 11.660538 3.550369
5.806412 11.664780 3.546707
5.787888 11.664474 3.540848
5.781845 11.660019 3.535904
5.785843 11.661087 3.547928
5.872665 11.686447 3.501785
5.820755 11.664780 3.506577
5.827194 11.667068 3.521835
5.866043 11.681961 3.516159
5.847214 11.673172 3.521591
5.865341 11.681625 3.522354
5.870132 11.685379 3.521225
5.821945 11.667130 3.542496
5.827896 11.667923 3.539749
5.826614 11.668777 3.545639
5.842606 11.676376 3.536514
5.864700 11.684189 3.541489
5.846695 11.674698 3.545303
5.864578 11.683945 3.546402
5.868729 11.684769 3.540268
5.865738 11.683548 3.559982
5.867874 11.685562 3.552567
5.782974 11.662308 3.571823
5.764389 11.660568 3.573593
5.785294 11.662643 3.571762
5.787796 11.665085 3.582687
5.761063 11.665726 3.607498
5.764023 11.661606 3.597275
5.763535 11.663101 3.621170
5.805313 11.668137 3.594467
5.784714 11.665787 3.608139
5.784775 11.664200 3.595627
5.784409 11.665359 3.619370
5.805130 11.668686 3.617966
5.864639 11.683823 3.569534
5.826431 11.669418 3.569077
5.825729 11.671524 3.593124
5.822708 11.668686 3.578232
5.827469 11.670029 3.581924
5.846176 11.676254 3.569107
5.845779 11.677475 3.592789
5.862930 11.682358 3.579666
5.864639 11.684494 3.583267
5.826675 11.674026 3.624557
5.825119 11.673294 3.617111
5.825180 11.673599 3.615067
5.844925 11.680038 3.617111
5.844742 11.683060 3.613693
5.869705 11.689163 3.589035
5.863388 11.687515 3.594223
5.863174 11.688217 3.617783
5.881332 11.696518 3.572006
5.882523 11.692947 3.501175
5.903336 11.716873 3.505722
5.898117 11.710739 3.505478
5.899338 11.710861 3.503769
5.882126 11.694107 3.524704
5.901291 11.716019 3.524918
5.898209 11.710526 3.528549
5.912430 11.731827 3.511093
5.917130 11.740921 3.516068
5.900620 11.715744 3.543594
5.899704 11.709335 3.545181
5.881973 11.694626 3.548050
5.899979 11.715714 3.562241
5.897812 11.711685 3.552170
5.912521 11.731522 3.534164
5.918167 11.741348 3.534012
5.912735 11.730942 3.557175
5.919601 11.741959 3.551804
5.897568 11.712509 3.575729
5.898941 11.713181 3.587814
5.899338 11.715439 3.580978
5.917801 11.741196 3.570938
5.912521 11.731674 3.580734
5.914719 11.739944 3.590591
5.881363 11.696518 3.595230
5.897568 11.714737 3.600204
5.897263 11.713425 3.599380
5.881119 11.697311 3.618851
5.897354 11.714645 3.618851
5.897171 11.713791 3.622849
5.912491 11.731796 3.604111
5.916977 11.740891 3.608170
5.802444 11.676590 3.691330
5.786880 11.669479 3.625412
5.762680 11.665573 3.645523
5.804184 11.671432 3.642410
5.784042 11.666397 3.643143
5.787125 11.670609 3.644974
5.761490 11.669052 3.670364
5.750412 11.669266 3.675400
5.765060 11.678177 3.685593
5.786514 11.671371 3.667648
5.782669 11.670364 3.668106
5.803146 11.674484 3.667038
5.788315 11.672958 3.681076
5.844559 11.681107 3.640854
5.827255 11.677750 3.651749
5.824326 11.675613 3.641373
5.843613 11.684006 3.665421
5.823593 11.677872 3.665665
5.825668 11.679001 3.667465
5.864029 11.687668 3.625778
5.871323 11.692429 3.625473
5.862564 11.689987 3.641830
5.862350 11.690781 3.665543
5.863113 11.692276 3.668594
5.874832 11.699356 3.663101
5.801956 11.678085 3.715439
5.761002 11.670425 3.694382
5.751328 11.671097 3.711349
5.760391 11.672165 3.718643
5.781418 11.674026 3.716568
5.790878 11.678146 3.718155
5.785660 11.675461 3.710434
5.780624 11.676407 3.741104
5.753983 11.676468 3.748520
5.759262 11.675552 3.743607
5.800766 11.681442 3.740372
5.829636 11.682480 3.688675
5.842819 11.686356 3.689804
5.822433 11.681320 3.690506
5.821243 11.684738 3.715408
5.824570 11.684341 3.710526
5.831833 11.686874 3.725571
5.820908 11.685837 3.739395
5.861282 11.694016 3.690292
5.841965 11.688919 3.714340
5.847885 11.692886 3.691483
5.862167 11.696915 3.711533
5.860306 11.696915 3.714981
5.841354 11.690750 3.738632
5.859695 11.698807 3.739304
5.872269 11.704147 3.741684
5.876389 11.702438 3.699631
5.894241 11.713364 3.638718
5.898392 11.716049 3.630264
5.880173 11.700272 3.643387
5.896286 11.716537 3.647324
5.912064 11.733109 3.627975
5.915817 11.740433 3.627151
5.911728 11.734146 3.651810
5.915665 11.740372 3.645737
5.891617 11.712265 3.658432
5.879135 11.703323 3.668015
5.888351 11.710892 3.678482
5.895462 11.718948 3.671738
5.897629 11.719955 3.672989
5.914871 11.740067 3.664658
5.914719 11.740005 3.683334
5.911545 11.734818 3.675552
5.895737 11.718246 3.694901
5.882339 11.708359 3.699753
5.879044 11.703659 3.691605
5.878281 11.705917 3.716019
5.882980 11.708633 3.718277
5.897507 11.720688 3.715103
5.910843 11.737015 3.699936
5.911362 11.738632 3.703415
5.880539 11.710678 3.737869
5.877609 11.707993 3.740433
5.895309 11.719559 3.718979
5.894241 11.722824 3.743912
5.909134 11.737686 3.723099
5.910202 11.739029 3.724319
5.906296 11.736496 3.743057
5.909317 11.741684 3.749039
5.599594 11.882034 3.702652
5.607407 11.753067 3.573135
5.592178 11.776505 3.500412
5.593277 11.774979 3.520523
5.588242 11.811905 3.508163
5.592270 11.797623 3.511826
5.588821 11.811142 3.527878
5.606186 11.750534 3.537155
5.595383 11.772018 3.541336
5.595779 11.771500 3.561050
5.590256 11.809128 3.548203
5.592636 11.798325 3.547287
5.591507 11.836716 3.501328
5.591476 11.836807 3.520584
5.596817 11.856369 3.515793
5.591537 11.836655 3.539993
5.590561 11.838058 3.558701
5.595596 11.858078 3.534286
5.595139 11.858749 3.553299
5.605545 11.751358 3.567123
5.597153 11.769577 3.581497
5.590958 11.808182 3.568069
5.591751 11.796494 3.582047
5.590225 11.809219 3.587051
5.608383 11.755081 3.609024
5.596603 11.770370 3.600693
5.604355 11.756638 3.610306
5.598190 11.768112 3.621353
5.589371 11.810379 3.606003
5.593521 11.800156 3.618515
5.590927 11.837570 3.578323
5.596237 11.857193 3.573380
5.595657 11.858017 3.592392
5.591049 11.837418 3.597824
5.591385 11.836960 3.617538
5.594589 11.859512 3.611099
5.603775 11.876236 3.569138
5.603134 11.877029 3.510880
5.612320 11.893692 3.507828
5.603226 11.876968 3.530167
5.612167 11.893906 3.526932
5.620132 11.910019 3.504593
5.620865 11.909012 3.524277
5.610794 11.895798 3.545364
5.602829 11.877487 3.549210
5.620438 11.909592 3.543259
5.611710 11.894516 3.565262
5.602707 11.877640 3.587845
5.612473 11.893539 3.585037
5.620438 11.909622 3.562515
5.620102 11.910110 3.581589
5.599655 11.886398 3.605270
5.602524 11.877914 3.607101
5.611801 11.894485 3.604019
5.609909 11.897018 3.622177
5.618881 11.911728 3.600174
5.618668 11.912033 3.619431
5.629898 11.926132 3.578842
5.631210 11.924301 3.502731
5.642014 11.937180 3.520432
5.630539 11.925217 3.521500
5.630753 11.924942 3.540848
5.630264 11.925644 3.559799
5.665390 11.961197 3.518417
5.654129 11.948593 3.500504
5.641769 11.937515 3.501114
5.652786 11.950424 3.518845
5.677536 11.972855 3.517654
5.651749 11.951797 3.537369
5.641037 11.938492 3.539017
5.651993 11.951492 3.556747
5.640793 11.938797 3.558121
5.664780 11.961990 3.537247
5.664963 11.961746 3.556595
5.676682 11.973984 3.536301
5.677048 11.973557 3.555740
5.721909 11.998245 3.500931
5.707016 11.989426 3.500198
5.693497 11.980240 3.519058
5.706741 11.989792 3.519211
5.721420 11.998856 3.519852
5.691055 11.983444 3.536697
5.707047 11.989395 3.538620
5.691727 11.982559 3.556381
5.705215 11.991776 3.556717
5.629044 11.927261 3.597641
5.628830 11.927567 3.616867
5.663254 11.964066 3.574753
5.651566 11.952072 3.575760
5.639877 11.940048 3.576828
5.662186 11.965469 3.593369
5.676743 11.973984 3.574814
5.675644 11.975388 3.593430
5.651016 11.952835 3.594711
5.639999 11.939926 3.596207
5.639114 11.941116 3.614975
5.649918 11.954300 3.613327
5.663284 11.964066 3.613419
5.674942 11.976364 3.612289
5.703384 11.994186 3.574814
5.690170 11.984634 3.574661
5.688950 11.986252 3.593155
5.703506 11.994064 3.594162
5.702560 11.995285 3.612900
5.687607 11.988052 3.611618
5.600967 11.772141 3.698013
5.609451 11.757278 3.645004
5.600021 11.765579 3.642258
5.601181 11.771194 3.655624
5.591324 11.807663 3.626846
5.590714 11.808548 3.646011
5.594101 11.801346 3.654312
5.602829 11.761673 3.663864
5.605698 11.757614 3.685562
5.610214 11.758865 3.680893
5.590225 11.809250 3.684952
5.590988 11.837509 3.636795
5.588760 11.840622 3.654831
5.596603 11.856735 3.631943
5.594589 11.859543 3.650101
5.586929 11.813858 3.663040
5.587509 11.842392 3.673538
5.591812 11.863388 3.667740
5.610977 11.760452 3.716812
5.607834 11.754623 3.706863
5.592056 11.806717 3.705917
5.594711 11.802658 3.690170
5.609909 11.751785 3.728134
5.599777 11.777573 3.741501
5.593735 11.804398 3.726822
5.596786 11.806992 3.727066
5.595993 11.801285 3.748184
5.589767 11.839249 3.694717
5.589310 11.839920 3.714066
5.595505 11.858261 3.689835
5.595535 11.858261 3.709488
5.590744 11.837540 3.734879
5.595200 11.858719 3.728928
5.595535 11.858261 3.748856
5.608292 11.899277 3.699051
5.602280 11.878311 3.626358
5.607620 11.900131 3.640091
5.599838 11.881668 3.644180
5.603867 11.895340 3.643600
5.617416 11.913773 3.637985
5.598679 11.883286 3.662888
5.606766 11.901352 3.658951
5.600052 11.881363 3.683365
5.600540 11.888199 3.677048
5.608322 11.899246 3.679520
5.616623 11.914871 3.656906
5.615219 11.916763 3.675430
5.605820 11.899399 3.716232
5.616257 11.915359 3.695663
5.615585 11.916336 3.714767
5.601120 11.879929 3.723312
5.609390 11.897781 3.719406
5.600815 11.880356 3.742783
5.607132 11.900894 3.737473
5.615646 11.916214 3.734421
5.626480 11.930801 3.693100
5.627609 11.929245 3.635422
5.627701 11.929123 3.654953
5.626907 11.930222 3.673874
5.662308 11.965317 3.632156
5.637741 11.943008 3.633438
5.649155 11.955307 3.632217
5.638382 11.942123 3.653305
5.648605 11.956100 3.651230
5.661148 11.966873 3.650772
5.673599 11.978165 3.630783
5.672928 11.979050 3.649734
5.687088 11.988724 3.650040
5.648605 11.956070 3.670700
5.637192 11.943710 3.671982
5.659775 11.968735 3.669327
5.671738 11.980637 3.668381
5.686295 11.989792 3.668961
5.670609 11.982132 3.687088
5.701767 11.996353 3.631760
5.688278 11.987167 3.631424
5.702072 11.996017 3.651352
5.701523 11.996689 3.670456
5.626999 11.930130 3.712997
5.626572 11.930710 3.732315
5.636215 11.945084 3.690781
5.647171 11.958023 3.689194
5.636765 11.944321 3.710709
5.646896 11.958359 3.708542
5.659012 11.969772 3.688278
5.684952 11.991562 3.687515
5.671432 11.981064 3.707138
5.659012 11.969711 3.707809
5.685898 11.990372 3.707657
5.634872 11.946884 3.728989
5.645615 11.960098 3.727219
5.635178 11.946518 3.748795
5.645645 11.960098 3.746841
5.671310 11.981247 3.726608
5.656967 11.972519 3.725937
5.684464 11.992233 3.726242
5.669083 11.984177 3.744675
5.656937 11.972549 3.745499
5.683273 11.993851 3.745010
5.699722 11.999069 3.688736
5.865219 11.996231 3.701523
5.927322 11.762863 3.564529
5.926285 11.762436 3.509964
5.929092 11.767502 3.514145
5.926956 11.762711 3.528000
5.924973 11.757706 3.518600
5.934525 11.794876 3.507065
5.932114 11.782028 3.505295
5.935806 11.800919 3.501419
5.934799 11.794052 3.530045
5.932083 11.782028 3.523544
5.935837 11.800949 3.519608
5.927933 11.763138 3.545914
5.925156 11.757187 3.541641
5.930161 11.762497 3.554886
5.932510 11.782211 3.541672
5.932510 11.782211 3.559982
5.935135 11.793076 3.552994
5.937515 11.801651 3.537216
5.937546 11.801682 3.555466
5.935043 11.835068 3.515152
5.936661 11.818649 3.516891
5.934097 11.851517 3.513229
5.931717 11.867569 3.511826
5.932327 11.867844 3.529800
5.937424 11.818954 3.534805
5.936783 11.835770 3.532669
5.933914 11.851486 3.531479
5.936996 11.858139 3.551987
5.933884 11.851425 3.549759
5.933395 11.868271 3.547592
5.938950 11.819595 3.552475
5.940201 11.837173 3.549545
5.925552 11.755966 3.564468
5.925156 11.757309 3.588303
5.926407 11.762527 3.583267
5.934952 11.793625 3.576584
5.934158 11.782944 3.577652
5.926376 11.762527 3.601700
5.929886 11.763931 3.597122
5.926529 11.762589 3.620102
5.925003 11.757767 3.611862
5.935959 11.790634 3.598862
5.934128 11.782944 3.596054
5.936600 11.788712 3.621536
5.934769 11.783218 3.614212
5.938339 11.802017 3.573471
5.940475 11.802902 3.590927
5.940659 11.802994 3.609238
5.936752 11.852615 3.566849
5.934189 11.868607 3.565536
5.937302 11.852829 3.584915
5.934067 11.867294 3.578995
5.934616 11.868820 3.583633
5.937393 11.856888 3.598557
5.934708 11.868851 3.601913
5.936783 11.869705 3.619431
5.939041 11.819626 3.570724
5.938400 11.836441 3.568558
5.941269 11.820572 3.588150
5.938797 11.836594 3.586685
5.941696 11.820755 3.606308
5.939133 11.836777 3.604904
5.941605 11.820694 3.624741
5.940567 11.837357 3.622665
5.938004 11.853134 3.602982
5.939743 11.853867 3.620590
5.938034 11.855026 3.621414
5.868790 11.980972 3.573166
5.864365 11.979263 3.501846
5.849411 11.990189 3.505539
5.859207 11.983627 3.517624
5.866623 11.980118 3.519180
5.851425 11.990952 3.522995
5.867325 11.980392 3.537155
5.851883 11.991104 3.541092
5.856461 11.987198 3.535355
5.867630 11.980515 3.555313
5.853592 11.991776 3.558731
5.854477 11.989670 3.553574
5.851578 11.993362 3.571243
5.856155 11.992752 3.576035
5.870590 11.981644 3.590775
5.850357 11.994919 3.590012
5.857986 11.993454 3.593674
5.871231 11.981918 3.608902
5.847336 11.998734 3.607620
5.858627 11.993698 3.611801
5.928665 11.884262 3.565292
5.927353 11.883713 3.511154
5.930313 11.878860 3.512894
5.920822 11.897903 3.511429
5.927139 11.883652 3.529404
5.920883 11.897964 3.529587
5.913437 11.912186 3.512039
5.906387 11.926193 3.512589
5.914993 11.912827 3.529617
5.908646 11.927109 3.529892
5.930832 11.877304 3.535782
5.927261 11.883713 3.547592
5.922592 11.898636 3.547134
5.916519 11.913437 3.547256
5.909927 11.927597 3.547623
5.900650 11.941574 3.512527
5.889816 11.954147 3.514603
5.900314 11.941483 3.530869
5.879166 11.967270 3.516525
5.891983 11.955002 3.531967
5.880051 11.967606 3.534409
5.902603 11.942368 3.548172
5.881943 11.968338 3.551926
5.892441 11.955185 3.550003
5.921890 11.898361 3.565689
5.927383 11.883804 3.584091
5.922867 11.898758 3.583572
5.916245 11.913315 3.565598
5.909622 11.927505 3.565994
5.917557 11.913864 3.583359
5.911423 11.928207 3.583542
5.929214 11.884506 3.601669
5.925858 11.899918 3.600662
5.930984 11.885208 3.619278
5.925247 11.899734 3.619247
5.918198 11.914108 3.601425
5.910385 11.927841 3.602310
5.918869 11.914413 3.619492
5.912888 11.928787 3.619644
5.902420 11.942307 3.566513
5.892990 11.955399 3.568069
5.904831 11.943253 3.583847
5.894608 11.956039 3.585709
5.883438 11.968918 3.569626
5.884598 11.969376 3.587448
5.895828 11.956528 3.603561
5.905746 11.943619 3.620132
5.894913 11.956192 3.622299
5.906326 11.943802 3.601547
5.885239 11.969650 3.605545
5.884781 11.969467 3.624130
5.924576 11.761826 3.695114
5.927383 11.762985 3.638229
5.930283 11.762100 3.638596
5.925308 11.756851 3.634933
5.933731 11.782791 3.633072
5.935226 11.783432 3.650894
5.936722 11.788376 3.644882
5.924728 11.758682 3.659134
5.927170 11.762894 3.656845
5.924667 11.758957 3.682755
5.927963 11.763229 3.675064
5.930130 11.763107 3.680801
5.936417 11.789383 3.668839
5.933243 11.782608 3.670273
5.940201 11.802811 3.627823
5.939285 11.802475 3.646652
5.941696 11.803452 3.664139
5.941574 11.803421 3.682693
5.937271 11.869919 3.637589
5.942917 11.821274 3.642624
5.941116 11.837601 3.640854
5.941177 11.854446 3.638412
5.939133 11.851578 3.643692
5.938644 11.870438 3.655441
5.943680 11.821579 3.660751
5.942642 11.838242 3.658676
5.943893 11.821671 3.679153
5.942856 11.838333 3.677048
5.941360 11.844711 3.664597
5.940079 11.854019 3.657272
5.942276 11.854904 3.674820
5.939285 11.870712 3.673630
5.925034 11.762039 3.713547
5.924698 11.758987 3.706314
5.936325 11.789749 3.692581
5.935287 11.783493 3.687973
5.936539 11.789017 3.715927
5.934158 11.783035 3.707047
5.924118 11.760727 3.730637
5.924271 11.761734 3.732559
5.929886 11.764389 3.723160
5.934494 11.783157 3.725540
5.933243 11.782669 3.744766
5.936081 11.790482 3.740189
5.940323 11.802933 3.701767
5.941238 11.803329 3.719986
5.940475 11.803024 3.738937
5.941879 11.820877 3.698532
5.943344 11.838547 3.695358
5.942764 11.821487 3.716690
5.943802 11.838760 3.713699
5.941299 11.854538 3.693741
5.940842 11.846390 3.688980
5.938889 11.870590 3.692245
5.942642 11.855087 3.711685
5.941238 11.845261 3.712265
5.940414 11.871201 3.710129
5.943802 11.838760 3.732285
5.943466 11.821793 3.734970
5.942429 11.841568 3.734543
5.942520 11.855057 3.730301
5.940903 11.871414 3.728470
5.943375 11.855392 3.748550
5.941299 11.871567 3.746902
5.874161 11.992630 3.734238
5.872696 11.982468 3.626694
5.859909 11.994217 3.629715
5.860123 11.994278 3.648087
5.861526 11.994797 3.666000
5.864365 11.995895 3.683365
5.868149 11.997299 3.718857
5.867905 11.997238 3.737595
5.934158 11.886551 3.691635
5.932114 11.885696 3.637161
5.925797 11.899948 3.637405
5.932541 11.885880 3.655411
5.926193 11.900131 3.655655
5.919785 11.914780 3.637497
5.913132 11.928909 3.637894
5.921158 11.915329 3.655319
5.914932 11.929611 3.655594
5.932693 11.885941 3.673782
5.927597 11.900711 3.673508
5.921616 11.915512 3.673599
5.916183 11.930099 3.673508
5.906723 11.944016 3.638138
5.897354 11.957138 3.639694
5.876266 11.983841 3.643661
5.886032 11.977646 3.643082
5.886887 11.970291 3.641678
5.905991 11.943741 3.656845
5.899796 11.958084 3.657120
5.900742 11.958450 3.675156
5.908432 11.944687 3.674271
5.889694 11.973099 3.665085
5.876785 11.984055 3.661911
5.888687 11.970993 3.659378
5.885880 11.977890 3.682419
5.888443 11.970901 3.677933
5.878403 11.984665 3.679703
5.928024 11.900864 3.691818
5.934250 11.886612 3.710129
5.928909 11.901230 3.709976
5.921585 11.915512 3.692093
5.916580 11.930283 3.691818
5.922501 11.915878 3.710220
5.916855 11.930435 3.710220
5.935989 11.887283 3.727921
5.931320 11.902206 3.727493
5.935959 11.887283 3.746536
5.932297 11.902603 3.745651
5.924606 11.916733 3.727859
5.916946 11.930649 3.728714
5.926041 11.917282 3.745834
5.917770 11.930984 3.746933
5.910843 11.945633 3.691757
5.901260 11.958664 3.693466
5.903214 11.959396 3.711166
5.910965 11.945694 3.710220
5.891403 11.972031 3.695175
5.884476 11.979630 3.701309
5.879959 11.985245 3.697586
5.891586 11.972122 3.713638
5.878311 11.987411 3.717117
5.879990 11.985275 3.716110
5.904556 11.959946 3.729141
5.905502 11.960312 3.747299
5.912674 11.946365 3.728043
5.913162 11.946548 3.746414
5.893600 11.972916 3.731369
5.881821 11.985977 3.733932
5.895645 11.973679 3.749100
5.680161 11.715836 3.960800
5.624588 11.745071 3.835159
5.616501 11.742538 3.752640
5.620987 11.736282 3.775803
5.734299 11.684036 3.821182
5.744827 11.678116 3.754868
5.715408 11.677353 3.750046
5.701706 11.686111 3.758713
5.713852 11.681778 3.775589
5.737076 11.676102 3.770401
5.712479 11.685654 3.800949
5.736740 11.677048 3.794479
5.720261 11.682877 3.781357
5.744034 11.681870 3.797745
5.658890 11.708084 3.780136
5.655869 11.712997 3.766830
5.662247 11.704330 3.767136
5.631058 11.727341 3.755966
5.654953 11.717178 3.809952
5.661179 11.707291 3.792160
5.687485 11.695236 3.807907
5.628372 11.734695 3.782883
5.634995 11.734726 3.784103
5.626205 11.740677 3.809311
5.690018 11.688034 3.757401
5.689407 11.693283 3.780136
5.688522 11.692245 3.782883
5.700058 11.693802 3.802536
5.733444 11.686417 3.845993
5.660019 11.710342 3.816391
5.660629 11.708878 3.816696
5.686783 11.697220 3.832596
5.658157 11.715683 3.843521
5.635666 11.736130 3.820114
5.685196 11.701553 3.858353
5.662766 11.715988 3.853836
5.653824 11.722397 3.853409
5.637558 11.740036 3.857010
5.655960 11.721848 3.870132
5.722580 11.687576 3.818436
5.711136 11.689468 3.826370
5.690109 11.694687 3.816116
5.742874 11.687515 3.841141
5.709976 11.692703 3.851608
5.692032 11.698624 3.852982
5.699051 11.698563 3.845779
5.723770 11.690018 3.854813
5.732864 11.688187 3.870621
5.666489 11.723648 3.963516
5.683304 11.706894 3.884628
5.663956 11.718430 3.890305
5.652115 11.730301 3.897537
5.654709 11.725296 3.895676
5.638412 11.741776 3.893265
5.681992 11.710648 3.910294
5.681961 11.710739 3.934433
5.653641 11.728348 3.921097
5.640915 11.746994 3.930740
5.665665 11.722000 3.927200
5.741806 11.692581 3.884476
5.709488 11.694138 3.876144
5.693344 11.701309 3.889511
5.698471 11.701431 3.888657
5.708420 11.697189 3.901443
5.726608 11.695786 3.892410
5.731949 11.690781 3.895676
5.706802 11.701706 3.927444
5.696793 11.709274 3.932755
5.696030 11.706772 3.927048
5.740707 11.697800 3.927933
5.729691 11.697128 3.922440
5.727859 11.698318 3.928970
5.652512 11.731552 3.946671
5.650650 11.736984 3.941483
5.641922 11.749069 3.967239
5.651260 11.734970 3.972427
5.649307 11.740402 3.999100
5.649155 11.743973 3.985580
5.678207 11.721237 3.987411
5.729416 11.698074 3.946915
5.705948 11.704239 3.952621
5.697708 11.710220 3.964005
5.729660 11.701920 3.965988
5.704147 11.709274 3.979019
5.695663 11.714554 3.976364
5.728195 11.701492 3.972519
5.739212 11.704788 3.971878
5.726395 11.706650 3.999008
5.793716 11.702255 3.939651
5.777664 11.685043 3.815750
5.800125 11.683426 3.764816
5.766861 11.683853 3.762711
5.759048 11.676102 3.767471
5.779648 11.679276 3.765915
5.785141 11.678024 3.752945
5.791458 11.679276 3.754013
5.779221 11.680496 3.790085
5.758316 11.678299 3.792038
5.755325 11.679153 3.784897
5.799393 11.685532 3.789352
5.784500 11.681320 3.795670
5.794662 11.685745 3.791672
5.820511 11.687027 3.763504
5.824051 11.686966 3.753067
5.859421 11.699570 3.763199
5.834641 11.692459 3.762955
5.839951 11.694931 3.763962
5.861496 11.700302 3.754257
5.851791 11.705032 3.769760
5.839371 11.696640 3.788345
5.823044 11.691910 3.796188
5.819382 11.690353 3.788528
5.837540 11.698196 3.800461
5.857224 11.706161 3.789627
5.860062 11.707413 3.797897
5.757706 11.683914 3.822006
5.756851 11.682480 3.817551
5.756393 11.683884 3.841965
5.776993 11.686996 3.840347
5.758804 11.686172 3.858383
5.755264 11.686996 3.867142
5.798233 11.688980 3.814499
5.768387 11.688705 3.839767
5.798080 11.689499 3.838516
5.782883 11.688980 3.839493
5.795975 11.688339 3.828140
5.776291 11.689041 3.865067
5.798355 11.693161 3.865433
5.796371 11.694473 3.864456
5.857254 11.706161 3.813339
5.838699 11.698776 3.812943
5.818710 11.692368 3.813095
5.822311 11.695450 3.839066
5.817764 11.695206 3.838058
5.837601 11.701950 3.838028
5.840103 11.703323 3.837845
5.874313 11.717209 3.839096
5.856339 11.708908 3.838242
5.859756 11.709061 3.840347
5.816757 11.698135 3.863144
5.836288 11.705887 3.863510
5.855484 11.716629 3.848038
5.855209 11.712296 3.863510
5.873123 11.720871 3.864487
5.875259 11.714462 3.814163
5.876663 11.710953 3.765274
5.884201 11.717941 3.775894
5.896469 11.725906 3.758255
5.902512 11.734940 3.763504
5.893875 11.724045 3.768021
5.909073 11.742477 3.773026
5.876144 11.712540 3.789597
5.892502 11.728134 3.793411
5.900406 11.734085 3.783249
5.895645 11.730026 3.801254
5.896561 11.732498 3.803848
5.908798 11.743332 3.797104
5.908096 11.745529 3.821793
5.892776 11.730911 3.824478
5.887436 11.724319 3.813736
5.892075 11.729538 3.817764
5.891617 11.731003 3.842148
5.891556 11.732529 3.852280
5.885544 11.727921 3.846725
5.894760 11.734634 3.844437
5.878464 11.724960 3.868973
5.890671 11.733810 3.867233
5.907608 11.747116 3.846298
5.906937 11.749191 3.871048
5.804001 11.704453 3.940781
5.795944 11.695755 3.888901
5.775833 11.690323 3.889511
5.753769 11.691422 3.892960
5.761490 11.691605 3.895889
5.781693 11.694778 3.883011
5.801437 11.699326 3.903244
5.771744 11.699265 3.917862
5.752426 11.695236 3.918594
5.774185 11.695145 3.915543
5.764114 11.696854 3.933395
5.794724 11.699326 3.914383
5.781540 11.695572 3.925369
5.858475 11.715286 3.883957
5.815506 11.701797 3.888596
5.820938 11.702133 3.882767
5.835068 11.709518 3.888992
5.842941 11.708969 3.875504
5.854263 11.715195 3.888626
5.872910 11.722641 3.890610
5.872421 11.723038 3.889297
5.834335 11.711716 3.913864
5.814804 11.703995 3.913498
5.819778 11.707748 3.926254
5.844955 11.712967 3.912674
5.853317 11.717972 3.913803
5.871048 11.727066 3.914993
5.858994 11.727646 3.926346
5.857712 11.719162 3.927048
5.812454 11.710861 3.964554
5.773300 11.697769 3.940689
5.752304 11.695694 3.942795
5.772507 11.700058 3.965775
5.792618 11.705490 3.965164
5.765884 11.700455 3.970444
5.750839 11.699905 3.968765
5.779739 11.704178 3.969681
5.750290 11.701492 3.993607
5.774918 11.709152 3.995987
5.771286 11.703598 3.991470
5.806656 11.709763 3.978500
5.791550 11.708572 3.990677
5.811600 11.713455 3.989822
5.833694 11.713669 3.938705
5.813675 11.707260 3.938919
5.832687 11.716660 3.964096
5.870255 11.729538 3.940079
5.848648 11.720413 3.951096
5.852371 11.720901 3.939072
5.851730 11.722855 3.963974
5.869400 11.732193 3.965286
5.818893 11.712204 3.969589
5.831924 11.719009 3.989243
5.856552 11.724960 3.970688
5.849930 11.728134 3.990433
5.852402 11.727890 3.989639
5.869247 11.732620 3.989578
5.888565 11.740402 3.941910
5.894089 11.737991 3.887375
5.895096 11.739578 3.890518
5.889786 11.736526 3.892288
5.889389 11.737747 3.916733
5.892868 11.743973 3.931076
5.887802 11.742691 3.966995
5.891922 11.748489 3.974960
5.892197 11.747574 3.974228
5.886154 11.747635 3.993332
5.889236 11.747360 3.995529
5.600601 11.880783 3.941544
5.615402 11.769669 3.826431
5.611740 11.762009 3.752792
5.598373 11.810287 3.763718
5.596756 11.800186 3.768600
5.614395 11.767593 3.790146
5.596878 11.800064 3.788559
5.594803 11.799942 3.788925
5.598038 11.798447 3.809311
5.598862 11.811325 3.799667
5.591721 11.836197 3.755325
5.593613 11.833542 3.776474
5.595749 11.858017 3.768753
5.593185 11.834183 3.796005
5.595108 11.858902 3.788071
5.595871 11.857864 3.808456
5.598801 11.797348 3.829880
5.619919 11.757889 3.864670
5.616379 11.771652 3.862747
5.600266 11.795334 3.850967
5.599411 11.796585 3.870377
5.595016 11.831619 3.817215
5.599747 11.813126 3.835983
5.594559 11.832291 3.836807
5.595688 11.858109 3.828232
5.595108 11.831558 3.857193
5.599594 11.812759 3.871597
5.595963 11.857742 3.848343
5.596756 11.856674 3.868881
5.599869 11.881699 3.821152
5.601242 11.879807 3.762772
5.608627 11.898880 3.758163
5.604446 11.896439 3.751083
5.607834 11.899918 3.777359
5.615280 11.916763 3.753799
5.615768 11.916061 3.773849
5.624466 11.933578 3.770126
5.601028 11.880112 3.782394
5.607742 11.903427 3.789108
5.601669 11.879227 3.802628
5.607803 11.900040 3.797073
5.614517 11.917801 3.792679
5.624069 11.934128 3.789536
5.613632 11.918961 3.811813
5.623611 11.934738 3.808945
5.598770 11.884323 3.818863
5.606735 11.901443 3.816116
5.599747 11.881912 3.840927
5.606430 11.901932 3.835709
5.615097 11.917038 3.832687
5.624161 11.933975 3.829147
5.607224 11.900864 3.856155
5.600845 11.880386 3.861649
5.607773 11.903458 3.860947
5.613998 11.918533 3.851730
5.623428 11.935043 3.848434
5.613388 11.919418 3.871170
5.621902 11.937057 3.867203
5.632462 11.950211 3.825699
5.625046 11.932755 3.750870
5.634872 11.946884 3.768234
5.645004 11.960953 3.766037
5.655624 11.973953 3.764328
5.682266 11.995132 3.763962
5.667343 11.986496 3.763107
5.633011 11.949448 3.786606
5.643295 11.963272 3.784500
5.632858 11.949661 3.806198
5.643539 11.962906 3.804367
5.653885 11.976303 3.782761
5.653763 11.976425 3.802383
5.682358 11.995071 3.783646
5.666855 11.987137 3.782394
5.666611 11.987503 3.801926
5.681015 11.996811 3.802444
5.643753 11.962662 3.824265
5.642410 11.964493 3.843094
5.652939 11.977554 3.821518
5.652420 11.978287 3.840927
5.679184 11.999252 3.820877
5.666550 11.987595 3.821609
5.664536 11.990250 3.839951
5.632584 11.950058 3.845566
5.631363 11.951736 3.864517
5.641251 11.966019 3.862137
5.652115 11.978714 3.860519
5.663589 11.991531 3.859085
5.613083 11.777145 3.941238
5.618088 11.762924 3.890976
5.617020 11.772964 3.898911
5.605759 11.787735 3.895187
5.613541 11.775467 3.920609
5.619095 11.777298 3.936142
5.608902 11.783310 3.917740
5.595108 11.831558 3.877213
5.595596 11.830917 3.897629
5.597122 11.856155 3.889145
5.601761 11.817337 3.908920
