5.294724 -3.281967 9.162521
5.289200 -3.290543 9.159653
5.305862 -3.269760 9.166977
5.301224 -3.278122 9.185928
5.313004 -3.274155 9.129929
5.335251 -3.271133 9.154831
5.324081 -3.270401 9.159348
5.317551 -3.279861 9.176956
5.324631 -3.263565 9.185745
5.360306 -3.268448 9.158463
5.350693 -3.261337 9.167130
5.369217 -3.254135 9.184799
5.264023 -3.316238 9.193527
5.287155 -3.286057 9.199112
5.272903 -3.286575 9.188400
5.262680 -3.305099 9.208694
5.276413 -3.289169 9.218155
5.285751 -3.276413 9.196609
5.311142 -3.278854 9.198868
5.305923 -3.269791 9.216843
5.263931 -3.299362 9.237076
5.271652 -3.285812 9.236160
5.286209 -3.286148 9.242599
5.284653 -3.275711 9.244644
5.309097 -3.274460 9.238541
5.352341 -3.266891 9.199844
5.334610 -3.272415 9.199112
5.342789 -3.256485 9.203110
5.358414 -3.264694 9.198563
5.342972 -3.298660 9.227615
5.313858 -3.280380 9.220871
5.319778 -3.260605 9.227158
5.332657 -3.268509 9.239243
5.340775 -3.255264 9.249527
5.363541 -3.250687 9.224777
5.349533 -3.267838 9.244705
5.356247 -3.259842 9.237839
5.478867 -3.282394 9.154861
5.415390 -3.270645 9.129776
5.410599 -3.259964 9.142105
5.387070 -3.267044 9.163620
5.377609 -3.270950 9.167831
5.401291 -3.254593 9.175735
5.412399 -3.262619 9.166061
5.444107 -3.275436 9.140274
5.454361 -3.262405 9.148270
5.472733 -3.288742 9.157486
5.491257 -3.291550 9.157059
5.458145 -3.270859 9.159866
5.463486 -3.277237 9.159805
5.443466 -3.276810 9.184616
5.417038 -3.265152 9.202774
5.384354 -3.260147 9.201035
5.411301 -3.262161 9.208969
5.423782 -3.254257 9.209427
5.382614 -3.257126 9.241837
5.405533 -3.261642 9.239548
5.435593 -3.257339 9.220566
5.409439 -3.258560 9.249344
5.470535 -3.284012 9.196732
5.493454 -3.288284 9.199783
5.466690 -3.272263 9.199692
5.440018 -3.256821 9.200455
5.451736 -3.267502 9.204880
5.480118 -3.280807 9.200302
5.495560 -3.285263 9.243149
5.439987 -3.267044 9.219650
5.468521 -3.279984 9.236740
5.482895 -3.276627 9.241776
5.443771 -3.249863 9.140701
5.432663 -3.238571 9.135147
5.393631 -3.249710 9.212021
5.201248 -3.482590 9.408798
5.190170 -3.470901 9.280350
5.182144 -3.494492 9.305832
5.192673 -3.457047 9.275345
5.188675 -3.438095 9.268204
5.192245 -3.476578 9.290939
5.189987 -3.467453 9.284286
5.190048 -3.447037 9.301529
5.192642 -3.438461 9.310440
5.183609 -3.423904 9.285751
5.188400 -3.435654 9.252426
5.197952 -3.412003 9.266769
5.206192 -3.391373 9.260635
5.200089 -3.382553 9.256393
5.197372 -3.386887 9.274033
5.213577 -3.388565 9.271255
5.208359 -3.375443 9.278488
5.192551 -3.420120 9.295212
5.194870 -3.403214 9.284256
5.200241 -3.387527 9.304367
5.190445 -3.469223 9.337082
5.194260 -3.443588 9.321396
5.194626 -3.458359 9.329391
5.198105 -3.480484 9.352066
5.207932 -3.483109 9.345413
5.189713 -3.449326 9.353012
5.195084 -3.440079 9.365677
5.184219 -3.430923 9.335556
5.193558 -3.423477 9.325607
5.203232 -3.417313 9.319687
5.209366 -3.388718 9.314987
5.198746 -3.405746 9.341873
5.201401 -3.389511 9.331894
5.196518 -3.422745 9.353104
5.200150 -3.391251 9.351456
5.210495 -3.392899 9.371689
5.225510 -3.363480 9.272293
5.225388 -3.348373 9.277939
5.215591 -3.360153 9.275162
5.219131 -3.353043 9.280930
5.237442 -3.349533 9.279282
5.231064 -3.333511 9.273117
5.241013 -3.329269 9.266830
5.249649 -3.313492 9.274918
5.241989 -3.321762 9.277512
5.239700 -3.327805 9.309280
5.224106 -3.365158 9.318771
5.205673 -3.373703 9.324265
5.217789 -3.361557 9.329697
5.218796 -3.355911 9.327194
5.233505 -3.354019 9.324265
5.225266 -3.348312 9.328384
5.242142 -3.342178 9.325394
5.235855 -3.336563 9.332291
5.242783 -3.322250 9.329544
5.239517 -3.331345 9.356247
5.196854 -3.441238 9.420090
5.185715 -3.441879 9.388992
5.185440 -3.445053 9.436020
5.196457 -3.423813 9.382736
5.199966 -3.406540 9.395157
5.203506 -3.390884 9.386734
5.209915 -3.376450 9.382950
5.199661 -3.393570 9.397568
5.201859 -3.426254 9.413925
5.211472 -3.394424 9.425766
5.209183 -3.375961 9.433029
5.185349 -3.448898 9.483871
5.194046 -3.471329 9.448318
5.200851 -3.482315 9.459518
5.198624 -3.461014 9.438858
5.202835 -3.455734 9.474686
5.197586 -3.441727 9.473068
5.197861 -3.460495 9.489182
5.200485 -3.406876 9.447586
5.198380 -3.423965 9.459183
5.201706 -3.423935 9.462967
5.198685 -3.393570 9.441879
5.204178 -3.391342 9.439407
5.209915 -3.396439 9.460251
5.199326 -3.426254 9.493332
5.212479 -3.395920 9.480362
5.198593 -3.397476 9.489792
5.203171 -3.390671 9.489365
5.219040 -3.361130 9.375687
5.228378 -3.350296 9.384995
5.217422 -3.361313 9.380051
5.236893 -3.337204 9.385147
5.246201 -3.324661 9.386887
5.239731 -3.336411 9.404709
5.228378 -3.361313 9.419846
5.218857 -3.364700 9.422928
5.234909 -3.335953 9.433060
5.224472 -3.366104 9.444382
5.229630 -3.351089 9.438644
5.228378 -3.374863 9.467697
5.237076 -3.346878 9.465256
5.239059 -3.337845 9.450272
5.249191 -3.326279 9.443466
5.206650 -3.374313 9.480209
5.227859 -3.363754 9.471634
5.218826 -3.368881 9.470993
5.221603 -3.363998 9.490860
5.232193 -3.352707 9.495132
5.234818 -3.335892 9.484695
5.238174 -3.338272 9.495132
5.245712 -3.324326 9.489273
5.261612 -3.317154 9.394058
5.252243 -3.345108 9.287277
5.286270 -3.298172 9.251785
5.262497 -3.308426 9.254990
5.260391 -3.297165 9.281174
5.250626 -3.308304 9.277664
5.308731 -3.267044 9.263840
5.304916 -3.269180 9.265152
5.261429 -3.307938 9.298264
5.278061 -3.289780 9.297714
5.285507 -3.287247 9.287155
5.290207 -3.302658 9.303268
5.309006 -3.278244 9.285324
5.287949 -3.277756 9.300797
5.354050 -3.252213 9.259872
5.316360 -3.258499 9.271347
5.330490 -3.263565 9.278549
5.330978 -3.260880 9.288162
5.336533 -3.252670 9.292435
5.351761 -3.271408 9.294540
5.355453 -3.260544 9.281967
5.265244 -3.324173 9.337692
5.261978 -3.314590 9.347794
5.286667 -3.296371 9.338760
5.264877 -3.299973 9.339798
5.256760 -3.312149 9.339188
5.306137 -3.269913 9.317764
5.301498 -3.279526 9.333664
5.308212 -3.278976 9.329758
5.264633 -3.309586 9.349442
5.276108 -3.288589 9.345016
5.288559 -3.304214 9.349655
5.292831 -3.280777 9.360214
5.303452 -3.268265 9.363876
5.307022 -3.278183 9.373001
5.355972 -3.266678 9.331039
5.331100 -3.270126 9.327957
5.317581 -3.259262 9.323990
5.341934 -3.268753 9.333115
5.331070 -3.261337 9.337845
5.366257 -3.252335 9.329941
5.315994 -3.288742 9.366318
5.339096 -3.254227 9.347519
5.330795 -3.272995 9.374374
5.368576 -3.258438 9.354813
5.457199 -3.289230 9.276657
5.430832 -3.254501 9.262314
5.434128 -3.267502 9.266891
5.381516 -3.256516 9.284927
5.400803 -3.261612 9.282791
5.409317 -3.262070 9.295975
5.436874 -3.262497 9.302963
5.428421 -3.253036 9.308273
5.448990 -3.272873 9.262436
5.438278 -3.264175 9.260696
5.466751 -3.276840 9.277634
5.499527 -3.302170 9.305740
5.458725 -3.256790 9.284073
5.470627 -3.266739 9.287613
5.485397 -3.272842 9.284195
5.498520 -3.280746 9.284348
5.407608 -3.253067 9.318222
5.389877 -3.252792 9.331436
5.381668 -3.261215 9.332748
5.403366 -3.255814 9.329117
5.408829 -3.264084 9.341507
5.425369 -3.276657 9.353897
5.436050 -3.263229 9.347427
5.406296 -3.255875 9.372299
5.422928 -3.257553 9.361649
5.436203 -3.257706 9.372208
5.497971 -3.282272 9.336044
5.465286 -3.275131 9.319901
5.485062 -3.274033 9.335312
5.466324 -3.283096 9.370743
5.499069 -3.304184 9.351364
5.261795 -3.314896 9.407578
5.260330 -3.315842 9.437210
5.285568 -3.295761 9.382248
5.255203 -3.311172 9.387466
5.267838 -3.301834 9.396164
5.277664 -3.289536 9.398911
5.298691 -3.284775 9.391769
5.254379 -3.310654 9.437454
5.306839 -3.281387 9.419907
5.284897 -3.297165 9.427658
5.291550 -3.279984 9.409103
5.306442 -3.270096 9.420364
5.301468 -3.280807 9.434525
5.355362 -3.268173 9.376266
5.320969 -3.261307 9.380844
5.370590 -3.254959 9.388321
5.329819 -3.272995 9.418503
5.323502 -3.262863 9.436600
5.354568 -3.268997 9.421127
5.344223 -3.257370 9.407578
5.350906 -3.259323 9.419388
5.367935 -3.260147 9.407211
5.366898 -3.252701 9.433029
5.263565 -3.312637 9.453262
5.258347 -3.327896 9.475937
5.259689 -3.318680 9.484024
5.282852 -3.292679 9.468124
5.263992 -3.299393 9.440720
5.280533 -3.291306 9.455521
5.306107 -3.282547 9.465317
5.290604 -3.279404 9.458969
5.254929 -3.310989 9.490280
5.278549 -3.306381 9.485031
5.266037 -3.309250 9.497360
5.266190 -3.300797 9.496567
5.305466 -3.269485 9.470261
5.370560 -3.256424 9.450638
5.328873 -3.273209 9.463028
5.352890 -3.266251 9.463058
5.344681 -3.257614 9.459793
5.329605 -3.265701 9.494247
5.324722 -3.263626 9.490524
5.348251 -3.264359 9.477982
5.366226 -3.252304 9.483475
5.499191 -3.308517 9.399185
5.407455 -3.269882 9.385117
5.381699 -3.265305 9.380234
5.387863 -3.257187 9.388107
5.408585 -3.267105 9.388168
5.408463 -3.258896 9.388687
5.435867 -3.267746 9.395279
5.401962 -3.269485 9.428207
5.380722 -3.265305 9.424423
5.388718 -3.256393 9.436478
5.404190 -3.256302 9.432358
5.423874 -3.256546 9.409561
5.406662 -3.255905 9.422043
5.406815 -3.263992 9.429611
5.453964 -3.266190 9.398727
5.465317 -3.282944 9.414749
5.435257 -3.269241 9.440872
5.379288 -3.263626 9.467239
5.424240 -3.256546 9.459549
5.406235 -3.265640 9.475479
5.390610 -3.253860 9.482254
5.407608 -3.254929 9.470383
5.434708 -3.271072 9.486862
5.406754 -3.257858 9.488327
5.496353 -3.302780 9.438400
5.451553 -3.266922 9.449753
5.467606 -3.273819 9.448135
5.454849 -3.265305 9.447098
5.463333 -3.279251 9.455826
5.438065 -3.263290 9.457382
5.481766 -3.281021 9.446640
5.495682 -3.304092 9.483994
5.454758 -3.266098 9.498764
5.445908 -3.263535 9.491379
5.469406 -3.271317 9.494156
5.359909 -3.248489 9.268509
5.455093 -3.233047 9.306381
5.392227 -3.249100 9.259659
5.563614 -3.447708 9.398270
5.565659 -3.442368 9.143387
5.563797 -3.459305 9.022476
5.559830 -3.465775 9.016159
5.555923 -3.495010 9.041855
5.559158 -3.487839 9.051224
5.563736 -3.474686 9.044632
5.568466 -3.442947 9.050308
5.563309 -3.448380 9.048965
5.558578 -3.387985 9.031631
5.564163 -3.426804 9.013168
5.564896 -3.408127 9.009842
5.567429 -3.419418 9.023239
5.568497 -3.434708 9.039810
5.567734 -3.409317 9.046097
5.566269 -3.406174 9.053696
5.558304 -3.476669 9.079300
5.560776 -3.468704 9.092361
5.561539 -3.459274 9.112747
5.562698 -3.477219 9.095688
5.559128 -3.388443 9.084396
5.554245 -3.378616 9.116562
5.561935 -3.381760 9.123032
5.565994 -3.430557 9.084824
5.569077 -3.434189 9.086136
5.564529 -3.395737 9.084793
5.568497 -3.422470 9.098343
5.562759 -3.413193 9.112320
5.563309 -3.381454 9.120499
5.540726 -3.345108 9.002853
5.544144 -3.351303 9.002029
5.552017 -3.368423 9.017441
5.513443 -3.329178 9.025742
5.511307 -3.316177 9.029587
5.525040 -3.322708 9.027786
5.553940 -3.365555 9.059830
5.543839 -3.352432 9.050858
5.545059 -3.351364 9.061996
5.533035 -3.339828 9.043045
5.501419 -3.303268 9.020920
5.552902 -3.370956 9.083359
5.511459 -3.325272 9.065292
5.512955 -3.313889 9.073013
5.525925 -3.321762 9.073441
5.534225 -3.338272 9.087814
5.544632 -3.351578 9.096817
5.552231 -3.369247 9.113235
5.509872 -3.322891 9.106247
5.502274 -3.302414 9.066666
5.503983 -3.299942 9.110062
5.515335 -3.310196 9.114548
5.553421 -3.494797 9.133987
5.556992 -3.487869 9.142014
5.561295 -3.480331 9.148117
5.558823 -3.446213 9.149490
5.557663 -3.478165 9.163467
5.558823 -3.468948 9.182602
5.552383 -3.375290 9.156967
5.568832 -3.435196 9.135178
5.562546 -3.406387 9.149063
5.567520 -3.434067 9.158798
5.563370 -3.412643 9.159103
5.564529 -3.397812 9.165115
5.563187 -3.382217 9.169571
5.560898 -3.460739 9.197372
5.551071 -3.494705 9.226974
5.554764 -3.487930 9.234573
5.558609 -3.481094 9.242081
5.562302 -3.479630 9.242874
5.558914 -3.448380 9.231155
5.562637 -3.478470 9.192886
5.566940 -3.439255 9.189529
5.563278 -3.442215 9.235977
5.565781 -3.421951 9.191452
5.567001 -3.406601 9.197189
5.568161 -3.413834 9.205429
5.563400 -3.385269 9.197189
5.563461 -3.382309 9.217880
5.566757 -3.402054 9.236496
5.544724 -3.353104 9.142380
5.543686 -3.353867 9.148209
5.524399 -3.324997 9.126266
5.507004 -3.315720 9.143326
5.536392 -3.335037 9.130112
5.552841 -3.368698 9.160110
5.555923 -3.366013 9.173019
5.528336 -3.323837 9.160873
5.526047 -3.322678 9.170334
5.505539 -3.313889 9.185013
5.535965 -3.336380 9.180252
5.518265 -3.311935 9.125839
5.503464 -3.301468 9.160385
5.515488 -3.310593 9.163010
5.550430 -3.371597 9.197220
5.546646 -3.349167 9.188522
5.552963 -3.369034 9.208817
5.528702 -3.318588 9.211777
5.538773 -3.336075 9.194839
5.560684 -3.372757 9.232681
5.549393 -3.348557 9.228226
5.548965 -3.345535 9.230820
5.547470 -3.364212 9.234451
5.556107 -3.363998 9.248825
5.538315 -3.332779 9.222549
5.504562 -3.300186 9.206436
5.516830 -3.308762 9.208176
5.503098 -3.308273 9.223648
5.549057 -3.497147 9.405197
5.560104 -3.472244 9.259689
5.560898 -3.450943 9.256760
5.561478 -3.463364 9.277817
5.561447 -3.481796 9.294846
5.553726 -3.499222 9.298935
5.560074 -3.451584 9.309219
5.558945 -3.421860 9.270493
5.561691 -3.417465 9.312057
5.563614 -3.432480 9.258469
5.565048 -3.423355 9.277054
5.563156 -3.383469 9.268295
5.565292 -3.389175 9.270493
5.565018 -3.412949 9.302139
5.554764 -3.490005 9.318588
5.555893 -3.480728 9.338242
5.557297 -3.471756 9.356552
5.556412 -3.491653 9.359787
5.561172 -3.465225 9.363388
5.563766 -3.444778 9.317093
5.564651 -3.445175 9.344864
5.561172 -3.375320 9.312698
5.561935 -3.432999 9.349594
5.567245 -3.404617 9.317062
5.562943 -3.384506 9.318802
5.563919 -3.413986 9.355362
5.562973 -3.423538 9.370102
5.565720 -3.391739 9.351486
5.564499 -3.382248 9.364304
5.665390 -3.399307 9.365891
5.546616 -3.364670 9.278519
5.548996 -3.346176 9.280502
5.530685 -3.315598 9.255325
5.529587 -3.316086 9.261063
5.538834 -3.332413 9.270554
5.558792 -3.359756 9.290543
5.541519 -3.349045 9.309006
5.550980 -3.352219 9.302505
5.530746 -3.316147 9.305099
5.538040 -3.326553 9.304398
5.506271 -3.297745 9.250870
5.500778 -3.303146 9.262802
5.518326 -3.306778 9.253342
5.507034 -3.291885 9.279800
5.520950 -3.302750 9.295425
5.507095 -3.296951 9.298355
5.540146 -3.330734 9.316666
5.550674 -3.343674 9.325363
5.557571 -3.362534 9.344284
5.556381 -3.359604 9.360794
5.542648 -3.357132 9.359909
5.530045 -3.317978 9.357407
5.539444 -3.332565 9.369064
5.507278 -3.297226 9.348007
5.519821 -3.305283 9.348892
5.561966 -3.455490 9.385056
5.556931 -3.491257 9.408401
5.552414 -3.490067 9.414444
5.554642 -3.481735 9.429428
5.559433 -3.375748 9.403976
5.561874 -3.418289 9.412003
5.563522 -3.413651 9.392715
5.563156 -3.436356 9.428787
5.562912 -3.402634 9.420761
5.563705 -3.384262 9.417221
5.565628 -3.393661 9.436569
5.555466 -3.472275 9.450455
5.557785 -3.490280 9.456436
5.548141 -3.498459 9.496048
5.552994 -3.492722 9.498550
5.560257 -3.456100 9.478653
5.555099 -3.461746 9.476822
5.564102 -3.447403 9.447464
5.567093 -3.452255 9.472366
5.564438 -3.447403 9.497482
5.562027 -3.424820 9.459396
5.561752 -3.419174 9.463272
5.562180 -3.414566 9.484146
5.562210 -3.380630 9.475876
5.565018 -3.382492 9.464157
5.547562 -3.349899 9.385178
5.555161 -3.367477 9.402023
5.541977 -3.358353 9.405136
5.531235 -3.316513 9.404617
5.539871 -3.330460 9.378372
5.548141 -3.349472 9.434189
5.538712 -3.334457 9.421982
5.507248 -3.297836 9.398636
5.519730 -3.306137 9.399887
5.556534 -3.365585 9.448715
5.541122 -3.359055 9.450119
5.552780 -3.358231 9.460983
5.529007 -3.320999 9.462173
5.539841 -3.358047 9.493759
5.547928 -3.350479 9.486038
5.539902 -3.332993 9.469467
5.533310 -3.326157 9.491348
5.517502 -3.310654 9.457535
5.233810 -3.599258 9.666824
5.240402 -3.565598 9.527359
5.217331 -3.563431 9.508896
5.207687 -3.548660 9.509415
5.198410 -3.533463 9.510818
5.193619 -3.516342 9.519485
5.207016 -3.551224 9.561935
5.222794 -3.535629 9.531998
5.210831 -3.508713 9.546341
5.236160 -3.562698 9.571701
5.232651 -3.597733 9.610428
5.222702 -3.535568 9.584091
5.201523 -3.533768 9.570023
5.195206 -3.517532 9.576035
5.189743 -3.500534 9.583908
5.215012 -3.531784 9.606857
5.197372 -3.538345 9.616776
5.233200 -3.560684 9.618729
5.209549 -3.507858 9.596390
5.219772 -3.588547 9.658249
5.239090 -3.564713 9.682480
5.183151 -3.506607 9.626419
5.218704 -3.532852 9.629349
5.214127 -3.533798 9.655350
5.209671 -3.507919 9.649429
5.216354 -3.531265 9.677994
5.242691 -3.580399 9.694748
5.197556 -3.563187 9.708603
5.249374 -3.591507 9.718491
5.237411 -3.599411 9.728043
5.215958 -3.572861 9.723587
5.228104 -3.585922 9.727737
5.236252 -3.562759 9.730453
5.242752 -3.583023 9.744675
5.182663 -3.511276 9.734970
5.211746 -3.535110 9.702621
5.208023 -3.506821 9.699600
5.216415 -3.531296 9.731491
5.205185 -3.504898 9.747879
5.360184 -3.627151 9.653427
5.356735 -3.640518 9.508041
5.307755 -3.629227 9.511429
5.326309 -3.638687 9.526779
5.339737 -3.626846 9.520035
5.355728 -3.643173 9.559860
5.364426 -3.628372 9.546951
5.306870 -3.631851 9.563492
5.306656 -3.634109 9.617142
5.350662 -3.627579 9.583115
5.331314 -3.638046 9.589035
5.335922 -3.625961 9.623520
5.359604 -3.643173 9.620346
5.373306 -3.627762 9.618942
5.419815 -3.626297 9.506088
5.414444 -3.631638 9.507309
5.378098 -3.629410 9.510727
5.386520 -3.643692 9.542557
5.403397 -3.632217 9.533615
5.393845 -3.634415 9.552597
5.428604 -3.638412 9.543900
5.428360 -3.625656 9.579483
5.395828 -3.640732 9.611984
5.418381 -3.627274 9.600754
5.433762 -3.637772 9.606186
5.407974 -3.628555 9.623917
5.324417 -3.624832 9.562485
5.307632 -3.619522 9.524704
5.267838 -3.613968 9.529434
5.259384 -3.598251 9.532059
5.291153 -3.621140 9.552628
5.253525 -3.603500 9.575851
5.269821 -3.615005 9.586685
5.284103 -3.611008 9.601059
5.289291 -3.624313 9.603409
5.306717 -3.620865 9.615128
5.476425 -3.596878 9.526840
5.437424 -3.623306 9.562149
5.471634 -3.603012 9.524338
5.466751 -3.608627 9.523209
5.491745 -3.590622 9.503830
5.482437 -3.592209 9.522964
5.452957 -3.616257 9.539688
5.459244 -3.611893 9.534225
5.444229 -3.619522 9.553940
5.484055 -3.595718 9.604874
5.478653 -3.600906 9.606033
5.471329 -3.604904 9.614853
5.496140 -3.586777 9.596329
5.486526 -3.588394 9.616257
5.338058 -3.636429 9.654770
5.309189 -3.634842 9.675888
5.365372 -3.642166 9.684555
5.347458 -3.627182 9.685287
5.295242 -3.625290 9.722794
5.341263 -3.636795 9.714920
5.313766 -3.634476 9.738663
5.398148 -3.630173 9.644974
5.400345 -3.640396 9.673874
5.459335 -3.625961 9.703506
5.318436 -3.622299 9.675369
5.268295 -3.618027 9.638229
5.254471 -3.605362 9.631454
5.292343 -3.624771 9.662979
5.268478 -3.620102 9.693161
5.280685 -3.610458 9.702682
5.250443 -3.595139 9.718460
5.250290 -3.611832 9.733841
5.297440 -3.615799 9.742447
5.365005 -3.623367 9.744278
5.327896 -3.621841 9.746536
5.456802 -3.612045 9.634384
5.432388 -3.621353 9.673996
5.463882 -3.608414 9.625168
5.446732 -3.613297 9.656723
5.441086 -3.619156 9.657211
5.423294 -3.623703 9.691513
5.379227 -3.624985 9.704636
5.412643 -3.624832 9.715897
5.399979 -3.624374 9.749100
5.480789 -3.595169 9.710312
5.489548 -3.583389 9.716782
5.495224 -3.578659 9.714035
5.485550 -3.589798 9.711227
5.452286 -3.610519 9.745529
5.459274 -3.606857 9.736526
5.464645 -3.601578 9.735611
5.472244 -3.597794 9.725449
5.227829 -3.592728 9.894394
5.226425 -3.589096 9.780075
5.216141 -3.574936 9.779190
5.241318 -3.599350 9.790268
5.245804 -3.587326 9.797806
5.231827 -3.559738 9.775894
5.213974 -3.538925 9.754715
5.206741 -3.560074 9.780106
5.199844 -3.501480 9.779007
5.211197 -3.539932 9.802017
5.214737 -3.530167 9.782181
5.201035 -3.502090 9.794113
5.229477 -3.589554 9.841171
5.205795 -3.562851 9.834061
5.216904 -3.576950 9.835983
5.238663 -3.585953 9.840897
5.241409 -3.601517 9.846176
5.231613 -3.559586 9.829514
5.198105 -3.546707 9.838364
5.208023 -3.525620 9.823746
5.194077 -3.500900 9.823318
5.205734 -3.539536 9.846725
5.195053 -3.528580 9.850357
5.203018 -3.503433 9.852280
5.218918 -3.578049 9.895645
5.207718 -3.563919 9.893661
5.245743 -3.601273 9.910080
5.230698 -3.558975 9.882278
5.202560 -3.546310 9.902481
5.195786 -3.504044 9.875320
5.215012 -3.530350 9.891556
5.205185 -3.524887 9.924850
5.203842 -3.511093 9.934250
5.224533 -3.576828 9.962540
5.212875 -3.563217 9.959427
5.238419 -3.588913 9.969986
5.204361 -3.547501 9.962326
5.194931 -3.533157 9.962906
5.212753 -3.528824 9.942337
5.196396 -3.512070 9.983627
5.217758 -3.521378 9.999557
5.304062 -3.626999 9.905136
5.374313 -3.639389 9.754745
5.341782 -3.638718 9.770828
5.316574 -3.635117 9.798813
5.295639 -3.629471 9.834213
5.347153 -3.637955 9.835648
5.415512 -3.634232 9.754471
5.390213 -3.626053 9.770065
5.431198 -3.627823 9.836655
5.378922 -3.639053 9.818008
5.353683 -3.624222 9.771011
5.255661 -3.611221 9.798416
5.275772 -3.608810 9.812241
5.312637 -3.619919 9.789413
5.340805 -3.624130 9.804031
5.295120 -3.616165 9.842056
5.273819 -3.621475 9.813004
5.259781 -3.611099 9.861588
5.358658 -3.620529 9.863297
5.319443 -3.617416 9.873489
5.444443 -3.613663 9.757919
5.432693 -3.614517 9.785782
5.376114 -3.624710 9.809128
5.426193 -3.618546 9.792770
5.414871 -3.619125 9.820297
5.405136 -3.621017 9.840836
5.394577 -3.622299 9.864822
5.475266 -3.592789 9.827682
5.480850 -3.588089 9.824966
5.487442 -3.583847 9.818649
5.489883 -3.576401 9.830643
5.459488 -3.599503 9.851547
5.466049 -3.594894 9.845993
5.453354 -3.604172 9.855850
5.445175 -3.606949 9.870255
5.366531 -3.631699 9.982040
5.310196 -3.625839 9.972488
5.393417 -3.633316 9.898880
5.345627 -3.620102 9.897598
5.279800 -3.620346 9.879471
5.262131 -3.612015 9.921951
5.370926 -3.622818 9.924423
5.285599 -3.619308 9.946182
5.299026 -3.611618 9.938644
5.254623 -3.598495 9.982651
5.267960 -3.610947 9.989151
5.253250 -3.574326 9.980057
5.330826 -3.618546 9.939133
5.437637 -3.610367 9.881241
5.383041 -3.622574 9.893784
5.418320 -3.614456 9.921066
5.425308 -3.610764 9.911942
5.475510 -3.595291 9.920547
5.452866 -3.618179 9.929855
5.481430 -3.590866 9.916275
5.490524 -3.579239 9.921646
5.485672 -3.584702 9.920517
5.408401 -3.616196 9.942459
5.398392 -3.617844 9.964462
5.386856 -3.618393 9.993057
5.465744 -3.596909 9.941544
5.456375 -3.599228 9.959976
5.449051 -3.602921 9.969833
5.439743 -3.604782 9.989334
5.501266 -3.578812 9.895493
5.507278 -3.579391 9.682144
5.501602 -3.579666 9.505692
5.532394 -3.547318 9.508316
5.528580 -3.553299 9.503098
5.521194 -3.557236 9.511520
5.535538 -3.540268 9.517838
5.535995 -3.530960 9.539383
5.540695 -3.525375 9.541611
5.545212 -3.518753 9.546921
5.518814 -3.566971 9.588089
5.500412 -3.580887 9.599808
5.506638 -3.576614 9.594742
5.512161 -3.571060 9.594498
5.524185 -3.562027 9.586960
5.551376 -3.503616 9.569199
5.547318 -3.510086 9.563065
5.526352 -3.553513 9.602341
5.530380 -3.547775 9.606308
5.535934 -3.542862 9.604904
5.539047 -3.535873 9.614548
5.543442 -3.530075 9.618027
5.513260 -3.574234 9.679977
5.518539 -3.568954 9.679672
5.546036 -3.521713 9.632401
5.548264 -3.513168 9.648178
5.553268 -3.507614 9.649673
5.533890 -3.543289 9.704910
5.520706 -3.561234 9.693161
5.526810 -3.556137 9.690598
5.530045 -3.549759 9.698318
5.536606 -3.535995 9.716171
5.541580 -3.530685 9.717117
5.545120 -3.523209 9.727097
5.549545 -3.516617 9.732803
5.552292 -3.508987 9.745193
5.510452 -3.566574 9.902542
5.502762 -3.577774 9.794876
5.509506 -3.573257 9.789139
5.515701 -3.568771 9.784653
5.520126 -3.562881 9.788010
5.536484 -3.538162 9.808853
5.522781 -3.554947 9.801132
5.541245 -3.532639 9.810959
5.524307 -3.546982 9.817123
5.529984 -3.542130 9.815170
5.544968 -3.525375 9.820084
5.547592 -3.517136 9.834244
5.555649 -3.504135 9.847427
5.550064 -3.509323 9.847946
5.505692 -3.572311 9.900406
5.517685 -3.563095 9.893051
5.532669 -3.546829 9.896133
5.527298 -3.551926 9.896774
5.523392 -3.557785 9.891922
5.536850 -3.540817 9.900772
5.538071 -3.532181 9.919571
5.543228 -3.526138 9.922012
5.547806 -3.519699 9.926987
5.553299 -3.514572 9.926437
5.556564 -3.507339 9.936874
5.501144 -3.581039 9.991318
5.507462 -3.576157 9.987320
5.511032 -3.569412 9.995132
5.532578 -3.549118 9.991684
5.528152 -3.555008 9.988022
5.521255 -3.558273 9.997238
5.537979 -3.544205 9.990677
5.541916 -3.537949 9.996567
5.194504 -3.442978 9.902023
5.196426 -3.491898 9.626419
5.200760 -3.482254 9.511215
5.187302 -3.499832 9.525864
5.184830 -3.451157 9.530563
5.183212 -3.461685 9.553665
5.191971 -3.454300 9.515335
5.197037 -3.441360 9.524094
5.190933 -3.477402 9.549606
5.197250 -3.479904 9.556961
5.201584 -3.462967 9.548111
5.198563 -3.424057 9.511459
5.203018 -3.408524 9.504074
5.206039 -3.401932 9.522385
5.196884 -3.429886 9.542404
5.197586 -3.423416 9.562027
5.204361 -3.409409 9.558914
5.237137 -3.413589 9.535660
5.198410 -3.401047 9.537582
5.203690 -3.391006 9.542557
5.211227 -3.377274 9.540787
5.182266 -3.444046 9.569290
5.184097 -3.463303 9.609085
5.183701 -3.454971 9.623917
5.196945 -3.489639 9.577713
5.195419 -3.440262 9.573502
5.187637 -3.437607 9.579910
5.190628 -3.479752 9.602921
5.197800 -3.480270 9.610611
5.198288 -3.460770 9.594620
5.210251 -3.433548 9.569016
5.197830 -3.402908 9.584122
5.208145 -3.402817 9.579575
5.210892 -3.377060 9.592789
5.202408 -3.408127 9.608017
5.203110 -3.432236 9.611130
5.202408 -3.426590 9.623703
5.204178 -3.391312 9.596085
5.210983 -3.404556 9.607956
5.224197 -3.379745 9.610184
5.222916 -3.374039 9.510880
5.238693 -3.350204 9.515518
5.217361 -3.366806 9.513809
5.231430 -3.363693 9.530838
5.216385 -3.366837 9.558609
5.220871 -3.363541 9.541794
5.228165 -3.350143 9.540054
5.235367 -3.336227 9.537888
5.237930 -3.341385 9.542557
5.247910 -3.325699 9.545486
5.220230 -3.372635 9.564835
5.236923 -3.341507 9.587570
5.215286 -3.366318 9.603134
5.222946 -3.365097 9.598434
5.231064 -3.352005 9.598007
5.223404 -3.372849 9.624130
5.196213 -3.440811 9.627823
5.186264 -3.484512 9.649490
5.182297 -3.453171 9.667648
5.194809 -3.458450 9.641098
5.198318 -3.480606 9.664597
5.196823 -3.494644 9.676285
5.194595 -3.461349 9.662827
5.196976 -3.441299 9.682449
5.192764 -3.429184 9.650162
5.196121 -3.434647 9.648880
5.197037 -3.403732 9.629990
5.206039 -3.406204 9.629807
5.209671 -3.376266 9.643600
5.218613 -3.379257 9.653946
5.198166 -3.423813 9.669022
5.200302 -3.406723 9.657242
5.211624 -3.407425 9.657913
5.203964 -3.409683 9.680344
5.210251 -3.395279 9.660446
5.196396 -3.405319 9.676682
5.220749 -3.376663 9.673569
5.182114 -3.468857 9.714523
5.181778 -3.455307 9.715042
5.196060 -3.479111 9.713821
5.194138 -3.457993 9.693130
5.193344 -3.438522 9.698441
5.196365 -3.464859 9.714188
5.197250 -3.497452 9.726456
5.193771 -3.439163 9.730087
5.195084 -3.458633 9.748642
5.199295 -3.435226 9.706253
5.210159 -3.409164 9.706070
5.218185 -3.381546 9.703049
5.214188 -3.382828 9.716537
5.199326 -3.424576 9.724808
5.200790 -3.413742 9.729446
5.206680 -3.410904 9.722672
5.195541 -3.406052 9.722855
5.214645 -3.367874 9.649673
5.234482 -3.335129 9.626999
5.231979 -3.354172 9.656265
5.235153 -3.342453 9.678787
5.231400 -3.356400 9.705246
5.214310 -3.370926 9.697800
5.234482 -3.335648 9.695328
5.244644 -3.323624 9.698654
5.212082 -3.365616 9.738632
5.233231 -3.338516 9.720749
5.244003 -3.341110 9.733170
5.235489 -3.330856 9.748703
5.260056 -3.314224 9.657639
5.356339 -3.314255 9.501968
5.255386 -3.328842 9.521835
5.259201 -3.319443 9.529404
5.257401 -3.312546 9.546982
5.282120 -3.293839 9.513718
5.277573 -3.289474 9.502151
5.276840 -3.310165 9.521103
5.305374 -3.290176 9.501175
5.305588 -3.284561 9.511581
5.291641 -3.280045 9.512802
5.276047 -3.307510 9.531326
5.266861 -3.308548 9.546371
5.280777 -3.293777 9.558273
5.302078 -3.290939 9.546799
5.303909 -3.281784 9.553879
5.352585 -3.269028 9.510056
5.327927 -3.273361 9.507675
5.345444 -3.258102 9.512985
5.369736 -3.258408 9.504257
5.352005 -3.258774 9.518600
5.327011 -3.273788 9.552780
5.328232 -3.268539 9.549667
5.351334 -3.268082 9.553909
5.371628 -3.255905 9.550461
5.254379 -3.330765 9.569717
5.257614 -3.318436 9.573257
5.276077 -3.312790 9.573013
5.256912 -3.319809 9.619492
5.298355 -3.291458 9.592209
5.277969 -3.311020 9.582199
5.280289 -3.294601 9.604050
5.294205 -3.281601 9.622543
5.302536 -3.280167 9.597305
5.303787 -3.268448 9.624496
5.351242 -3.260635 9.572556
5.326065 -3.275406 9.599014
5.329147 -3.267715 9.599014
5.340378 -3.254990 9.608780
5.330368 -3.277481 9.613541
5.349564 -3.265060 9.596115
5.372635 -3.264267 9.595078
5.371445 -3.256851 9.603073
5.354935 -3.255203 9.613998
5.494156 -3.302109 9.526901
5.410019 -3.251541 9.514816
5.377853 -3.261887 9.510300
5.403976 -3.260696 9.515671
5.426102 -3.254013 9.505508
5.433334 -3.269547 9.530136
5.391190 -3.253525 9.532059
5.401871 -3.254898 9.531570
5.382339 -3.266769 9.555405
5.377213 -3.263351 9.556290
5.403152 -3.261459 9.561111
5.426620 -3.253769 9.555710
5.462357 -3.279373 9.500473
5.440872 -3.259140 9.500565
5.462326 -3.283188 9.548508
5.497574 -3.285446 9.541641
5.440933 -3.260544 9.534439
5.455276 -3.265854 9.548965
5.441574 -3.258560 9.550217
5.432419 -3.270004 9.575363
5.390488 -3.255386 9.586136
5.410110 -3.251999 9.566391
5.375229 -3.259537 9.597794
5.401566 -3.259262 9.604019
5.426376 -3.254837 9.608688
5.430801 -3.267685 9.618271
5.411484 -3.250320 9.614548
5.491653 -3.296402 9.566635
5.499191 -3.283249 9.588852
5.459427 -3.275925 9.586929
5.485214 -3.276932 9.591415
5.463852 -3.282150 9.614731
5.489639 -3.292679 9.608322
5.256058 -3.320480 9.665298
5.274368 -3.314163 9.677292
5.302414 -3.283829 9.645676
5.273178 -3.299515 9.632156
5.280533 -3.301254 9.655014
5.305588 -3.276657 9.629013
5.269699 -3.302963 9.661026
5.279861 -3.290878 9.664474
5.289139 -3.278458 9.666519
5.306351 -3.276077 9.679367
5.348801 -3.265976 9.642044
5.323898 -3.270523 9.639755
5.329666 -3.267532 9.649796
5.368027 -3.253372 9.643814
5.374924 -3.251755 9.645340
5.368881 -3.264816 9.640671
5.374710 -3.261551 9.644699
5.343460 -3.256882 9.667374
5.322922 -3.270798 9.685287
5.354355 -3.256790 9.668228
5.371964 -3.254562 9.683731
5.259171 -3.313644 9.709518
5.255875 -3.323959 9.713852
5.273239 -3.316055 9.725784
5.301651 -3.284927 9.692001
5.279739 -3.302170 9.701187
5.267075 -3.310165 9.702103
5.268906 -3.302475 9.713089
5.309494 -3.271957 9.688126
5.280685 -3.291397 9.719559
5.278885 -3.302872 9.747391
5.294937 -3.297195 9.737259
5.300003 -3.282303 9.735153
5.289597 -3.278763 9.720932
5.308090 -3.273911 9.727188
5.309372 -3.271896 9.741592
5.348282 -3.268082 9.689194
5.322006 -3.261948 9.696518
5.333817 -3.261368 9.690506
5.364639 -3.251328 9.690872
5.321762 -3.270248 9.730270
5.320572 -3.261063 9.747604
5.334915 -3.260239 9.740402
5.347061 -3.267258 9.733902
5.352768 -3.260086 9.725845
5.371567 -3.257004 9.731369
5.364304 -3.251114 9.743851
5.486740 -3.285324 9.646927
5.392593 -3.252457 9.632217
5.400742 -3.260025 9.649857
5.394241 -3.250290 9.675827
5.436966 -3.267715 9.668808
5.410263 -3.253098 9.670914
5.428268 -3.261734 9.658127
5.423721 -3.259995 9.669235
5.428360 -3.253006 9.669662
5.472824 -3.267380 9.640305
5.457016 -3.270462 9.627151
5.458511 -3.261581 9.643906
5.470840 -3.278458 9.639236
5.484726 -3.278427 9.645432
5.449234 -3.271255 9.659317
5.456497 -3.272446 9.674149
5.427078 -3.261093 9.702896
5.400223 -3.261948 9.696884
5.428787 -3.252090 9.707077
5.376297 -3.250748 9.747299
5.398758 -3.260361 9.740952
5.410446 -3.253433 9.723434
5.426376 -3.251785 9.719315
5.425705 -3.259689 9.747208
5.486130 -3.287033 9.693802
5.445023 -3.254684 9.697647
5.456924 -3.264938 9.701645
5.446091 -3.272141 9.705826
5.455185 -3.271317 9.718552
5.474258 -3.265488 9.688736
5.484787 -3.285812 9.738205
5.446152 -3.253372 9.747482
5.486954 -3.275833 9.744827
5.395676 -3.247971 9.675888
5.376602 -3.249588 9.693192
5.388840 -3.247055 9.719498
5.398514 -3.243881 9.720535
5.196701 -3.441116 9.899124
5.187576 -3.488113 9.761429
5.182114 -3.461411 9.766159
5.182388 -3.493393 9.807602
5.197372 -3.479965 9.770096
5.195297 -3.466873 9.763016
5.198746 -3.437515 9.755508
5.198288 -3.460739 9.808823
5.196060 -3.438644 9.802841
5.206711 -3.409866 9.752365
5.197617 -3.417862 9.778854
5.193588 -3.401901 9.764847
5.215897 -3.382889 9.750565
5.211441 -3.386703 9.766495
5.203781 -3.410843 9.799423
5.214218 -3.384537 9.798843
5.239304 -3.375656 9.789474
5.186508 -3.470627 9.832993
5.181412 -3.462753 9.813339
5.175827 -3.479233 9.869675
5.179245 -3.457596 9.854843
5.187027 -3.448929 9.852921
5.195541 -3.469559 9.813370
5.197311 -3.479935 9.824234
5.194046 -3.471329 9.862167
5.197189 -3.441849 9.854263
5.193924 -3.422348 9.827591
5.193832 -3.407516 9.815811
5.207321 -3.391403 9.814346
5.215714 -3.380173 9.816605
5.200943 -3.411880 9.846756
5.193130 -3.408951 9.863205
5.212753 -3.386337 9.847580
5.197311 -3.404739 9.868149
5.208054 -3.393173 9.871292
5.230911 -3.358688 9.754532
5.232285 -3.338882 9.766739
5.246780 -3.343491 9.772141
5.211807 -3.368820 9.787247
5.246597 -3.361954 9.787491
5.240372 -3.345535 9.781540
5.227493 -3.359390 9.801071
5.230057 -3.351334 9.810959
5.245590 -3.338760 9.808914
5.226547 -3.367203 9.819809
5.211258 -3.370987 9.835129
5.236954 -3.349838 9.830612
5.231705 -3.340805 9.814316
5.243484 -3.341385 9.820358
5.218094 -3.361984 9.858841
5.206009 -3.373886 9.853012
5.227310 -3.361862 9.851120
5.226578 -3.349106 9.859116
5.230515 -3.356003 9.874680
5.231430 -3.333694 9.852432
5.245041 -3.341019 9.858627
5.242142 -3.322037 9.856888
5.230789 -3.341293 9.860825
5.196121 -3.459305 9.914383
5.177292 -3.453445 9.897415
5.191147 -3.448685 9.916428
5.195511 -3.422043 9.880875
5.194565 -3.424179 9.884537
5.204453 -3.416397 9.900864
5.210648 -3.395523 9.877914
5.210556 -3.387741 9.895798
5.191879 -3.408005 9.908676
5.201004 -3.407181 9.930435
5.208115 -3.393875 9.928329
5.211960 -3.393051 9.934311
5.210495 -3.376511 9.932785
5.197281 -3.441483 9.955612
5.203751 -3.464371 9.984451
5.198380 -3.423935 9.941635
5.199295 -3.423538 9.949326
5.193222 -3.418411 9.964706
5.209702 -3.377609 9.980392
5.212997 -3.394669 9.992661
5.226974 -3.364273 9.901260
5.209885 -3.369461 9.879959
5.204300 -3.353073 9.887802
5.204727 -3.373062 9.905685
5.230087 -3.342636 9.908340
5.244186 -3.343124 9.908249
5.237595 -3.353928 9.943344
5.230789 -3.350143 9.961716
5.236435 -3.356888 9.997604
5.251724 -3.323807 9.897415
5.255020 -3.324661 9.760117
5.251663 -3.328079 9.765610
5.265793 -3.312912 9.758652
5.268814 -3.316238 9.771194
5.275101 -3.323685 9.793015
5.253403 -3.322128 9.803635
5.309372 -3.272476 9.776749
5.298630 -3.280869 9.779526
5.277939 -3.303146 9.793411
5.268906 -3.308548 9.802994
5.293503 -3.298996 9.785721
5.357285 -3.265945 9.778122
5.320175 -3.279739 9.752182
5.321732 -3.274277 9.779587
5.356369 -3.254807 9.768600
5.344803 -3.262253 9.775040
5.370255 -3.255966 9.776077
5.317886 -3.281082 9.799850
5.332016 -3.265671 9.802414
5.365097 -3.251602 9.799332
5.251572 -3.328018 9.819809
5.267471 -3.318100 9.819962
5.251694 -3.319168 9.846939
5.262833 -3.318222 9.865555
5.297897 -3.282181 9.826614
5.269394 -3.302780 9.822372
5.276505 -3.301498 9.837845
5.280807 -3.291458 9.828201
5.290268 -3.299850 9.832626
5.312027 -3.268784 9.822647
5.310287 -3.279648 9.842392
5.251022 -3.308517 9.857315
5.271530 -3.304855 9.849014
5.297256 -3.283768 9.874130
5.358749 -3.251480 9.815201
5.320541 -3.273575 9.824783
5.343582 -3.261581 9.820297
5.350296 -3.264847 9.821243
5.370102 -3.259476 9.825119
5.334030 -3.263016 9.850327
5.313583 -3.266922 9.872116
5.319778 -3.274734 9.871933
5.342880 -3.262894 9.867599
5.346268 -3.265335 9.867477
5.368881 -3.258804 9.870590
5.452927 -3.266464 9.759811
5.429977 -3.250748 9.756973
5.396194 -3.254166 9.781052
5.412827 -3.250046 9.769730
5.428024 -3.252762 9.775894
5.377060 -3.250534 9.799179
5.425430 -3.262711 9.795639
5.483261 -3.283890 9.782211
5.452103 -3.267380 9.806412
5.489487 -3.272110 9.790695
5.472580 -3.269699 9.800888
5.412399 -3.251450 9.824844
5.395035 -3.253677 9.826492
5.431259 -3.254715 9.835831
5.424057 -3.261429 9.840469
5.377090 -3.251175 9.853104
5.394485 -3.255600 9.874344
5.482376 -3.284439 9.828598
5.440750 -3.263229 9.817703
5.481064 -3.283401 9.873795
5.451797 -3.270309 9.855087
5.459427 -3.262589 9.855240
5.475296 -3.265732 9.846725
5.487350 -3.276505 9.851486
5.261948 -3.320328 9.915176
5.287949 -3.301163 9.880630
5.275253 -3.300583 9.883194
5.272903 -3.303360 9.899155
5.310074 -3.282089 9.892563
5.274582 -3.302017 9.930893
5.286728 -3.303085 9.930008
5.297134 -3.287643 9.923996
5.334091 -3.263565 9.904434
5.318619 -3.274307 9.917862
5.319473 -3.260361 9.909286
5.341232 -3.260330 9.911514
5.341843 -3.265579 9.913528
5.332626 -3.250259 9.918777
5.367966 -3.259262 9.917343
5.251266 -3.326187 9.946030
5.250839 -3.328812 9.995071
5.309738 -3.284470 9.942886
5.269150 -3.310165 9.964645
5.274216 -3.305008 9.980179
5.283127 -3.303757 9.977097
5.295639 -3.285782 9.968826
5.305923 -3.285049 9.989853
5.309006 -3.276169 9.995590
5.365433 -3.253311 9.958298
5.337021 -3.259445 9.950516
5.316513 -3.269943 9.960312
5.339279 -3.266830 9.961685
5.340469 -3.261459 9.959000
5.356674 -3.257004 9.985275
5.475601 -3.265823 9.900284
5.409470 -3.257034 9.888077
5.425613 -3.259445 9.878220
5.422928 -3.260941 9.886154
5.377365 -3.251389 9.906754
5.398880 -3.260544 9.909744
5.393234 -3.254807 9.919876
5.420670 -3.256180 9.928146
5.428970 -3.254410 9.922592
5.489639 -3.273209 9.898972
5.450027 -3.267502 9.898727
5.462875 -3.257431 9.899277
5.474075 -3.261246 9.898148
5.446213 -3.255325 9.909897
5.479233 -3.280411 9.917313
5.394608 -3.260910 9.956161
5.392715 -3.256882 9.968338
5.380569 -3.256271 9.992813
5.419205 -3.254684 9.973251
5.431778 -3.250412 9.969162
5.478745 -3.282639 9.965897
5.448135 -3.264084 9.941971
5.448532 -3.251968 9.957596
5.461136 -3.261063 9.959610
5.490250 -3.272781 9.951981
5.476151 -3.265610 9.953598
5.447281 -3.264969 9.989456
5.361038 -3.249130 9.901108
5.360458 -3.249374 9.864304
5.384476 -3.244400 9.765274
5.399094 -3.243576 9.772263
5.389450 -3.247391 9.828445
5.397812 -3.246384 9.830002
5.417862 -3.246689 9.865952
5.361588 -3.248184 9.915451
5.354172 -3.244980 9.943649
5.390488 -3.248032 9.940048
5.398300 -3.246902 9.937637
5.399979 -3.244797 9.987778
5.418442 -3.247025 9.977066
5.415726 -3.247879 9.978897
5.564835 -3.482162 9.880844
5.567398 -3.457016 9.646713
5.562973 -3.438370 9.515823
5.559036 -3.488602 9.503555
5.554459 -3.483780 9.516922
5.557053 -3.475937 9.530167
5.560318 -3.468826 9.539993
5.559372 -3.488602 9.553940
5.562027 -3.459946 9.557755
5.560593 -3.455063 9.560715
5.561447 -3.420334 9.515427
5.561844 -3.403793 9.511154
5.562088 -3.427109 9.545486
5.564560 -3.383896 9.516861
5.563553 -3.393906 9.531540
5.563004 -3.383621 9.558060
5.555435 -3.497208 9.575363
5.556442 -3.487808 9.596115
5.559219 -3.480148 9.608536
5.562363 -3.472946 9.618912
5.564377 -3.451920 9.572067
5.562607 -3.483231 9.595535
5.563705 -3.441299 9.600021
5.562881 -3.451462 9.605453
5.562302 -3.416916 9.570145
5.561569 -3.420670 9.566574
5.563950 -3.408035 9.588181
5.562820 -3.387711 9.574051
5.566483 -3.433517 9.612839
5.563126 -3.418472 9.613754
5.563858 -3.396408 9.617294
5.556320 -3.366623 9.500626
5.535721 -3.346146 9.528061
5.544601 -3.339401 9.524551
5.554245 -3.361893 9.539322
5.549210 -3.348740 9.533585
5.555374 -3.368942 9.555222
5.501938 -3.308426 9.517044
5.520889 -3.305893 9.550369
5.509171 -3.296371 9.546982
5.550186 -3.347092 9.584549
5.533554 -3.341843 9.569107
5.556656 -3.366440 9.614670
5.529984 -3.332169 9.605606
5.534286 -3.318588 9.597824
5.518631 -3.301010 9.583817
5.521286 -3.305862 9.601395
5.510300 -3.295029 9.595657
5.519211 -3.283432 9.610641
5.513474 -3.265427 9.618668
5.563126 -3.463242 9.641220
5.555893 -3.499863 9.662674
5.556961 -3.490555 9.683243
5.561600 -3.484573 9.687088
5.622482 -3.438034 9.663864
5.566177 -3.445877 9.677261
5.601517 -3.429245 9.645706
5.565414 -3.422104 9.643661
5.591080 -3.413773 9.645523
5.574722 -3.401138 9.636093
5.564621 -3.387436 9.637711
5.565109 -3.411423 9.670883
5.561081 -3.463608 9.740829
5.564529 -3.477249 9.698471
5.563431 -3.452133 9.709122
5.565384 -3.479996 9.744217
5.566544 -3.458511 9.740677
5.567062 -3.436295 9.699203
5.563370 -3.398239 9.707901
5.567398 -3.392410 9.713181
5.567368 -3.381363 9.717514
5.565598 -3.424545 9.732040
5.681320 -3.466568 9.656845
5.554306 -3.353348 9.652176
5.545670 -3.332016 9.631485
5.528183 -3.330429 9.649155
5.560379 -3.372330 9.684769
5.524429 -3.320114 9.685287
5.500320 -3.281967 9.637985
5.511398 -3.293747 9.644852
5.515335 -3.287460 9.685593
5.549820 -3.338333 9.699356
5.545486 -3.326157 9.713394
5.557907 -3.359146 9.723373
5.522964 -3.318497 9.729324
5.554337 -3.342117 9.727798
5.537064 -3.310349 9.698959
5.522171 -3.305618 9.704208
5.500900 -3.282211 9.742294
5.532700 -3.307632 9.719986
5.567215 -3.474014 9.895889
5.566971 -3.448929 9.763779
5.553116 -3.499649 9.766525
5.557816 -3.493637 9.770218
5.561478 -3.486801 9.778580
5.563339 -3.478409 9.795334
5.567825 -3.439316 9.785995
5.564621 -3.413254 9.762711
5.563553 -3.377731 9.758743
5.567947 -3.404922 9.776016
5.565079 -3.386154 9.778030
5.567886 -3.429092 9.811661
5.568161 -3.411819 9.809738
5.570877 -3.398087 9.786453
5.560837 -3.465744 9.833359
5.561386 -3.489059 9.871597
5.555679 -3.494003 9.873001
5.567978 -3.462143 9.825485
5.569016 -3.453201 9.845596
5.567947 -3.445694 9.854965
5.570053 -3.443771 9.867172
5.568069 -3.418900 9.837234
5.567734 -3.381973 9.823318
5.566452 -3.382828 9.835342
5.570602 -3.407944 9.855850
5.569229 -3.408493 9.860947
5.569443 -3.379532 9.872025
5.564255 -3.367661 9.782486
5.535751 -3.313278 9.756363
5.521500 -3.316818 9.773544
5.551468 -3.342239 9.780045
5.545639 -3.326523 9.766342
5.552963 -3.345230 9.785660
5.562790 -3.358749 9.796127
5.524460 -3.302200 9.750412
5.510605 -3.296463 9.753586
5.524643 -3.302567 9.803665
5.512863 -3.293106 9.800247
5.534836 -3.312057 9.797836
5.536880 -3.311905 9.806595
5.501907 -3.281143 9.792953
5.559158 -3.352097 9.833359
5.519760 -3.314224 9.817093
5.546890 -3.324936 9.816269
5.555557 -3.341232 9.831345
5.546677 -3.326035 9.831406
5.547043 -3.325333 9.870010
5.563278 -3.358505 9.848557
5.564011 -3.369736 9.874191
5.538467 -3.309799 9.855820
5.525253 -3.302139 9.855881
5.516861 -3.307083 9.856674
5.513657 -3.292770 9.852493
5.502792 -3.280228 9.844254
5.571457 -3.467789 9.901566
5.571304 -3.440231 9.898483
5.572464 -3.469406 9.936661
5.574448 -3.460617 9.912796
5.575912 -3.451675 9.932358
5.571976 -3.435287 9.884445
5.573288 -3.426224 9.904434
5.571274 -3.400803 9.875717
5.572403 -3.390945 9.898361
5.573074 -3.404099 9.902237
5.575180 -3.416550 9.924789
5.571335 -3.376755 9.920486
5.571915 -3.379776 9.928085
5.562485 -3.492416 9.960587
5.557449 -3.498001 9.958664
5.566818 -3.486343 9.965530
5.578537 -3.443893 9.946030
5.574783 -3.473251 9.979813
5.566910 -3.476059 9.991837
5.577194 -3.461380 9.976212
5.578812 -3.467117 9.986069
5.575760 -3.432632 9.938553
5.574600 -3.406357 9.952377
5.579361 -3.434402 9.968643
5.576187 -3.399094 9.947006
5.579941 -3.425613 9.979904
5.579330 -3.422958 9.998276
5.576492 -3.397293 9.971329
5.577896 -3.396622 9.996475
5.565323 -3.360336 9.895065
5.556778 -3.339676 9.881790
5.558029 -3.364578 9.915878
5.517288 -3.312729 9.908066
5.549210 -3.330856 9.909500
5.549606 -3.321426 9.916519
5.566696 -3.352982 9.892044
5.503403 -3.279892 9.896927
5.525833 -3.301773 9.908615
5.513901 -3.293015 9.906265
5.539322 -3.308884 9.907608
5.560226 -3.344101 9.948074
5.555069 -3.357285 9.955765
5.516281 -3.312973 9.954758
5.556351 -3.341110 9.937881
5.549606 -3.322067 9.971512
5.557755 -3.339249 9.988541
5.567764 -3.351669 9.943283
5.574142 -3.372299 9.966324
5.569077 -3.366409 9.968918
5.568161 -3.351639 9.997269
5.597427 -3.336655 9.997787
5.539413 -3.309372 9.962326
5.525711 -3.302628 9.964005
5.515884 -3.290237 9.955093
5.503952 -3.279556 9.950119
5.512344 -3.301865 9.991165
5.560837 -3.293228 9.989456
5.570572 -3.479355 10.394119
5.229416 -3.655716 10.448044
5.235794 -3.577438 10.155350
5.217148 -3.583603 10.005905
5.216141 -3.563583 10.022385
5.212509 -3.545059 10.034103
5.198410 -3.513168 10.044388
5.211044 -3.525955 10.049301
5.242996 -3.590866 10.092850
5.221786 -3.562607 10.090134
5.232285 -3.576920 10.091141
5.237686 -3.567764 10.083542
5.227249 -3.519730 10.064804
5.234909 -3.543808 10.096481
5.213211 -3.526993 10.110916
5.204239 -3.512039 10.112686
5.248276 -3.590164 10.160507
5.222977 -3.543564 10.168900
5.238174 -3.540573 10.175491
5.214798 -3.528397 10.171860
5.204605 -3.514145 10.171402
5.241348 -3.576614 10.224045
5.225082 -3.504196 10.201981
5.234207 -3.560043 10.229477
5.244797 -3.546921 10.234573
5.354660 -3.627487 10.208054
5.342880 -3.627182 10.013840
5.311966 -3.627090 10.032608
5.341019 -3.630508 10.067734
5.378860 -3.629410 10.118240
5.347275 -3.613846 10.006210
5.289322 -3.619461 10.009628
5.259201 -3.598129 10.048080
5.274765 -3.609360 10.058640
5.303940 -3.607681 10.032913
5.264236 -3.581772 10.056564
5.333633 -3.612961 10.043442
5.293198 -3.619583 10.073929
5.255630 -3.602463 10.099197
5.311050 -3.605453 10.119278
5.359055 -3.615707 10.071487
5.322617 -3.623398 10.109268
5.342697 -3.612503 10.121506
5.469925 -3.611069 10.015854
5.431412 -3.607590 10.003952
5.375473 -3.618820 10.021469
5.422775 -3.610977 10.018234
5.412460 -3.612015 10.042435
5.420090 -3.623123 10.058823
5.488907 -3.580215 10.024734
5.461624 -3.595810 10.056473
5.480331 -3.582504 10.041061
5.474960 -3.587784 10.041885
5.469162 -3.592331 10.045456
5.402847 -3.613998 10.062790
5.393997 -3.616623 10.079605
5.382980 -3.617569 10.106033
5.429733 -3.608536 10.108170
5.421402 -3.612228 10.120987
5.421036 -3.624863 10.117844
5.471329 -3.612595 10.075150
5.447098 -3.603653 10.074814
5.454391 -3.599930 10.065018
5.438278 -3.605911 10.092209
5.473007 -3.597916 10.124863
5.491806 -3.585037 10.108231
5.479141 -3.593643 10.119614
5.485458 -3.589218 10.114182
5.454361 -3.626389 10.160141
5.403824 -3.636612 10.144943
5.372147 -3.618484 10.132248
5.296982 -3.619705 10.138535
5.266647 -3.598526 10.177322
5.355759 -3.615402 10.182541
5.329605 -3.612076 10.156631
5.325424 -3.624161 10.172256
5.362686 -3.618942 10.184830
5.289841 -3.605484 10.201889
5.312180 -3.613510 10.224503
5.257431 -3.587265 10.235855
5.342148 -3.614395 10.220596
5.332779 -3.622360 10.244125
5.475967 -3.612320 10.140579
5.413101 -3.614853 10.136276
5.402786 -3.616287 10.159805
5.391861 -3.617264 10.186264
5.466385 -3.602127 10.131638
5.450760 -3.609024 10.155441
5.458267 -3.605453 10.144608
5.442490 -3.611710 10.170578
5.494431 -3.599167 10.170425
5.486435 -3.602188 10.183670
5.433121 -3.613632 10.190567
5.475845 -3.602707 10.210251
5.242355 -3.521774 10.377914
5.244217 -3.533554 10.266708
5.227310 -3.508102 10.256546
5.233871 -3.541916 10.306625
5.218216 -3.531082 10.295731
5.214584 -3.512955 10.307480
5.233444 -3.514145 10.315567
5.243973 -3.559128 10.366165
5.236008 -3.543045 10.370132
5.212875 -3.516342 10.363815
5.203293 -3.501694 10.364578
5.227005 -3.528305 10.371689
5.242661 -3.524673 10.431290
5.214798 -3.517593 10.427444
5.249557 -3.621872 10.443985
5.236649 -3.611954 10.498032
5.259933 -3.570663 10.377029
5.320511 -3.611221 10.298538
5.290817 -3.607285 10.262405
5.285843 -3.589951 10.271225
5.258804 -3.557388 10.301834
5.267685 -3.622360 10.373886
5.357742 -3.610794 10.348648
5.406235 -3.618942 10.283859
5.297897 -3.590225 10.472824
5.475143 -3.566269 10.412094
5.419205 -3.585587 10.402939
5.403214 -3.582077 10.454208
5.389114 -3.580368 10.495956
5.462479 -3.565048 10.448654
5.453110 -3.566910 10.468674
5.441422 -3.567032 10.499405
5.519882 -3.535629 10.374680
5.534958 -3.565811 10.150192
5.563004 -3.505447 10.027390
5.514297 -3.562485 10.004227
5.545883 -3.530930 10.004593
5.549759 -3.523849 10.013016
5.554031 -3.517654 10.018265
5.559097 -3.512039 10.020157
5.565994 -3.515366 10.057358
5.507401 -3.578506 10.084396
5.501175 -3.583450 10.088028
5.513687 -3.574081 10.079391
5.517410 -3.567581 10.086258
5.535294 -3.553909 10.075455
5.529709 -3.558792 10.077255
5.523026 -3.562210 10.085617
5.540024 -3.548386 10.077591
5.544266 -3.542496 10.081985
5.548996 -3.536087 10.086533
5.554886 -3.530869 10.085159
5.559464 -3.524979 10.088852
5.561295 -3.516434 10.106430
5.573990 -3.501236 10.086899
5.566208 -3.510818 10.108780
5.571091 -3.505173 10.111313
5.513901 -3.586472 10.151810
5.508987 -3.592514 10.149277
5.519241 -3.581253 10.151230
5.529709 -3.570450 10.151810
5.524063 -3.575760 10.152786
5.500229 -3.594467 10.167068
5.539383 -3.559921 10.154068
5.543930 -3.554306 10.156876
5.548752 -3.548904 10.158524
5.552689 -3.541733 10.167191
5.556961 -3.535172 10.173386
5.560867 -3.528732 10.180374
5.564774 -3.522079 10.187851
5.567734 -3.514725 10.199722
5.572128 -3.508621 10.204788
5.540421 -3.522903 10.354996
5.545059 -3.517014 10.358719
5.531448 -3.525345 10.371658
