7.047928 9.991989 -0.295334
7.032272 9.967758 -0.294327
7.124252 9.995773 -0.306931
7.074051 9.940659 -0.306900
7.121109 9.960861 -0.302567
7.113388 9.965347 -0.292740
7.089279 9.987198 -0.294327
7.152756 9.884171 -0.312729
7.160019 9.930588 -0.290024
7.127396 9.882462 -0.308609
7.150345 9.877884 -0.307175
7.137894 9.905838 -0.299026
7.149582 9.898819 -0.300064
7.169174 9.882187 -0.307083
7.172226 9.898453 -0.303513
7.185287 9.891525 -0.304764
7.185257 9.902573 -0.307968
7.139175 9.923752 -0.301193
7.147110 9.912643 -0.287399
7.143051 9.915909 -0.289536
7.144577 9.927719 -0.288651
7.202164 9.913620 -0.308334
7.158859 9.989456 -0.283585
7.137558 9.955795 -0.304489
7.132797 9.952164 -0.289536
7.142715 9.942764 -0.289993
7.132370 9.985153 -0.306961
7.136337 9.972397 -0.292282
7.133286 9.985794 -0.293289
7.127853 9.981613 -0.278183
7.148636 9.997452 -0.269028
7.236618 9.945847 -0.304489
5.812485 10.002731 -0.286240
5.847824 10.025070 -0.283615
5.829727 10.021988 -0.280441
5.872116 10.001144 -0.277481
5.856979 10.052444 -0.277786
5.863998 10.041183 -0.262009
5.871841 10.052017 -0.256424
5.825760 10.066605 -0.275620
5.849686 10.093704 -0.271774
5.884750 10.000839 -0.285080
5.880386 10.045242 -0.256577
5.888535 10.004959 -0.274612
5.916702 10.015121 -0.280472
5.876358 10.048721 -0.262253
5.981888 10.056351 -0.284805
5.952957 10.009171 -0.284866
5.947464 10.035904 -0.288345
5.963547 10.036697 -0.290878
5.991745 10.050522 -0.285355
5.968246 10.009262 -0.275345
5.928024 10.097885 -0.283646
5.883713 10.064926 -0.283707
5.883835 10.082443 -0.274796
5.907425 10.091446 -0.279648
5.925430 10.118118 -0.263870
5.984207 10.079758 -0.281815
5.967056 10.090439 -0.288132
5.951492 10.077499 -0.280014
5.995255 10.087418 -0.279739
5.919907 10.156296 -0.256027
5.910904 10.163101 -0.255844
5.888016 10.154099 -0.263229
5.899094 10.149704 -0.264053
5.933823 10.138290 -0.267044
5.908981 10.143967 -0.264481
5.892410 10.176407 -0.255417
5.950363 10.139206 -0.269516
5.959457 10.132614 -0.269760
5.964798 10.138565 -0.259445
5.938675 10.143753 -0.256607
5.953964 10.143173 -0.258652
5.875900 10.193466 -0.255905
5.891159 10.193436 -0.257950
5.935074 10.038925 -0.239822
5.896164 10.163437 -0.241928
5.982010 10.157669 -0.228592
5.972763 10.129684 -0.247147
5.976974 10.152054 -0.239120
5.998459 10.141098 -0.240402
5.988235 10.146744 -0.239853
5.992233 10.151169 -0.228989
5.965714 10.156357 -0.238266
5.954300 10.161240 -0.237473
5.970047 10.161179 -0.227524
5.971512 10.186844 -0.223190
5.979172 10.171341 -0.218216
5.993820 10.170761 -0.207993
5.985001 10.160995 -0.217484
5.997147 10.156601 -0.218430
5.921646 10.228531 -0.243454
5.925186 10.196518 -0.238968
5.921005 10.209183 -0.240402
5.899857 10.221237 -0.239456
5.935959 10.245102 -0.211533
5.944290 10.235916 -0.223312
5.959061 10.200546 -0.232010
5.953415 10.211349 -0.232895
5.973862 10.200241 -0.221848
5.920883 10.280533 -0.227066
5.947525 10.294571 -0.220383
5.952225 10.263779 -0.228561
5.938797 10.266312 -0.227219
5.974777 10.253281 -0.229874
5.992599 10.255814 -0.220352
5.974350 10.270309 -0.220139
5.989182 10.269699 -0.221970
5.938187 10.300766 -0.220139
5.990524 10.379898 -0.201218
5.998825 10.445816 -0.199173
6.262222 10.111465 -0.099655
6.286880 10.086288 -0.111801
6.288101 10.087479 -0.124435
6.051132 10.130630 -0.270309
6.060074 10.040726 -0.293961
6.109085 10.007217 -0.296127
6.074966 10.005478 -0.290695
6.063400 10.027115 -0.292313
6.070023 10.017136 -0.291763
6.103683 10.034897 -0.275436
6.055313 10.118393 -0.269028
6.046951 10.090500 -0.280746
6.017624 10.094193 -0.262650
6.025742 10.120895 -0.259476
6.036209 10.123245 -0.261398
6.119370 10.067978 -0.282761
6.112656 10.078140 -0.283310
6.074997 10.072464 -0.279221
6.090317 10.072220 -0.279129
6.098709 10.065964 -0.278305
6.113327 10.087357 -0.278946
6.098648 10.117813 -0.264694
6.146317 10.045029 -0.283249
6.150040 10.032730 -0.281937
6.138412 10.020950 -0.290573
6.150131 10.016586 -0.291672
6.156876 10.007401 -0.291306
6.159348 10.025833 -0.282272
6.167191 10.017746 -0.282242
6.170639 10.004837 -0.280838
6.128128 10.043228 -0.256027
6.150284 10.032974 -0.257706
6.168289 10.052231 -0.255081
6.162949 10.061874 -0.263779
6.221054 10.020004 -0.293930
6.201553 10.014206 -0.273361
6.217850 10.030014 -0.273697
6.193558 10.028641 -0.252365
6.194504 10.036758 -0.253769
6.187668 10.038254 -0.251694
6.214523 10.040359 -0.253494
6.231705 10.055862 -0.274612
6.232224 10.053604 -0.253708
6.148727 10.096939 -0.258682
6.147110 10.067825 -0.264969
6.056412 10.130142 -0.261246
6.050430 10.129898 -0.257950
6.106186 10.129532 -0.258530
6.066879 10.130753 -0.260391
6.080521 10.128525 -0.261948
6.079086 10.127396 -0.260574
6.110825 10.126877 -0.253738
6.121902 10.131424 -0.259781
6.134659 10.134903 -0.258286
6.149673 10.134048 -0.260269
6.296738 10.046036 -0.293503
6.290176 10.056595 -0.281570
6.284073 10.056808 -0.283707
6.278183 10.012650 -0.298233
6.273300 10.023331 -0.299057
6.308304 10.016281 -0.291641
6.302933 10.019730 -0.290604
6.279648 10.046341 -0.290939
6.274429 10.057571 -0.291824
6.294571 10.043930 -0.280441
6.323990 10.039963 -0.284225
6.332840 10.002853 -0.290390
6.322952 10.055862 -0.286362
6.319473 10.059219 -0.284225
6.371201 10.020401 -0.269699
6.358475 10.056229 -0.266586
6.360580 10.042099 -0.264908
6.287247 10.070145 -0.283096
6.280624 10.080093 -0.283554
6.293839 10.065323 -0.273636
6.311752 10.075211 -0.273697
6.307693 10.088547 -0.253586
6.259537 10.107437 -0.276443
6.259872 10.105728 -0.255447
6.279800 10.112808 -0.255295
6.301285 10.100418 -0.277023
6.346603 10.100540 -0.256668
6.332870 10.076736 -0.273300
6.330704 10.084152 -0.269150
6.355606 10.070267 -0.268082
6.369125 10.082596 -0.255325
6.325729 10.101028 -0.253769
6.343155 10.118790 -0.254196
6.366287 10.097702 -0.260849
6.369370 10.116470 -0.251205
6.366623 10.110306 -0.253311
6.419205 10.014053 -0.282303
6.420914 10.032303 -0.272446
6.405899 10.018265 -0.280869
6.412460 10.023819 -0.268997
6.436111 10.029709 -0.274338
6.388718 10.032303 -0.269913
6.385788 10.032944 -0.267349
6.388718 10.058212 -0.255112
6.417252 10.046005 -0.273758
6.408249 10.054092 -0.260941
6.424973 10.053207 -0.263229
6.452408 10.044815 -0.266068
6.443924 10.020676 -0.274246
6.445236 10.005264 -0.259750
6.452805 10.028824 -0.251358
6.453323 10.029373 -0.264175
6.449783 10.059189 -0.254929
6.441025 10.051010 -0.265244
6.454880 10.047104 -0.254074
6.460678 10.053207 -0.255844
6.406479 10.102097 -0.254501
6.401474 10.064102 -0.273941
6.397659 10.076462 -0.251083
6.400589 10.063278 -0.261063
6.390701 10.070724 -0.260635
6.379318 10.093063 -0.262070
6.388443 10.084854 -0.262253
6.398544 10.078201 -0.250137
6.409744 10.071915 -0.250900
6.436081 10.073959 -0.255936
6.423294 10.068253 -0.252365
6.415482 10.090622 -0.251328
6.387283 10.100693 -0.251602
6.384262 10.115036 -0.253098
6.445694 10.072617 -0.256149
6.244614 10.320694 -0.293594
6.114029 10.233017 -0.121719
6.124252 10.049637 -0.196945
6.022598 10.098099 -0.229294
6.041306 10.070206 -0.235672
6.102371 10.121078 -0.238663
6.072128 10.119675 -0.247299
6.080429 10.121964 -0.218094
6.103104 10.118149 -0.217453
6.100784 10.101364 -0.193314
6.123398 10.124802 -0.196213
6.033524 10.046219 -0.162521
6.100967 10.123734 -0.175552
6.106308 10.119919 -0.179764
6.118149 10.101303 -0.166000
6.105576 10.121506 -0.167130
6.116684 10.116196 -0.167801
6.156357 10.039139 -0.235214
6.179581 10.046219 -0.239487
6.185287 10.019424 -0.248672
6.167068 10.055618 -0.234390
6.157547 10.056442 -0.237839
6.168533 10.043076 -0.222702
6.163437 10.062424 -0.227341
6.171127 10.054001 -0.227249
6.181351 10.048019 -0.227829
6.231552 10.055099 -0.232956
6.194626 10.045181 -0.241470
6.206406 10.040451 -0.242477
6.187576 10.058823 -0.234055
6.210831 10.051987 -0.233261
6.217178 10.051163 -0.208786
6.209091 10.057053 -0.212662
6.230057 10.059494 -0.212326
6.165573 10.098373 -0.232773
6.186142 10.069168 -0.219254
6.167465 10.083359 -0.230881
6.174850 10.090897 -0.220718
6.179825 10.078995 -0.219742
6.147293 10.114059 -0.244705
6.172653 10.105637 -0.222488
6.167038 10.117172 -0.223373
6.176590 10.092697 -0.209000
6.178757 10.087082 -0.214523
6.176590 10.093674 -0.193924
6.127090 10.113480 -0.216751
6.149704 10.111404 -0.216141
6.146591 10.120834 -0.195572
6.175217 10.108292 -0.210953
6.157516 10.124680 -0.210861
6.170761 10.120987 -0.212112
6.247177 10.074570 -0.233414
6.199600 10.066360 -0.196274
6.216385 10.066971 -0.198624
6.201981 10.080093 -0.192856
6.245865 10.078323 -0.212753
6.226273 10.071609 -0.192032
6.223801 10.069016 -0.189102
6.222885 10.076126 -0.194016
6.225113 10.075699 -0.188675
6.241684 10.075546 -0.190872
6.239456 10.073318 -0.202591
6.245682 10.078262 -0.191879
6.172134 10.105392 -0.173477
6.186996 10.085983 -0.179794
6.152054 10.102493 -0.173752
6.126877 10.112991 -0.174667
6.139328 10.105850 -0.169327
6.152390 10.102127 -0.170486
6.139664 10.123734 -0.159561
6.155991 10.123154 -0.161545
6.169937 10.114792 -0.173843
6.171860 10.122147 -0.163406
6.183701 10.117203 -0.164261
6.167007 10.123734 -0.153183
6.184830 10.118393 -0.152328
6.172379 10.122726 -0.151352
6.185440 10.119003 -0.140244
6.173630 10.124039 -0.139450
6.182785 10.123703 -0.139481
6.196640 10.097000 -0.172653
6.210709 10.077499 -0.187027
6.192978 10.092422 -0.174423
6.196182 10.079391 -0.185349
6.205429 10.088699 -0.175552
6.215286 10.082138 -0.175980
6.207443 10.090744 -0.163864
6.217453 10.084305 -0.164322
6.226669 10.079330 -0.179581
6.228897 10.079483 -0.177414
6.245468 10.079330 -0.179550
6.231583 10.082169 -0.165848
6.223160 10.081284 -0.171585
6.227859 10.084152 -0.164383
6.245071 10.079727 -0.171097
6.247513 10.081345 -0.167801
6.189957 10.106339 -0.163651
6.199142 10.098648 -0.163834
6.202347 10.098099 -0.164352
6.209763 10.093124 -0.152237
6.223007 10.089920 -0.141251
6.233322 10.083939 -0.141769
6.222092 10.084213 -0.150803
6.230667 10.081253 -0.153366
6.219162 10.086044 -0.152512
6.248947 10.082779 -0.143600
6.248886 10.082748 -0.155869
6.243668 10.083908 -0.150375
6.224838 10.091721 -0.129471
6.230759 10.088821 -0.134628
6.219254 10.093124 -0.130264
6.235703 10.086288 -0.130112
6.248581 10.082474 -0.131241
6.243484 10.083908 -0.129501
6.193558 10.109085 -0.141464
6.201614 10.101181 -0.152237
6.204666 10.104324 -0.140762
6.212570 10.096115 -0.140701
6.191666 10.112839 -0.152359
6.194473 10.110977 -0.152603
6.206100 10.105820 -0.128922
6.204941 10.102341 -0.134628
6.215042 10.098648 -0.129105
6.189133 10.120590 -0.131668
6.195297 10.111832 -0.140549
6.197281 10.113815 -0.128830
6.187820 10.121506 -0.128647
6.223740 10.104721 -0.139603
6.035751 10.131393 -0.244034
6.037704 10.133530 -0.220444
6.008835 10.137100 -0.241501
6.002029 10.145004 -0.229416
6.037216 10.132980 -0.232376
6.049820 10.129349 -0.221451
6.050003 10.129532 -0.233597
6.011581 10.155502 -0.208084
6.006027 10.149399 -0.218521
6.043015 10.139267 -0.209885
6.054459 10.134354 -0.210678
6.044205 10.140549 -0.198135
6.053146 10.132919 -0.198227
6.053207 10.138321 -0.198196
6.001328 10.161179 -0.207596
6.013504 10.157608 -0.196609
6.096573 10.128586 -0.239822
6.063431 10.127335 -0.235092
6.079330 10.127274 -0.237259
6.063828 10.127731 -0.223099
6.079239 10.127213 -0.225082
6.122696 10.128372 -0.238510
6.112930 10.129105 -0.242172
6.095657 10.127640 -0.227371
6.113113 10.129318 -0.229996
6.077225 10.125107 -0.212387
6.065048 10.129074 -0.211319
6.093521 10.125412 -0.214615
6.076767 10.132919 -0.197525
6.067856 10.132095 -0.200027
6.080795 10.128922 -0.201279
6.064499 10.151962 -0.193710
6.111404 10.127518 -0.217300
6.094467 10.126450 -0.202744
6.099991 10.127457 -0.196793
6.007217 10.220383 -0.204819
6.019974 10.216690 -0.193741
6.012833 10.243973 -0.208969
6.025101 10.240341 -0.197739
6.008469 10.169174 -0.161453
6.022385 10.143600 -0.163589
6.013657 10.157883 -0.160507
6.095963 10.128067 -0.166763
6.073410 10.142929 -0.176804
6.075089 10.139877 -0.165756
6.084976 10.133408 -0.166122
6.064377 10.145035 -0.165085
6.085312 10.150803 -0.156357
6.118057 10.134628 -0.158310
6.108566 10.141434 -0.158005
6.096970 10.146164 -0.157181
6.065750 10.146561 -0.153366
6.096329 10.137894 -0.155045
6.123428 10.140305 -0.147537
6.118729 10.138626 -0.154617
6.103226 10.152786 -0.146713
6.113297 10.146408 -0.147110
6.118271 10.151688 -0.136215
6.095749 10.162003 -0.147018
6.104538 10.171371 -0.137131
6.107956 10.170151 -0.134689
6.118881 10.169479 -0.126419
6.111862 10.162003 -0.136795
6.124954 10.158768 -0.125748
6.107712 10.173355 -0.134811
6.111923 10.179276 -0.126846
6.065506 10.197861 -0.160263
6.074539 10.190201 -0.148148
6.079025 10.212631 -0.151688
6.089096 10.205978 -0.139786
6.081192 10.231766 -0.154495
6.097183 10.232376 -0.144211
6.103348 10.221420 -0.131241
6.110916 10.247391 -0.135513
6.131058 10.131149 -0.244949
6.148148 10.132462 -0.247513
6.125809 10.125687 -0.218979
6.130783 10.130905 -0.232620
6.141159 10.125229 -0.220993
6.128708 10.128799 -0.158859
6.134598 10.134964 -0.148239
6.143448 10.129868 -0.153824
6.146378 10.130753 -0.149124
6.152756 10.137375 -0.126389
6.143204 10.137375 -0.139481
6.149063 10.133530 -0.137650
6.134048 10.151474 -0.125931
6.127884 10.144974 -0.136551
6.140457 10.141129 -0.137589
6.138931 10.143814 -0.133286
6.133377 10.145370 -0.130692
6.144119 10.145004 -0.126328
6.158096 10.125320 -0.149918
6.165359 10.128433 -0.132370
6.161057 10.128403 -0.138474
6.163406 10.130814 -0.126846
6.175064 10.125534 -0.127579
6.227463 10.094406 -0.117874
6.223373 10.104141 -0.100204
6.237717 10.088333 -0.118362
6.242294 10.092941 -0.094986
6.241623 10.089523 -0.108841
6.240555 10.091171 -0.106827
6.207565 10.107254 -0.117050
6.216873 10.100449 -0.109573
6.216934 10.100540 -0.117355
6.189194 10.122910 -0.116745
6.199020 10.115646 -0.117050
6.218216 10.101852 -0.105423
6.201218 10.117905 -0.105362
6.191086 10.124893 -0.104996
6.212753 10.112534 -0.093826
6.209946 10.109695 -0.105423
6.211288 10.112656 -0.104935
6.220840 10.104507 -0.093826
6.230240 10.097183 -0.094070
6.227707 10.094650 -0.105698
6.234329 10.094589 -0.104904
6.206406 10.123215 -0.082169
6.215439 10.115280 -0.082260
6.212997 10.112686 -0.089066
6.203140 10.119888 -0.093613
6.207626 10.124466 -0.070206
6.216232 10.120682 -0.075150
6.218613 10.118515 -0.070755
6.209305 10.124344 -0.068466
6.223190 10.106918 -0.082169
6.232437 10.099442 -0.082352
6.243332 10.093979 -0.082993
6.240067 10.094101 -0.088120
6.225540 10.109268 -0.070511
6.237991 10.100571 -0.067429
6.244766 10.095413 -0.071091
6.235550 10.102554 -0.070877
6.239212 10.106216 -0.047256
6.249069 10.099716 -0.047623
6.237106 10.104111 -0.059006
6.247055 10.097672 -0.059402
6.223129 10.123093 -0.047379
6.228043 10.111832 -0.058884
6.220840 10.120773 -0.059067
6.221237 10.121414 -0.060287
6.231735 10.115585 -0.047470
6.233688 10.114365 -0.046890
6.241959 10.108994 -0.035660
6.234634 10.118484 -0.035904
6.238235 10.122116 -0.024429
6.244583 10.111649 -0.024002
6.240219 10.124161 -0.000443
6.247086 10.114151 -0.012314
6.239120 10.123032 -0.012405
6.249039 10.116135 -0.000504
6.118973 10.221298 -0.120804
6.132187 10.166397 -0.115433
6.140274 10.158035 -0.115311
6.148331 10.149399 -0.115189
6.153397 10.154709 -0.104233
6.166733 10.134293 -0.115494
6.187271 10.126114 -0.110855
6.177963 10.128494 -0.116104
6.156723 10.141495 -0.115189
6.160965 10.142349 -0.111801
6.170181 10.137894 -0.104141
6.181198 10.134872 -0.099716
6.180038 10.130661 -0.104416
6.176010 10.136185 -0.097305
6.160904 10.145889 -0.104050
6.126297 10.184280 -0.113632
6.125015 10.176010 -0.115768
6.137222 10.171768 -0.104477
6.145462 10.163528 -0.104385
6.138443 10.179276 -0.098831
6.133011 10.184525 -0.105576
6.185318 10.136154 -0.081284
6.184189 10.135574 -0.090164
6.182663 10.133377 -0.092850
6.168289 10.153610 -0.081406
6.165268 10.150467 -0.092880
6.177109 10.145065 -0.081375
6.173477 10.141312 -0.092728
6.180984 10.149094 -0.070114
6.186142 10.144150 -0.063583
6.179581 10.150253 -0.069565
6.153183 10.167130 -0.091507
6.150803 10.169113 -0.093491
6.149307 10.184555 -0.082962
6.142776 10.177658 -0.093613
6.155807 10.174393 -0.082474
6.161179 10.162857 -0.081680
6.156540 10.158005 -0.092789
6.166794 10.168777 -0.070816
6.172531 10.158066 -0.070175
6.160995 10.179916 -0.071487
6.188400 10.130966 -0.104965
6.195633 10.129532 -0.081650
6.193436 10.127304 -0.093369
6.188553 10.139450 -0.069809
6.190353 10.134140 -0.075150
6.197830 10.131790 -0.069962
6.127182 10.230179 -0.110580
6.125198 10.198868 -0.105179
6.142563 10.246750 -0.102036
6.159195 10.197311 -0.075394
6.158218 10.193985 -0.072830
6.164963 10.212296 -0.063797
6.170242 10.206741 -0.063370
6.152786 10.240005 -0.090042
6.180405 10.166306 -0.047592
6.183273 10.151474 -0.058426
6.177597 10.166428 -0.059250
6.175766 10.161423 -0.058731
6.166885 10.186081 -0.060623
6.176346 10.178818 -0.048569
6.172043 10.174301 -0.059799
6.182358 10.185104 -0.037674
6.185928 10.172073 -0.036575
6.191879 10.160446 -0.035904
6.200027 10.134079 -0.058273
6.206039 10.134689 -0.047745
6.211380 10.128281 -0.058884
6.212814 10.129776 -0.046982
6.204086 10.138290 -0.046982
6.187729 10.156113 -0.047195
6.191788 10.142807 -0.058365
6.195297 10.146439 -0.046951
6.215897 10.132950 -0.035446
6.198532 10.149734 -0.035446
6.206497 10.140701 -0.035294
6.225235 10.125259 -0.035599
6.219345 10.125748 -0.045334
6.218430 10.135483 -0.023788
6.203110 10.154556 -0.024246
6.211014 10.145340 -0.024094
6.203323 10.143051 -0.026932
6.201218 10.151901 -0.015488
6.217514 10.152023 -0.001022
6.212997 10.147446 -0.012283
6.219131 10.138138 -0.020248
6.230209 10.125412 -0.026199
6.225693 10.129593 -0.029922
6.226517 10.126572 -0.023697
6.226059 10.138748 -0.005539
6.230331 10.130447 -0.012283
6.221420 10.138565 -0.012222
6.232254 10.132431 -0.000473
6.224716 10.141922 -0.000717
6.197098 10.165878 -0.024857
6.191635 10.178024 -0.025589
6.201370 10.170303 -0.013535
6.211380 10.163071 -0.001541
6.207748 10.159317 -0.013016
6.198318 10.184952 -0.014786
6.205917 10.174973 -0.002243
6.174240 10.193832 -0.050064
6.181320 10.201279 -0.039352
6.193466 10.235123 -0.030167
6.196884 10.200333 -0.016312
6.190323 10.193405 -0.027145
6.190811 10.211288 -0.029190
6.204208 10.191086 -0.003769
6.204788 10.208603 -0.005722
6.305618 10.088181 -0.114304
6.285782 10.052353 -0.243149
6.263626 10.046982 -0.239243
6.281387 10.031143 -0.239609
6.297104 10.124619 -0.234512
6.294998 10.077744 -0.235519
6.305893 10.071945 -0.236252
6.292343 10.070023 -0.224380
6.278580 10.116318 -0.234543
6.261032 10.101089 -0.234299
6.264053 10.089645 -0.191940
6.262894 10.094193 -0.213028
6.280014 10.110764 -0.213333
6.270981 10.095718 -0.194687
6.305374 10.121933 -0.217972
6.298874 10.117905 -0.213272
6.282181 10.102798 -0.192093
6.283920 10.098953 -0.188675
6.284897 10.101700 -0.187668
6.301376 10.108566 -0.191910
6.294632 10.111313 -0.202621
6.311325 10.110336 -0.192245
6.360458 10.124466 -0.225937
6.331039 10.097214 -0.235397
6.320511 10.118668 -0.233749
6.319534 10.118423 -0.206894
6.319351 10.122177 -0.212997
6.321854 10.112808 -0.191666
6.317429 10.110153 -0.195297
6.343246 10.116562 -0.191422
6.336136 10.118057 -0.196548
6.359940 10.124619 -0.213150
6.355606 10.120377 -0.199417
6.355240 10.116104 -0.195724
6.364120 10.117355 -0.191025
6.372421 10.119431 -0.201523
6.369247 10.116318 -0.188126
6.305740 10.105484 -0.178207
6.265457 10.086838 -0.179031
6.275406 10.092300 -0.172806
6.264450 10.087662 -0.171005
6.271347 10.088303 -0.159439
6.266220 10.088028 -0.164688
6.307114 10.106155 -0.178726
6.284286 10.094833 -0.170853
6.302597 10.103775 -0.170822
6.300308 10.099472 -0.164566
6.310196 10.098587 -0.165146
6.264877 10.085617 -0.150040
6.281204 10.090073 -0.142654
6.270432 10.087387 -0.146866
6.265182 10.084976 -0.139725
6.263107 10.082993 -0.134781
6.265640 10.082321 -0.129074
6.266159 10.083176 -0.133530
6.294052 10.093338 -0.150589
6.285049 10.091629 -0.149857
6.285934 10.088089 -0.128891
6.290604 10.089981 -0.137375
6.305771 10.091476 -0.128647
6.310226 10.092667 -0.140152
6.306595 10.091171 -0.139175
6.306595 10.092789 -0.135147
6.308121 10.090622 -0.127274
6.304245 10.097427 -0.149704
6.348557 10.113480 -0.185074
6.326370 10.108475 -0.181503
6.324326 10.103500 -0.170395
6.320175 10.102432 -0.167465
6.336716 10.101974 -0.157089
6.342422 10.107529 -0.170975
6.362778 10.110062 -0.173935
6.356705 10.104141 -0.159897
6.345322 10.108566 -0.170181
6.347427 10.103714 -0.165482
6.373581 10.104691 -0.162094
6.366867 10.106979 -0.169693
6.326950 10.093094 -0.128311
6.370346 10.093277 -0.127548
6.325272 10.099625 -0.149399
6.316940 10.099228 -0.154221
6.333298 10.098434 -0.142715
6.332809 10.098160 -0.143661
6.328720 10.094223 -0.130234
6.341965 10.094955 -0.135361
6.351303 10.098923 -0.146072
6.347733 10.099533 -0.148972
6.368881 10.100174 -0.148422
6.368576 10.100327 -0.148605
6.348740 10.095261 -0.127975
6.345535 10.097427 -0.138657
6.348129 10.095871 -0.132828
6.365921 10.097336 -0.135208
6.451950 10.044388 -0.240646
6.449692 10.059067 -0.242203
6.452499 10.011887 -0.236465
6.449875 10.009537 -0.248398
6.453018 10.029037 -0.238785
6.453232 10.017471 -0.238571
6.454208 10.013474 -0.224319
6.459244 10.001450 -0.223495
6.453598 10.029587 -0.226303
6.453110 10.045425 -0.228256
6.452255 10.061447 -0.230209
6.456039 10.015152 -0.212204
6.459915 10.002090 -0.211105
6.452621 10.028641 -0.213425
6.462967 10.004868 -0.199265
6.455215 10.031021 -0.188889
6.456863 10.015884 -0.199844
6.453781 10.029709 -0.201126
6.452988 10.045334 -0.215591
6.450089 10.045975 -0.202652
6.453171 10.045456 -0.190384
6.453354 10.045639 -0.203079
6.413956 10.109238 -0.243790
6.425369 10.086685 -0.242447
6.428940 10.090042 -0.230698
6.437332 10.081436 -0.230728
6.390518 10.107864 -0.235611
6.388931 10.119553 -0.241714
6.376572 10.123428 -0.240494
6.401810 10.114639 -0.242844
6.389633 10.115067 -0.226089
6.375778 10.122665 -0.227646
6.386063 10.117447 -0.232315
6.387863 10.118515 -0.228745
6.400101 10.112991 -0.229691
6.419327 10.097916 -0.243088
6.411911 10.107254 -0.230576
6.421738 10.100235 -0.231033
6.410721 10.107224 -0.231400
6.427628 10.088821 -0.205032
6.427780 10.088943 -0.217728
6.425064 10.089462 -0.216782
6.424515 10.069656 -0.190567
6.414658 10.093460 -0.191238
6.414169 10.093460 -0.189133
6.425034 10.086380 -0.191727
6.388199 10.118820 -0.216202
6.385941 10.117264 -0.211441
6.375168 10.122086 -0.214859
6.398758 10.111679 -0.204025
6.396927 10.109970 -0.216232
6.384476 10.115250 -0.189987
6.385361 10.116104 -0.202835
6.390091 10.115768 -0.195999
6.386154 10.115860 -0.190536
6.397598 10.110580 -0.191116
6.409622 10.105057 -0.204666
6.417801 10.096481 -0.204666
6.420273 10.098831 -0.217941
6.410294 10.105698 -0.217484
6.412827 10.098862 -0.210159
6.407608 10.103134 -0.191513
6.444717 10.071701 -0.243179
6.437759 10.081833 -0.243515
6.451279 10.077835 -0.219498
6.446640 10.073502 -0.231003
6.441238 10.082047 -0.226059
6.456924 10.065781 -0.206070
6.455826 10.064743 -0.218460
6.439468 10.083420 -0.205917
6.439804 10.083755 -0.218704
6.455704 10.081924 -0.207932
6.453476 10.062546 -0.192551
6.438309 10.082321 -0.192978
6.445267 10.088303 -0.196121
6.457260 10.083389 -0.195633
6.427078 10.055069 -0.138992
6.450821 10.043259 -0.177200
6.464890 10.006577 -0.174637
6.463455 10.005295 -0.186844
6.455246 10.031052 -0.176315
6.457870 10.016800 -0.187485
6.459488 10.018265 -0.175308
6.465958 10.007584 -0.162338
6.462540 10.012375 -0.168259
6.455246 10.031052 -0.163712
6.460251 10.018936 -0.162949
6.471878 10.000443 -0.179123
6.448563 10.057968 -0.178696
6.444931 10.057449 -0.187149
6.449539 10.045456 -0.168381
6.451187 10.043594 -0.164719
6.453781 10.042435 -0.165543
6.449631 10.058975 -0.166367
6.467270 10.008743 -0.150101
6.458298 10.025192 -0.145828
6.460800 10.019455 -0.150528
6.467453 10.008896 -0.137619
6.465103 10.014236 -0.134079
6.463089 10.021530 -0.125992
6.461411 10.020004 -0.138138
6.469009 10.010269 -0.125443
6.478043 10.002365 -0.125687
6.475632 10.000168 -0.137650
6.471085 10.004562 -0.139908
6.452774 10.045059 -0.152512
6.455704 10.031418 -0.151291
6.449600 10.058914 -0.141159
6.449936 10.059219 -0.153793
6.451370 10.043747 -0.127029
6.452805 10.045090 -0.139938
6.450607 10.046188 -0.134109
6.455826 10.031540 -0.126175
6.456100 10.031784 -0.138809
6.447586 10.057053 -0.128128
6.415054 10.093857 -0.178696
6.425888 10.087143 -0.179276
6.431503 10.076859 -0.168411
6.414078 10.092911 -0.165848
6.414047 10.093277 -0.168320
6.425674 10.086960 -0.166641
6.405716 10.101334 -0.178421
6.379379 10.110306 -0.176102
6.396927 10.109940 -0.178329
6.387924 10.108841 -0.169388
6.385117 10.107864 -0.165817
6.393661 10.106796 -0.164932
6.405014 10.100662 -0.165634
6.376175 10.093735 -0.135574
6.392929 10.089554 -0.127060
6.397202 10.093216 -0.138596
6.398911 10.093155 -0.133804
6.405746 10.085007 -0.126144
6.393570 10.089737 -0.125198
6.433823 10.078079 -0.141403
6.416275 10.084457 -0.147232
6.411484 10.090469 -0.152634
6.437057 10.081131 -0.154770
6.423599 10.085007 -0.153519
6.431534 10.075912 -0.128281
6.431503 10.076797 -0.134109
6.418137 10.079819 -0.127090
6.419998 10.081558 -0.140091
6.409531 10.088608 -0.139603
6.417648 10.078842 -0.126266
6.386673 10.100113 -0.150681
6.390884 10.097519 -0.148117
6.401443 10.097244 -0.152206
6.380600 10.094284 -0.136642
6.452621 10.099808 -0.166214
6.439163 10.083115 -0.180527
6.456741 10.082901 -0.182816
6.449722 10.076309 -0.168472
6.442429 10.066940 -0.166855
6.439011 10.082993 -0.167862
6.442337 10.065689 -0.146103
6.442642 10.069687 -0.141525
6.445755 10.072617 -0.154861
6.440048 10.067276 -0.128342
6.348434 10.130081 -0.237534
6.361557 10.126175 -0.238785
6.331009 10.129715 -0.235062
6.332474 10.131149 -0.222885
6.337814 10.137039 -0.234177
6.349075 10.130692 -0.225082
6.362015 10.126663 -0.226303
6.361710 10.127213 -0.233261
6.340469 10.127060 -0.212784
6.343674 10.125443 -0.211075
6.362167 10.125015 -0.212234
6.412888 10.160019 -0.187851
6.284805 10.084244 -0.099014
6.286423 10.085739 -0.107956
6.250748 10.084579 -0.119522
6.268173 10.085159 -0.109421
6.266220 10.083267 -0.121231
6.254410 10.088211 -0.095871
6.264786 10.084702 -0.108292
6.264481 10.085220 -0.104965
6.252457 10.086319 -0.107651
6.267776 10.084763 -0.097031
6.306442 10.088028 -0.099930
6.307022 10.086502 -0.107620
6.303574 10.087936 -0.105179
6.305893 10.088425 -0.102005
6.254868 10.088699 -0.083725
6.264267 10.085770 -0.087509
6.267776 10.084793 -0.084763
6.263779 10.086746 -0.066666
6.256668 10.090530 -0.071884
6.269424 10.086411 -0.072891
6.286911 10.083450 -0.087051
6.284744 10.084183 -0.086716
6.306808 10.086624 -0.086807
6.304581 10.087112 -0.089340
6.283035 10.089554 -0.064194
6.283951 10.083389 -0.074234
6.286728 10.083450 -0.066238
6.307571 10.083389 -0.065903
6.300461 10.082962 -0.075241
6.303574 10.086166 -0.076797
6.299515 10.082169 -0.063583
6.362869 10.094376 -0.121994
6.325302 10.090897 -0.116989
6.324722 10.075272 -0.097092
6.328049 10.088638 -0.107346
6.322037 10.087692 -0.103836
6.343582 10.091446 -0.106857
6.337540 10.087936 -0.105331
6.344376 10.092239 -0.119492
6.374680 10.088577 -0.110275
6.354996 10.086777 -0.095261
6.349899 10.090622 -0.107010
6.358780 10.090439 -0.108566
6.345871 10.088608 -0.099533
6.372635 10.086594 -0.097336
6.372116 10.087296 -0.105484
6.371811 10.087479 -0.106552
6.319321 10.085007 -0.078506
6.323318 10.088943 -0.091751
6.327927 10.088547 -0.086533
6.336441 10.084518 -0.080429
6.339767 10.087753 -0.093582
6.316299 10.082077 -0.065475
6.328384 10.086166 -0.065659
6.334732 10.083450 -0.075363
6.335342 10.083481 -0.067795
6.352158 10.084030 -0.082199
6.351273 10.085220 -0.086044
6.372726 10.083603 -0.085648
6.369949 10.084030 -0.084274
6.374191 10.077713 -0.064743
6.352219 10.081131 -0.065140
6.350266 10.082230 -0.069382
6.371872 10.086899 -0.075485
6.365982 10.080246 -0.070969
6.251297 10.101944 -0.035873
6.258591 10.092422 -0.047867
6.264023 10.088028 -0.060928
6.258011 10.091873 -0.059982
6.269333 10.086349 -0.048386
6.269180 10.086197 -0.060593
6.262375 10.090958 -0.045914
6.270340 10.087357 -0.036392
6.283279 10.082779 -0.049545
6.283432 10.082870 -0.061844
6.296890 10.079605 -0.050735
6.306198 10.085953 -0.060654
6.283401 10.082870 -0.037338
6.286850 10.082413 -0.045395
6.297104 10.079819 -0.038498
6.298599 10.079941 -0.045334
6.308304 10.080215 -0.045029
6.260178 10.094009 -0.035995
6.272141 10.089127 -0.024521
6.274185 10.091171 -0.000534
6.272079 10.089066 -0.012283
6.295944 10.078690 -0.026016
6.286636 10.082443 -0.024582
6.283920 10.083420 -0.025192
6.306198 10.080734 -0.021439
6.308609 10.078629 -0.024155
6.308731 10.077560 -0.003372
6.311661 10.077591 -0.003036
6.286118 10.083694 -0.003769
6.283463 10.082932 -0.012863
6.296738 10.079453 -0.013931
6.284836 10.084305 -0.000931
6.297562 10.080307 -0.001846
6.298782 10.080276 -0.015457
6.312332 10.078201 -0.015427
6.262924 10.094833 -0.021347
6.252060 10.107193 -0.030014
6.261826 10.095627 -0.024124
6.260788 10.095810 -0.025223
6.253067 10.103745 -0.024033
6.257401 10.108078 -0.000534
6.263229 10.097031 -0.012192
6.254074 10.104721 -0.012039
6.259201 10.100510 -0.004440
6.266068 10.099899 -0.000595
6.343430 10.110641 -0.059525
6.314041 10.079880 -0.052689
6.335007 10.083145 -0.055405
6.313522 10.079391 -0.040268
6.333511 10.081467 -0.045425
6.329727 10.080978 -0.044724
6.332962 10.081131 -0.042618
6.363480 10.077805 -0.058029
6.348923 10.080948 -0.056717
6.358536 10.073044 -0.032211
6.346024 10.078110 -0.043716
6.353378 10.076401 -0.044266
6.371964 10.069046 -0.033279
6.362625 10.076981 -0.045456
6.342239 10.074478 -0.018265
6.328629 10.076920 -0.017044
6.330460 10.077652 -0.023819
6.312851 10.078751 -0.027847
6.330490 10.078781 -0.029739
6.326950 10.075333 -0.004410
6.340561 10.073074 -0.005630
6.331161 10.074661 -0.003006
6.357681 10.072250 -0.019669
6.354355 10.072403 -0.023422
6.344589 10.076736 -0.031052
6.346176 10.075241 -0.021286
6.370926 10.068039 -0.020676
6.354691 10.069351 -0.006760
6.355331 10.068253 -0.002579
6.368912 10.066147 -0.007919
6.434280 10.061813 -0.089401
6.436234 10.046585 -0.063004
6.416611 10.061874 -0.074814
6.427963 10.055893 -0.063004
6.426682 10.059189 -0.075546
6.431381 10.059097 -0.076248
6.423386 10.056229 -0.063461
6.450485 10.042923 -0.114304
6.462936 10.021378 -0.113419
6.460129 10.027390 -0.099442
6.463699 10.022079 -0.101059
6.470749 10.011856 -0.113297
6.480240 10.004318 -0.113663
6.469833 10.014572 -0.100510
6.480850 10.002975 -0.102280
6.470200 10.013931 -0.105392
6.480209 10.004288 -0.101120
6.471481 10.012527 -0.100967
6.469864 10.017776 -0.099899
6.456314 10.031967 -0.113785
6.445511 10.055069 -0.115067
6.446274 10.051682 -0.124924
6.448776 10.041336 -0.101395
6.448532 10.034256 -0.105453
6.449478 10.039291 -0.103867
6.447006 10.043350 -0.099777
6.456558 10.032181 -0.101303
6.442795 10.052536 -0.101913
6.463882 10.022202 -0.088608
6.453049 10.028946 -0.063065
6.463028 10.021439 -0.063400
6.464676 10.022934 -0.076279
6.454758 10.030502 -0.075912
6.479111 10.008865 -0.081985
6.473618 10.014481 -0.088943
6.481674 10.005630 -0.088943
6.473648 10.014481 -0.063919
6.482193 10.006058 -0.076523
6.474442 10.015213 -0.076584
6.483932 10.007584 -0.064377
6.470383 10.018082 -0.065659
6.480209 10.029404 -0.075546
6.450790 10.033768 -0.083084
6.446091 10.039047 -0.088272
6.455582 10.031265 -0.088577
6.441086 10.051193 -0.089035
6.443619 10.036697 -0.062790
6.445724 10.038681 -0.075729
6.440750 10.038437 -0.065445
6.438492 10.048752 -0.075943
6.414993 10.076797 -0.113815
6.390152 10.086441 -0.111893
6.378159 10.091965 -0.123581
6.404037 10.083359 -0.113235
6.384384 10.082474 -0.099380
6.386490 10.082932 -0.098557
6.401566 10.081009 -0.100143
6.394577 10.083054 -0.106033
6.429001 10.073563 -0.115158
6.410629 10.072708 -0.100296
6.419510 10.071487 -0.105301
6.423630 10.070633 -0.099686
6.436996 10.064377 -0.102524
6.424149 10.068985 -0.101486
6.425552 10.068039 -0.099411
6.395981 10.077347 -0.085098
6.385056 10.081558 -0.085800
6.399368 10.078873 -0.087173
6.398331 10.068253 -0.064102
6.395248 10.074997 -0.073776
6.382004 10.078690 -0.072647
6.421463 10.063766 -0.084366
6.409561 10.071671 -0.087570
6.421005 10.065994 -0.088303
6.413803 10.062973 -0.065323
6.406326 10.068619 -0.074356
6.439682 10.066910 -0.115677
6.433151 10.043716 -0.049850
6.398758 10.061417 -0.035446
6.399979 10.061813 -0.043259
6.412064 10.057541 -0.048935
6.414627 10.060013 -0.061905
6.425156 10.053238 -0.049942
6.426224 10.054916 -0.060532
6.433273 10.043808 -0.037430
6.409561 10.055252 -0.035995
6.421677 10.050003 -0.036789
6.422409 10.052505 -0.045517
6.425156 10.049149 -0.042618
6.397995 10.014297 -0.015457
6.385391 10.061050 -0.021439
6.401779 10.054733 -0.022385
6.406082 10.051956 -0.022873
6.394760 10.057663 -0.022202
6.378403 10.060898 -0.002151
6.379990 10.060471 -0.008530
6.403610 10.047501 -0.001572
6.404221 10.050186 -0.010086
6.392593 10.055618 -0.009384
6.426529 10.046005 -0.021561
6.425735 10.046432 -0.021896
6.434341 10.044785 -0.025192
6.407852 10.058304 -0.031021
6.420151 10.048538 -0.024033
6.417343 10.045914 -0.011063
6.426956 10.041367 -0.001175
6.432297 10.042923 -0.012375
6.440781 10.034073 -0.049728
6.450699 10.026718 -0.050064
6.452438 10.027176 -0.062302
6.462021 10.020493 -0.050705
6.449875 10.025955 -0.037460
6.452805 10.025223 -0.041702
6.461227 10.019699 -0.038101
6.467758 10.016006 -0.031357
6.471573 10.012589 -0.050980
6.482742 10.006546 -0.051651
6.478775 10.009354 -0.061478
6.469284 10.015701 -0.061386
6.471848 10.012802 -0.038589
6.479507 10.006088 -0.040878
6.481674 10.005539 -0.038925
6.441147 10.034409 -0.037369
6.452591 10.025375 -0.021133
6.450577 10.026596 -0.025131
6.462418 10.020828 -0.025894
6.467606 10.008865 -0.000381
6.450516 10.026505 -0.000290
6.451218 10.027176 -0.012863
6.452591 10.024673 -0.000534
6.457260 10.016068 -0.007217
6.461441 10.019882 -0.013260
6.459427 10.018051 -0.000412
6.469040 10.013351 -0.022293
6.471878 10.012833 -0.026138
6.480331 10.004318 -0.026230
6.470383 10.011429 -0.013382
6.478439 10.002548 -0.013382
6.438644 10.036728 -0.031204
6.442184 10.035385 -0.025101
6.441605 10.034805 -0.000168
6.443802 10.036819 -0.012985
6.388046 10.068130 -0.047348
6.384750 10.073166 -0.060318
6.378494 10.075302 -0.059464
6.400864 10.063400 -0.048264
6.403519 10.065933 -0.061295
6.391068 10.070999 -0.060410
6.385666 10.065872 -0.034439
6.376450 10.073318 -0.046585
6.375778 10.071457 -0.043808
6.382828 10.063187 -0.021469
6.377762 10.063889 -0.022903
6.010971 10.294510 -0.216080
6.018784 10.285507 -0.215744
6.026932 10.277115 -0.215561
6.028091 10.261154 -0.201126
6.093552 10.352310 -0.197250
6.098801 10.358261 -0.186172
6.005539 10.435013 -0.198441
6.036880 10.379868 -0.206802
6.062393 10.390671 -0.211441
6.104019 10.418839 -0.195175
6.107834 10.386520 -0.191147
6.083481 10.424789 -0.197739
6.031845 10.485214 -0.195999
6.026413 10.459854 -0.191788
6.047440 10.466568 -0.195175
6.002823 10.488480 -0.205795
6.018234 10.488480 -0.194901
6.098984 10.470810 -0.189041
6.092728 10.481491 -0.189804
6.093613 10.426712 -0.169724
6.104996 10.458786 -0.175369
6.087631 10.438644 -0.183304
6.107498 10.442734 -0.160751
6.111374 10.466171 -0.164322
6.214188 10.488388 -0.191940
6.241074 10.444077 -0.189194
6.132034 10.413956 -0.172440
6.159622 10.463943 -0.182327
6.141159 10.461441 -0.167068
6.133926 10.254562 -0.114395
6.237350 10.458633 -0.010300
6.279892 10.467545 -0.196884
6.291397 10.480179 -0.186813
6.298050 10.468979 -0.186142
6.865952 10.159714 -0.121719
6.933640 10.144302 -0.250046
6.809250 10.037247 -0.261490
6.793137 10.018784 -0.260910
6.872513 10.037918 -0.280746
6.813217 10.020462 -0.280960
6.832565 10.029343 -0.281052
6.853378 10.028061 -0.280594
6.823044 10.031937 -0.253220
6.831253 10.034439 -0.260941
6.850052 10.042374 -0.260971
6.860214 10.049393 -0.252518
6.869156 10.052628 -0.261154
6.878983 10.009140 -0.299454
6.914230 10.041885 -0.280167
6.891159 10.048935 -0.280960
6.983261 10.003128 -0.297134
6.962662 10.005753 -0.297653
6.980728 10.026505 -0.290787
6.926407 10.081345 -0.281998
6.886978 10.067551 -0.261520
6.906418 10.077774 -0.261703
6.918259 10.119095 -0.263535
6.963760 10.096909 -0.282120
6.945480 10.087173 -0.281937
6.985306 10.092178 -0.281448
6.939743 10.113907 -0.262894
6.895035 10.147141 -0.250381
6.992905 10.162338 -0.264328
6.955124 10.138168 -0.263809
6.974655 10.143784 -0.263748
6.511368 10.049728 -0.203812
6.863937 10.168259 -0.101364
6.810165 10.032608 -0.240829
6.809189 10.036240 -0.220596
6.792587 10.020432 -0.240616
6.792648 10.019638 -0.220169
6.792709 10.018661 -0.199753
6.806076 10.049118 -0.200821
6.848007 10.050827 -0.241013
6.828781 10.044693 -0.241074
6.826645 10.053543 -0.221085
6.824844 10.060928 -0.200943
6.865799 10.067154 -0.241440
6.844864 10.064255 -0.221207
6.861526 10.085922 -0.221878
6.842056 10.076340 -0.201309
6.857681 10.086258 -0.212631
6.858261 10.100082 -0.202042
6.803879 10.058212 -0.180740
6.791000 10.025406 -0.179672
6.790909 10.025009 -0.159286
6.803665 10.058304 -0.160294
6.792130 10.019119 -0.138687
6.804489 10.054184 -0.139694
6.855667 10.111160 -0.181961
6.819748 10.073013 -0.174088
6.823288 10.067215 -0.180801
6.839981 10.085068 -0.181229
6.822098 10.071793 -0.160507
6.838120 10.092697 -0.160995
6.854172 10.117416 -0.161697
6.821396 10.074295 -0.140121
6.819473 10.070267 -0.134933
6.837570 10.094376 -0.140549
6.852463 10.124405 -0.141373
6.876572 10.114273 -0.222885
6.882614 10.087082 -0.242081
6.873032 10.129898 -0.203018
6.870560 10.140488 -0.182907
6.869614 10.144241 -0.162430
6.867813 10.151810 -0.142075
6.854141 10.133347 -0.132980
6.909775 10.158615 -0.244949
6.908035 10.166092 -0.224655
6.930954 10.155380 -0.244461
6.888962 10.158646 -0.245346
6.888687 10.159286 -0.224686
6.927139 10.172958 -0.224625
6.887863 10.162430 -0.204147
6.893600 10.165756 -0.210617
6.904404 10.182510 -0.204727
6.924942 10.182632 -0.204422
6.945511 10.184006 -0.245560
6.934494 10.236740 -0.227341
6.929855 10.208633 -0.209366
6.954910 10.239914 -0.248001
6.971848 10.197800 -0.248703
6.981552 10.217972 -0.246506
6.886520 10.167862 -0.183731
6.884964 10.174515 -0.163315
6.804825 10.051926 -0.119186
6.805405 10.048660 -0.098618
6.806076 10.045120 -0.078110
6.835831 10.101517 -0.120285
6.821487 10.073227 -0.119614
6.820755 10.075607 -0.099197
6.818832 10.073990 -0.095627
6.834518 10.106735 -0.099930
6.817886 10.087662 -0.079086
6.833206 10.111984 -0.079544
6.807083 10.040085 -0.057571
6.807480 10.037552 -0.037125
6.807693 10.035965 -0.016708
6.815720 10.096695 -0.058853
6.817276 10.092484 -0.055862
6.816544 10.092392 -0.038223
6.832870 10.112839 -0.059006
6.833176 10.110855 -0.038406
6.817642 10.086899 -0.017624
6.817337 10.084854 -0.016830
6.833389 10.109268 -0.017838
6.849930 10.135330 -0.121170
6.849380 10.137222 -0.100632
6.849167 10.137405 -0.080032
6.853165 10.143143 -0.093369
6.862930 10.172256 -0.080795
6.848892 10.137955 -0.059433
6.852768 10.142685 -0.053970
6.849136 10.136093 -0.038773
6.848099 10.140060 -0.018265
6.852066 10.147415 -0.014420
6.922562 10.293716 -0.209091
6.971573 10.267014 -0.228104
6.951981 10.253586 -0.227829
6.948380 10.270462 -0.207718
6.967758 10.272415 -0.207657
6.971542 10.266342 -0.207169
6.983994 10.418716 -0.192154
6.988449 10.395218 -0.169968
6.997269 10.457474 -0.150833
6.976547 10.454422 -0.129654
6.368210 10.682114 -0.086685
6.041824 10.516769 -0.188858
6.031296 10.522842 -0.188522
6.005203 10.511002 -0.196609
6.021408 10.510880 -0.198441
6.121933 10.554520 -0.190323
6.111801 10.522507 -0.159073
6.098373 10.603683 -0.181412
6.093674 10.618210 -0.182877
6.073257 10.613968 -0.167099
6.113663 10.602921 -0.182999
6.095474 10.620438 -0.170364
6.121964 10.612900 -0.139114
6.130875 10.544785 -0.189987
6.136185 10.532242 -0.188858
6.150803 10.607437 -0.187729
6.141434 10.596298 -0.198227
6.156723 10.538010 -0.179031
6.138351 10.516617 -0.186996
6.227646 10.560440 -0.176926
6.217361 10.529678 -0.184769
6.229538 10.524460 -0.185471
6.243576 10.559555 -0.178574
6.139236 10.613327 -0.187210
6.153915 10.592300 -0.185989
6.174088 10.576584 -0.186142
6.167221 10.587509 -0.186844
6.239670 10.594803 -0.182755
6.203598 10.592484 -0.178421
6.220810 10.592758 -0.180374
6.220352 10.592270 -0.167099
6.231003 10.584885 -0.167343
6.212814 10.603256 -0.167740
6.205307 10.613113 -0.168167
6.218460 10.590103 -0.153488
6.229294 10.582962 -0.153702
6.215103 10.605972 -0.155167
6.163864 10.685593 -0.171066
6.137955 10.632065 -0.176529
6.216873 10.685898 -0.178940
6.205276 10.653000 -0.173355
6.209915 10.637680 -0.171860
6.224197 10.635239 -0.159866
6.219009 10.648361 -0.160995
6.173080 10.693741 -0.175308
6.232315 10.724625 -0.172226
6.208664 10.696152 -0.179428
6.209976 10.704788 -0.171616
6.231369 10.703110 -0.169357
6.247086 10.702347 -0.170944
6.218582 10.728714 -0.171341
6.228775 10.740982 -0.160568
6.373856 10.749405 -0.122116
6.291794 10.538162 -0.194443
6.264908 10.545517 -0.192307
6.267471 10.529800 -0.190536
6.365250 10.542496 -0.190201
6.345627 10.559677 -0.190140
6.356125 10.551346 -0.190292
6.306686 10.554794 -0.185104
6.320999 10.551071 -0.186234
6.311630 10.598282 -0.177963
6.273514 10.574539 -0.183914
6.296585 10.562515 -0.184921
6.286819 10.570297 -0.184860
6.289749 10.593002 -0.174850
6.263046 10.600967 -0.172928
6.350174 10.603378 -0.169510
6.328384 10.579056 -0.177353
6.317581 10.586075 -0.163742
6.359329 10.574844 -0.180313
6.345749 10.578568 -0.179245
6.364548 10.599503 -0.170609
6.381332 10.541641 -0.191940
6.418350 10.600632 -0.176712
6.393143 10.592300 -0.186325
6.400864 10.581436 -0.185837
6.409500 10.572342 -0.185684
6.433151 10.578598 -0.175644
6.384567 10.602737 -0.173233
6.401962 10.602005 -0.175064
6.403854 10.624100 -0.164536
6.434677 10.600021 -0.178482
6.474594 10.623489 -0.172226
6.464310 10.593491 -0.140335
6.307327 10.632187 -0.181839
6.257187 10.656967 -0.140335
6.343307 10.633987 -0.172623
6.335464 10.644760 -0.173111
6.313370 10.639114 -0.169968
6.355240 10.748306 -0.174728
6.334946 10.704514 -0.167068
6.320602 10.747849 -0.171005
6.427109 10.669022 -0.158951
6.402695 10.662064 -0.169083
6.376328 10.652023 -0.164963
6.428909 10.631668 -0.168198
6.413193 10.653549 -0.169174
6.390244 10.686935 -0.170792
6.424423 10.666092 -0.131119
6.420792 10.682358 -0.132645
6.481552 10.669785 -0.164902
6.442245 10.626816 -0.169052
6.495285 10.645889 -0.163528
6.492844 10.663406 -0.165359
6.469131 10.675919 -0.164291
6.485947 10.655960 -0.136337
6.443222 10.667648 -0.133255
6.495499 10.685074 -0.154465
6.473587 10.661148 -0.135666
6.432083 10.734116 -0.167404
6.393661 10.710739 -0.174118
6.387772 10.723862 -0.175125
6.408646 10.747665 -0.166580
6.423508 10.744583 -0.167770
6.428543 10.710648 -0.150467
6.411789 10.691910 -0.132828
6.441147 10.724747 -0.167221
6.467545 10.694504 -0.166367
6.454422 10.699387 -0.151840
6.465958 10.692734 -0.152267
6.481461 10.689499 -0.153519
6.394211 10.518112 -0.070969
6.445969 10.535843 -0.078110
6.488571 10.562180 -0.018051
6.429337 10.574966 -0.027237
6.480637 10.572891 -0.031815
6.469070 10.579269 -0.044846
6.448380 10.576553 -0.029160
6.464157 10.574051 -0.030380
6.438461 10.565872 -0.013809
6.455032 10.564285 -0.015152
6.477097 10.569168 -0.017685
6.374313 10.708786 -0.090286
6.374893 10.650681 -0.056900
6.416794 10.657669 -0.115768
6.415848 10.676834 -0.117874
6.425858 10.648575 -0.115646
6.403824 10.683029 -0.103806
6.409531 10.669846 -0.102890
6.423935 10.665665 -0.103836
6.389145 10.685989 -0.075607
6.475571 10.644699 -0.120316
6.457840 10.643936 -0.118393
6.493973 10.644821 -0.122208
6.377213 10.731888 -0.106766
6.392532 10.701035 -0.110214
6.403702 10.702255 -0.119614
6.397354 10.695145 -0.104538
6.409195 10.689041 -0.118607
6.392471 10.689682 -0.089890
6.378372 10.693710 -0.075424
6.281235 10.782974 -0.171341
6.295914 10.779678 -0.172470
6.288742 10.751511 -0.168137
6.291061 10.773941 -0.157639
6.305222 10.771042 -0.158707
6.261520 10.780258 -0.155380
6.273331 10.773636 -0.155777
6.350723 10.783005 -0.164902
6.343735 10.755478 -0.174423
6.323898 10.771530 -0.174362
6.368423 10.784225 -0.166885
6.347244 10.798965 -0.166519
6.364822 10.780106 -0.152267
6.373276 10.769272 -0.138107
6.320358 10.808731 -0.151260
6.353195 10.785965 -0.151779
6.348373 10.800339 -0.153061
6.373398 10.790115 -0.140610
6.430252 10.792435 -0.160507
6.422409 10.805191 -0.161240
6.394424 10.751389 -0.165543
6.381180 10.778336 -0.167465
6.388535 10.766220 -0.166763
6.434525 10.777115 -0.159073
6.395157 10.794540 -0.157150
6.409531 10.790421 -0.144302
6.456009 10.781479 -0.161850
6.440872 10.804611 -0.149155
6.498917 10.809555 -0.155716
6.400467 10.861496 -0.151932
6.487839 10.817520 -0.155502
6.468307 10.815628 -0.153275
6.841721 10.681656 -0.116898
6.513901 10.646957 -0.124527
6.526535 10.679764 -0.157150
6.503860 10.636063 -0.176987
6.522354 10.656113 -0.140182
6.549088 10.645798 -0.128067
6.509537 10.681564 -0.155563
6.509781 10.661667 -0.139511
6.574692 10.692337 -0.163834
6.543533 10.561539 -0.034225
6.505661 10.561172 -0.019516
6.512100 10.549057 -0.005478
6.503952 10.597763 -0.050095
6.500107 10.574417 -0.033798
6.520035 10.576340 -0.035873
6.520309 10.595840 -0.051437
6.542923 10.650711 -0.070053
6.597000 10.677231 -0.081100
6.581650 10.680649 -0.079971
6.558670 10.695297 -0.093124
6.587936 10.706619 -0.097214
6.641647 10.731308 -0.107193
6.873032 10.535629 -0.162766
6.845718 10.559464 -0.156509
6.812271 10.616531 -0.180801
6.844864 10.562943 -0.134964
6.822189 10.568314 -0.135483
6.915970 10.542068 -0.198074
6.889114 10.560501 -0.199203
6.916489 10.537125 -0.133163
6.875076 10.521591 -0.154800
6.894760 10.531235 -0.154831
6.902145 10.609299 -0.157425
6.883377 10.587845 -0.178665
6.907181 10.584885 -0.178207
6.781906 10.654312 -0.138840
6.850204 10.642838 -0.181198
6.836960 10.705429 -0.139694
6.796036 10.587540 -0.114731
6.791855 10.606430 -0.093552
6.814438 10.604141 -0.114975
6.785294 10.527237 -0.005081
6.807297 10.531235 -0.004929
6.908951 10.572403 -0.069443
6.849869 10.639999 -0.050003
6.913559 10.661636 -0.115341
6.601242 10.761032 -0.132523
6.586258 10.765182 -0.131454
7.055069 10.060165 -0.298965
7.118637 10.007797 -0.293533
7.124008 10.016281 -0.275131
7.032913 10.067001 -0.279312
7.008347 10.086197 -0.280746
7.049301 10.088882 -0.280167
7.072495 10.073380 -0.278976
7.172836 10.061081 -0.288284
7.136002 10.004654 -0.281876
7.134171 10.003281 -0.295334
7.130356 10.016800 -0.282364
7.132339 10.001816 -0.267105
7.145737 10.006973 -0.274277
7.144730 10.086472 -0.295731
7.130661 10.122452 -0.265091
7.178177 10.162277 -0.261307
7.144211 10.125565 -0.280472
7.162735 10.130417 -0.280441
7.184921 10.125137 -0.279800
7.157974 10.155991 -0.261307
7.205551 10.134293 -0.279953
7.206345 10.129135 -0.259232
7.225082 10.139481 -0.279892
7.245590 10.140488 -0.279617
7.249344 10.144547 -0.270737
7.225571 10.136002 -0.259262
7.245804 10.138596 -0.259079
7.202072 10.167404 -0.266769
7.254593 10.130447 -0.269974
7.005478 10.416458 -0.191757
7.006821 10.408646 -0.170181
7.000717 10.386490 -0.164993
8.371902 10.219406 15.841415
8.399002 10.237228 15.812149
6.482651 9.920639 3.381638
6.487625 9.909531 3.379593
6.374466 9.997330 1.432541
6.476700 9.936325 0.383835
6.488754 9.930466 0.383499
6.437210 9.997513 0.151474
6.487961 9.979294 0.012680
6.496658 9.970596 0.012558
6.474747 9.999191 0.012161
6.480606 9.988174 0.012589
6.484756 9.985367 0.000534
6.487167 9.978561 0.025192
6.486435 9.978531 0.021103
6.497269 9.971146 0.024826
6.472702 9.997299 0.024948
6.478928 9.986649 0.025314
6.490372 9.948959 0.039932
6.489914 9.964432 0.062149
6.493393 9.967636 0.050278
6.467300 9.992386 0.050705
6.483109 9.978043 0.044327
6.469528 9.978104 0.039413
6.487442 9.974167 0.041611
6.471237 9.995987 0.037643
6.470200 9.988632 0.055069
6.477676 9.985428 0.050308
6.425278 9.997971 0.104019
6.475815 9.983749 0.075333
6.491135 9.965561 0.075394
6.490982 9.965469 0.063095
6.496689 9.954514 0.088120
6.491074 9.959518 0.082565
6.457779 9.999832 0.075668
6.467484 9.992538 0.063034
6.460129 9.994614 0.081985
6.480026 9.973312 0.074203
6.482010 9.973831 0.075607
6.483688 9.975388 0.062943
6.474686 9.999069 0.074142
6.495255 9.969254 0.087051
6.490311 9.996841 0.085220
6.492111 9.955002 0.102951
6.493088 9.950821 0.123337
6.493607 9.951736 0.113266
