-4.34149981 2.84750009 12.46450043 255 255 255 -1263.000000
-4.35909986 2.86129999 12.44859982 255 255 255 -1167.000000
-4.39130020 2.89159989 12.41189957 255 255 255 -847.000000
-4.60890007 3.35870004 11.77420044 255 255 255 -559.000000
-3.98690009 5.21500015 8.73560047 255 255 255 97.000000
-5.20370007 3.57719994 11.70479965 255 255 255 -1231.000000
-5.20609999 3.61999989 11.64319992 255 255 255 -1103.000000
-5.20419979 3.59870005 11.72290039 255 255 255 -1215.000000
-5.20779991 3.63689995 11.66860008 255 255 255 -1135.000000
-5.21460009 3.66709995 11.62759972 255 255 255 -1103.000000
-5.23829985 3.70860004 11.57849979 255 255 255 -1135.000000
-5.24879980 3.73189998 11.54979992 255 255 255 -1071.000000
-5.26370001 3.74600005 11.53680038 255 255 255 -1183.000000
-5.28039980 3.75320005 11.53479958 255 255 255 -943.000000
-5.29899979 3.75799990 11.53750038 255 255 255 -1247.000000
-5.31949997 3.75939989 11.54609966 255 255 255 -1135.000000
-5.35799980 3.76519990 11.55790043 255 255 255 -1519.000000
-5.38079977 3.76250005 11.57400036 255 255 255 -1503.000000
-5.40570021 3.75379992 11.59990025 255 255 255 -1295.000000
-5.43100023 3.74589992 11.62500000 255 255 255 -1055.000000
-6.31110001 3.20050001 12.91759968 255 255 255 -879.000000
-6.32849979 3.21190000 12.91250038 255 255 255 -847.000000
-6.35080004 3.21530008 12.92179966 255 255 255 -959.000000
-2.42269993 4.59019995 9.39620018 255 255 255 -863.000000
-4.32579994 2.82069993 12.43249989 255 255 255 -1263.000000
-4.33939981 2.84389997 12.40120029 255 255 255 -1503.000000
-4.35349989 2.86969995 12.36590004 255 255 255 -1615.000000
-4.36800003 2.89059997 12.33829975 255 255 255 -1679.000000
-4.38250017 2.91050005 12.31229973 255 255 255 -1471.000000
-4.39900017 2.92630005 12.29339981 255 255 255 -1423.000000
-4.41419983 2.94460011 12.27009964 255 255 255 -1295.000000
-4.61719990 3.32610011 11.76179981 255 255 255 -1311.000000
-3.97839999 5.18909979 8.72309971 255 255 255 1.000000
-5.20100021 3.57610011 11.64109993 255 255 255 -1295.000000
-5.20219994 3.62159991 11.57530022 255 255 255 -959.000000
-5.20100021 3.59890008 11.65670013 255 255 255 -1215.000000
-5.20330000 3.64019990 11.59749985 255 255 255 -1007.000000
-5.20699978 3.67700005 11.54559994 255 255 255 -1055.000000
-5.21560001 3.70539999 11.50829983 255 255 255 -767.000000
-5.24480009 3.73390007 11.48159981 255 255 255 -959.000000
-5.26149988 3.74410009 11.47519970 255 255 255 -799.000000
-5.27829981 3.75119996 11.47350025 255 255 255 -1023.000000
-5.29570007 3.75819993 11.47220039 255 255 255 -1071.000000
-5.31489992 3.76259995 11.47589970 255 255 255 -1231.000000
-5.33419991 3.76440001 11.48320007 255 255 255 -1007.000000
-5.35309982 3.76889992 11.48670006 255 255 255 -1167.000000
-5.39849997 3.76230001 11.52029991 255 255 255 -1279.000000
-6.27440023 3.17199993 12.86419964 255 255 255 -1215.000000
-6.28950024 3.19020009 12.84799957 255 255 255 -575.000000
-6.30900002 3.19790006 12.84939957 255 255 255 -575.000000
-6.33260012 3.19840002 12.86340046 255 255 255 -767.000000
-6.35669994 3.19880009 12.87810040 255 255 255 -991.000000
-4.35860014 2.84190011 12.34200001 255 255 255 -1103.000000
-4.37230015 2.86590004 12.30970001 255 255 255 -1327.000000
-4.38450003 2.89350009 12.27140045 255 255 255 -1551.000000
-4.39569998 2.92689991 12.22420025 255 255 255 -1535.000000
-4.40999985 2.94799995 12.19670010 255 255 255 -1343.000000
-4.42539978 2.96539998 12.17510033 255 255 255 -1727.000000
-4.44199991 2.98140001 12.15610027 255 255 255 -1487.000000
-4.45739985 2.99799991 12.13589954 255 255 255 -1455.000000
-5.19910002 3.57319999 11.58090019 255 255 255 -1295.000000
-5.19589996 3.62849998 11.49919987 255 255 255 -895.000000
-5.19880009 3.59680009 11.59500027 255 255 255 -1231.000000
-5.19799995 3.64510012 11.52429962 255 255 255 -1071.000000
-5.20289993 3.67939997 11.47690010 255 255 255 -975.000000
-5.21509981 3.69989991 11.45320034 255 255 255 -735.000000
-5.24569988 3.72530007 11.43169975 255 255 255 -623.000000
-5.26310015 3.73420000 11.42759991 255 255 255 -623.000000
-5.27829981 3.74480009 11.42000008 255 255 255 -687.000000
-5.29540014 3.75250006 11.41759968 255 255 255 -959.000000
-5.31430006 3.75729990 11.42039967 255 255 255 -1055.000000
-5.33139992 3.76379991 11.42000008 255 255 255 -767.000000
-5.35230017 3.76430011 11.43010044 255 255 255 -895.000000
-5.37500000 3.76169991 11.44579983 255 255 255 -847.000000
-5.44789982 3.74320006 11.51109982 255 255 255 -1167.000000
-6.23899984 3.18630004 12.75259972 255 255 255 -1999.000000
-6.26350021 3.18499994 12.76930046 255 255 255 -959.000000
-6.28789997 3.18659997 12.78219986 255 255 255 -591.000000
-6.30970001 3.19029999 12.79049969 255 255 255 -815.000000
-6.33589983 3.18639994 12.81219959 255 255 255 -671.000000
-6.36969995 3.17000008 12.85599995 255 255 255 -1007.000000
-6.39849997 3.16109991 12.88640022 255 255 255 -1199.000000
-3.96180010 5.13619995 8.70020008 255 255 255 -287.000000
-4.65049982 3.27449989 11.72280025 255 255 255 -271.000000
-5.19640017 3.57209992 11.51840019 255 255 255 -1247.000000
-5.19519997 3.62299991 11.44439983 255 255 255 -1151.000000
-5.19610023 3.59599996 11.53160000 255 255 255 -1183.000000
-5.19600010 3.64269996 11.46399975 255 255 255 -1087.000000
-5.20270014 3.67319989 11.42310047 255 255 255 -735.000000
-5.21610022 3.69099998 11.40400028 255 255 255 -543.000000
-5.24660015 3.71679997 11.38199997 255 255 255 -703.000000
-5.26410007 3.72539997 11.37839985 255 255 255 -687.000000
-5.27930021 3.73609996 11.37069988 255 255 255 -895.000000
-5.29570007 3.74530005 11.36579990 255 255 255 -943.000000
-5.31330013 3.75300002 11.36369991 255 255 255 -1007.000000
-5.33179998 3.75659990 11.36810017 255 255 255 -783.000000
-5.35279989 3.75679994 11.37880039 255 255 255 -1279.000000
-5.37470007 3.75600004 11.39130020 255 255 255 -975.000000
-5.48260021 3.66639996 11.57629967 255 255 255 -1791.000000
-6.17579985 3.20700002 12.61639977 255 255 255 -1151.000000
-6.20079994 3.20589995 12.63309956 255 255 255 -927.000000
-6.22919989 3.19749999 12.66189957 255 255 255 -863.000000
-6.25600004 3.19190001 12.68589973 255 255 255 -655.000000
-6.29260015 3.17219996 12.73550034 255 255 255 -895.000000
-6.31220007 3.17969990 12.73719978 255 255 255 -719.000000
-6.34779978 3.15949988 12.78699970 255 255 255 -623.000000
-6.38409996 3.13890004 12.83810043 255 255 255 -959.000000
-6.41510010 3.12639999 12.87450027 255 255 255 -1359.000000
-4.65649986 3.24880004 11.69929981 255 255 255 -591.000000
-5.18860006 3.58279991 11.43680000 255 255 255 -1007.000000
-5.19439983 3.61800003 11.38899994 255 255 255 -1087.000000
-5.18889999 3.60549998 11.45160007 255 255 255 -895.000000
-5.19399977 3.64059997 11.40349960 255 255 255 -1039.000000
-5.20319986 3.66529989 11.37250042 255 255 255 -831.000000
-5.21549988 3.68580008 11.34899998 255 255 255 -559.000000
-5.24809980 3.70689988 11.33489990 255 255 255 -1007.000000
-5.26380014 3.71959996 11.32450008 255 255 255 -863.000000
-5.27869987 3.73070002 11.31610012 255 255 255 -847.000000
-5.29600000 3.73830009 11.31410027 255 255 255 -847.000000
-5.31300020 3.74729991 11.30990028 255 255 255 -671.000000
-5.33090019 3.75219989 11.31210041 255 255 255 -1215.000000
-5.35160017 3.75289989 11.32180023 255 255 255 -1247.000000
-5.37349987 3.75200009 11.33430004 255 255 255 -1071.000000
-5.42089987 3.74110007 11.37469959 255 255 255 -1087.000000
-6.12130022 3.21420002 12.50580025 255 255 255 -879.000000
-6.14279985 3.21740007 12.51410007 255 255 255 -783.000000
-6.16809988 3.21460009 12.53289986 255 255 255 -879.000000
-6.20200014 3.19749999 12.57689953 255 255 255 -1087.000000
-6.23670006 3.17790008 12.62469959 255 255 255 -1247.000000
-6.26900005 3.16269994 12.66520023 255 255 255 -575.000000
-6.31659985 3.12360001 12.74790001 255 255 255 -943.000000
-6.32740021 3.14689994 12.72259998 255 255 255 -559.000000
-4.49940014 3.03299999 11.90040016 255 255 255 -1055.000000
-4.66160011 3.22589993 11.67129993 255 255 255 -879.000000
-5.19189978 3.56820011 11.39719963 255 255 255 -847.000000
-5.19540024 3.60879993 11.34099960 255 255 255 -1039.000000
-5.19059992 3.59489989 11.40530014 255 255 255 -943.000000
-5.19540024 3.63080001 11.35630035 255 255 255 -1055.000000
-5.20260000 3.66009998 11.31779957 255 255 255 -735.000000
-5.21530008 3.67960000 11.29609966 255 255 255 -735.000000
-5.23159981 3.69000006 11.28919983 255 255 255 -1007.000000
-5.24930000 3.69790006 11.28670025 255 255 255 -1231.000000
-5.26149988 3.71799994 11.26410007 255 255 255 -735.000000
-5.27780008 3.72639990 11.26029968 255 255 255 -687.000000
-5.29479980 3.73449993 11.25730038 255 255 255 -831.000000
-5.31180000 3.74349999 11.25319958 255 255 255 -543.000000
-5.32950020 3.74880004 11.25469971 255 255 255 -575.000000
-5.35020018 3.74950004 11.26420021 255 255 255 -1135.000000
-5.37080002 3.75149989 11.27210045 255 255 255 -1311.000000
-5.39489985 3.74440002 11.29459953 255 255 255 -1711.000000
-5.41820002 3.74040008 11.31250000 255 255 255 -1343.000000
-5.44549990 3.72919989 11.34270000 255 255 255 -1183.000000
-6.11819983 3.21350002 12.43719959 255 255 255 -847.000000
-6.14470005 3.20760012 12.46090031 255 255 255 -655.000000
-6.17659998 3.19300008 12.49989986 255 255 255 -1071.000000
-6.20889997 3.17880011 12.53859997 255 255 255 -2047.000000
-4.52059984 3.02169991 11.85949993 255 255 255 -1711.000000
-4.53130007 3.05360007 11.81599998 255 255 255 -1327.000000
-4.54239988 3.08260012 11.77690029 255 255 255 -1695.000000
-5.19409990 3.55629992 11.35350037 255 255 255 -1151.000000
-5.19589996 3.60080004 11.29129982 255 255 255 -895.000000
-5.19220018 3.58459997 11.35890007 255 255 255 -1135.000000
-5.19519997 3.62450004 11.30350018 255 255 255 -911.000000
-5.20230007 3.65420008 11.26459980 255 255 255 -927.000000
-5.21519995 3.67350006 11.24349976 255 255 255 -783.000000
-5.22849989 3.69029999 11.22609997 255 255 255 -1039.000000
-5.24669981 3.69720006 11.22519970 255 255 255 -1423.000000
-5.26020002 3.71449995 11.20740032 255 255 255 -831.000000
-5.27640009 3.72300005 11.20330048 255 255 255 -959.000000
-5.29360008 3.73060012 11.20129967 255 255 255 -1087.000000
-5.31029987 3.74029994 11.19600010 255 255 255 -975.000000
-5.32819986 3.74499989 11.19830036 255 255 255 -975.000000
-5.34700012 3.75000000 11.20090008 255 255 255 -1103.000000
-5.39010000 3.74819994 11.22560024 255 255 255 -1327.000000
-5.41400003 3.74270010 11.24580002 255 255 255 -799.000000
-5.44320011 3.72770000 11.28219986 255 255 255 -879.000000
-6.09180021 3.21029997 12.35900021 255 255 255 -879.000000
-6.12559986 3.19379997 12.40130043 255 255 255 -1599.000000
-5.19180012 3.55450010 11.29380035 255 255 255 -1183.000000
-5.19399977 3.59809995 11.23330021 255 255 255 -831.000000
-5.19320011 3.57570004 11.31050014 255 255 255 -1023.000000
-5.19509983 3.61829996 11.25100040 255 255 255 -959.000000
-5.20249987 3.64709997 11.21380043 255 255 255 -831.000000
-5.21379995 3.67000008 11.18680000 255 255 255 -847.000000
-5.22809982 3.68460011 11.17310047 255 255 255 -1327.000000
-5.24179983 3.70129991 11.15620041 255 255 255 -847.000000
-5.25899982 3.71070004 11.15139961 255 255 255 -767.000000
-5.27320004 3.72340012 11.14060020 255 255 255 -927.000000
-5.29129982 3.72919989 11.14140034 255 255 255 -911.000000
-5.30919981 3.73629999 11.14039993 255 255 255 -1039.000000
-5.32550001 3.74449992 11.13710022 255 255 255 -959.000000
-5.36560011 3.74970007 11.15019989 255 255 255 -1247.000000
-5.38749981 3.74729991 11.16479969 255 255 255 -1103.000000
-5.41050005 3.74370003 11.18179989 255 255 255 -1039.000000
-5.82200003 3.27419996 12.05309963 255 255 255 -1455.000000
-5.19150019 3.54830003 11.24160004 255 255 255 -1183.000000
-5.19119978 3.59780002 11.17189980 255 255 255 -879.000000
-5.19040012 3.57540011 11.24849987 255 255 255 -1087.000000
-5.19379997 3.61439991 11.19509983 255 255 255 -735.000000
-5.20170021 3.64249992 11.15929985 255 255 255 -895.000000
-5.21409988 3.66289997 11.13650036 255 255 255 -863.000000
-5.24049997 3.69770002 11.10029984 255 255 255 -655.000000
-5.25629997 3.71009994 11.09070015 255 255 255 -783.000000
-5.27089977 3.72219992 11.08090019 255 255 255 -879.000000
-5.28779984 3.73029995 11.07789993 255 255 255 -975.000000
-5.30609989 3.73670006 11.07810020 255 255 255 -1039.000000
-5.34180021 3.74839997 11.07970047 255 255 255 -1007.000000
-5.36339998 3.74819994 11.09099960 255 255 255 -1231.000000
-5.37970018 3.75740004 11.08650017 255 255 255 -1215.000000
-5.43370008 3.73469996 11.14579964 255 255 255 -1311.000000
-5.77379990 3.27230000 11.96490002 255 255 255 -1151.000000
-5.79390001 3.27839994 11.96710014 255 255 255 -1055.000000
-5.81479979 3.28200006 11.97360039 255 255 255 -1103.000000
-5.83739996 3.28230000 11.98530006 255 255 255 -1439.000000
-4.70979977 3.28909993 11.34780025 255 255 255 -1023.000000
-4.72770023 3.29430008 11.34700012 255 255 255 -1391.000000
-4.74259996 3.31200004 11.32719994 255 255 255 -847.000000
-4.75939989 3.32189989 11.31929970 255 255 255 -735.000000
-4.77530003 3.33279991 11.30990028 255 255 255 -847.000000
-4.80550003 3.36409998 11.27670002 255 255 255 -895.000000
-5.18540001 3.55539989 11.16849995 255 255 255 -1199.000000
-5.18839979 3.59719992 11.11139965 255 255 255 -1151.000000
-5.18690014 3.57680011 11.18420029 255 255 255 -1183.000000
-5.19129992 3.61369991 11.13449955 255 255 255 -1103.000000
-5.20050001 3.63870001 11.10389996 255 255 255 -975.000000
-5.21309996 3.65869999 11.08180046 255 255 255 -943.000000
-5.11380005 3.92240000 10.66569996 255 255 255 -1199.000000
-5.23869991 3.69540000 11.04269981 255 255 255 -1055.000000
-5.25339985 3.71020007 11.02929974 255 255 255 -1023.000000
-5.26819992 3.72169995 11.02050018 255 255 255 -911.000000
-5.28369999 3.73300004 11.01239967 255 255 255 -1151.000000
-5.28789997 3.76909995 10.96430016 255 255 255 -1327.000000
-5.40110016 3.75099993 11.04650021 255 255 255 -1215.000000
-5.42829990 3.73970008 11.07610035 255 255 255 -975.000000
-5.75530005 3.25810003 11.90999985 255 255 255 -1167.000000
-5.76830006 3.27670002 11.89150047 255 255 255 -1007.000000
-5.78690004 3.28570008 11.88899994 255 255 255 -879.000000
-5.81230021 3.28060007 11.90970039 255 255 255 -863.000000
-5.83990002 3.27110004 11.93760014 255 255 255 -1007.000000
-4.74079990 3.30890012 11.27009964 255 255 255 -1135.000000
-4.76039982 3.31119990 11.27420044 255 255 255 -975.000000
-4.77570009 3.32389998 11.26189995 255 255 255 -1167.000000
-4.79139996 3.33780003 11.24810028 255 255 255 -1519.000000
-4.80670023 3.35310006 11.23229980 255 255 255 -1231.000000
-4.82289982 3.36459994 11.22229958 255 255 255 -1119.000000
-4.83249998 3.39330006 11.18529987 255 255 255 -991.000000
-4.88969994 3.40619993 11.18999958 255 255 255 -1599.000000
-5.17899990 3.56310010 11.09480000 255 255 255 -1151.000000
-5.18639994 3.59500003 11.05399990 255 255 255 -911.000000
-5.17999983 3.58559990 11.10849953 255 255 255 -1263.000000
-5.18569994 3.61969995 11.06350040 255 255 255 -1039.000000
-5.19740009 3.63899994 11.04220009 255 255 255 -1103.000000
-5.21029997 3.65840006 11.02120018 255 255 255 -1007.000000
-5.12169981 3.89899993 10.64449978 255 255 255 -623.000000
-5.23600006 3.69490004 10.98279953 255 255 255 -1103.000000
-4.88649988 3.40700006 11.12749958 255 255 255 -1823.000000
-4.92080021 3.42479992 11.11639977 255 255 255 -1247.000000
-5.42170000 3.74119997 10.95189953 255 255 255 -1087.000000
-5.45440006 3.71709991 11.00150013 255 255 255 -1791.000000
-5.74590015 3.30859995 11.70919991 255 255 255 -527.000000
-3.88529992 4.84049988 8.68050003 255 255 255 401.000000
-5.13490009 3.60330009 10.90110016 255 255 255 -847.000000
-5.14949989 3.61640000 10.88969994 255 255 255 -799.000000
-5.16629982 3.62700009 10.88280010 255 255 255 -1055.000000
-5.14340019 3.60739994 10.94250011 255 255 255 -783.000000
-5.15689993 3.62490010 10.92459965 255 255 255 -767.000000
-5.17080021 3.64030004 10.90979958 255 255 255 -991.000000
-5.18489981 3.65420008 10.89700031 255 255 255 -991.000000
-5.23129988 3.69269991 10.86590004 255 255 255 -1135.000000
-5.24650002 3.70639992 10.85429955 255 255 255 -1055.000000
-5.25850010 3.72399998 10.83590031 255 255 255 -1311.000000
-5.30450010 3.75830007 10.81140041 255 255 255 -1407.000000
-5.31890011 3.77230000 10.79940033 255 255 255 -1423.000000
-5.33729982 3.77839994 10.80010033 255 255 255 -1247.000000
-5.35360003 3.78730011 10.79619980 255 255 255 -847.000000
-5.37419987 3.78839993 10.80500031 255 255 255 -1087.000000
-5.39449978 3.79110003 10.81159973 255 255 255 -1119.000000
-5.41489983 3.79139996 10.82159996 255 255 255 -1103.000000
-5.69890022 3.35179996 11.56350040 255 255 255 -1327.000000
-5.73920012 3.31570005 11.63339996 255 255 255 -1087.000000
-3.89100003 4.81559992 8.67090034 255 255 255 161.000000
-5.09989977 3.58039999 10.85869980 255 255 255 -1151.000000
-5.11409998 3.59649992 10.84290028 255 255 255 -719.000000
-5.12909985 3.60999990 10.83110046 255 255 255 -991.000000
-5.14179993 3.62750006 10.81299973 255 255 255 -991.000000
-5.15670013 3.64199996 10.79990005 255 255 255 -927.000000
-5.09280014 3.57419991 10.90709972 255 255 255 -847.000000
-5.10349989 3.59840012 10.87829971 255 255 255 -943.000000
-5.11730003 3.61389995 10.86330032 255 255 255 -815.000000
-5.12989998 3.63170004 10.84430027 255 255 255 -831.000000
-5.14569998 3.64380002 10.83500004 255 255 255 -815.000000
-5.16209984 3.65339994 10.82919979 255 255 255 -1023.000000
-5.17799997 3.66319990 10.82310009 255 255 255 -1215.000000
-5.28249979 3.75629997 10.74549961 255 255 255 -1423.000000
-5.30009985 3.76169991 10.74680042 255 255 255 -1119.000000
-5.31729984 3.76970005 10.74429989 255 255 255 -1055.000000
-5.33540010 3.77640009 10.74409962 255 255 255 -1183.000000
-5.35190010 3.78480005 10.74090004 255 255 255 -847.000000
-5.37169981 3.78769994 10.74689960 255 255 255 -767.000000
-5.39230013 3.78959990 10.75469971 255 255 255 -991.000000
-5.41429996 3.78699994 10.76930046 255 255 255 -1039.000000
-5.43020010 3.79649997 10.76459980 255 255 255 -671.000000
-5.45959997 3.78180003 10.79950047 255 255 255 -1071.000000
-5.71210003 3.31929994 11.55230045 255 255 255 -607.000000
-5.75110006 3.28600001 11.61740017 255 255 255 -639.000000
-5.78350019 3.26760006 11.65890026 255 255 255 -1071.000000
-3.88360000 4.78009987 8.67240047 255 255 255 -2047.000000
-3.89720011 4.78900003 8.66390038 255 255 255 -95.000000
-4.93510008 3.36700010 11.02490044 255 255 255 -1311.000000
-4.94280005 3.40179992 10.97990036 255 255 255 -863.000000
-4.99410009 3.48130012 10.89140034 255 255 255 -895.000000
-5.12290001 3.61759996 10.76029968 255 255 255 -1391.000000
-5.08400011 3.58789992 10.82600021 255 255 255 -1599.000000
-5.09910011 3.60190010 10.81340027 255 255 255 -1103.000000
-5.11469984 3.61339998 10.80469990 255 255 255 -1135.000000
-5.12849998 3.62840009 10.79030037 255 255 255 -1167.000000
-5.14319992 3.64310002 10.77680016 255 255 255 -1087.000000
-5.20660019 3.68790007 10.74479961 255 255 255 -1039.000000
-5.23729992 3.71420002 10.72360039 255 255 255 -1055.000000
-5.24889994 3.73259997 10.70409966 255 255 255 -1039.000000
-5.26179981 3.74920011 10.68770027 255 255 255 -1039.000000
-5.28079987 3.75390005 10.69050026 255 255 255 -975.000000
-5.29729986 3.76139998 10.68830013 255 255 255 -1103.000000
-5.31379986 3.77110004 10.68319988 255 255 255 -1103.000000
-5.33309984 3.77539992 10.68700027 255 255 255 -911.000000
-5.35099983 3.78080010 10.68850040 255 255 255 -863.000000
-5.36959982 3.78609991 10.69060040 255 255 255 -575.000000
-5.39139986 3.78579998 10.70180035 255 255 255 -527.000000
-5.40980005 3.79020000 10.70520020 255 255 255 -351.000000
-5.43760014 3.77559996 10.73890018 255 255 255 -639.000000
-5.46269989 3.76979995 10.75940037 255 255 255 -543.000000
-5.74039984 3.25659990 11.58920002 255 255 255 -783.000000
-5.75969982 3.26259995 11.59109974 255 255 255 -367.000000
-3.89089990 4.75000000 8.67059994 255 255 255 -159.000000
-3.90540004 4.75629997 8.66609955 255 255 255 -511.000000
-5.00530005 3.44720006 10.88479996 255 255 255 -303.000000
-5.01669979 3.46900010 10.85970020 255 255 255 -511.000000
-5.02729988 3.49429989 10.82960033 255 255 255 -351.000000
-5.03910017 3.51559997 10.80550003 255 255 255 -1167.000000
-5.05140018 3.53509998 10.78409958 255 255 255 -1311.000000
-5.06339979 3.55649996 10.76010036 255 255 255 -1631.000000
-5.16989994 3.71670008 10.63160038 255 255 255 -1215.000000
-5.19350004 3.71070004 10.65060043 255 255 255 -1183.000000
-5.22930002 3.72539997 10.64739990 255 255 255 -1151.000000
-5.24350023 3.73819995 10.63689995 255 255 255 -1295.000000
-5.25890017 3.74959993 10.62880039 255 255 255 -1167.000000
-5.27600002 3.75830007 10.62530041 255 255 255 -1295.000000
-5.29290009 3.76489997 10.62450027 255 255 255 -1135.000000
-5.31020021 3.77279997 10.62220001 255 255 255 -751.000000
-5.32969999 3.77670002 10.62650013 255 255 255 -943.000000
-5.34980011 3.77749991 10.63529968 255 255 255 -815.000000
-5.36940002 3.78080010 10.64050007 255 255 255 -815.000000
-5.41550016 3.77290010 10.67409992 255 255 255 -799.000000
-5.44449997 3.75600004 10.71129990 255 255 255 -543.000000
-5.46929979 3.75090003 10.73069954 255 255 255 -447.000000
-5.80560017 3.16520000 11.68249989 255 255 255 -703.000000
-3.89969993 4.71509981 8.67580032 255 255 255 -207.000000
-3.91409993 4.72160006 8.67099953 255 255 255 -207.000000
-5.03800011 3.46199989 10.82050037 255 255 255 -415.000000
-5.04650021 3.49130011 10.78419971 255 255 255 33.000000
-5.05590010 3.51780009 10.75220013 255 255 255 -303.000000
-5.06850004 3.53789997 10.73040009 255 255 255 -143.000000
-5.08129978 3.55719995 10.70969963 255 255 255 -1023.000000
-5.09350014 3.57529998 10.69060040 255 255 255 -1151.000000
-5.10710001 3.59279990 10.67290020 255 255 255 -1503.000000
-5.04659986 3.51550007 10.79310036 255 255 255 -47.000000
-5.05749989 3.54130006 10.76270008 255 255 255 -111.000000
-5.07019997 3.55990005 10.74279976 255 255 255 -719.000000
-5.08360004 3.57610011 10.72659969 255 255 255 -1279.000000
-5.09660006 3.59509993 10.70650005 255 255 255 -1471.000000
-5.33230019 3.76539993 10.58629990 255 255 255 -1071.000000
-5.34859991 3.77419996 10.58250046 255 255 255 -1343.000000
-5.36429977 3.78550005 10.57509995 255 255 255 -1071.000000
-5.38969994 3.77760005 10.59819984 255 255 255 -1023.000000
-5.41839981 3.76119995 10.63430023 255 255 255 -1215.000000
-5.45100021 3.73709989 10.68260002 255 255 255 -1279.000000
-5.48559999 3.71219993 10.73320007 255 255 255 -1535.000000
-3.92210007 4.68940020 8.67210007 255 255 255 145.000000
-5.05770016 3.45779991 10.77700043 255 255 255 -1023.000000
-5.06540012 3.48860002 10.73869991 255 255 255 -351.000000
-5.07530022 3.51530004 10.70689964 255 255 255 33.000000
-5.08580017 3.54010010 10.67800045 255 255 255 -15.000000
-5.09590006 3.56329989 10.65110016 255 255 255 -863.000000
-5.10790014 3.58439994 10.62790012 255 255 255 -1119.000000
-5.14090014 3.65210009 10.55160046 255 255 255 -1183.000000
-5.05730009 3.48350000 10.78369999 255 255 255 -479.000000
-5.06510019 3.51690006 10.74170017 255 255 255 -31.000000
-5.07560015 3.54089999 10.71360016 255 255 255 161.000000
-5.08650017 3.56299996 10.68850040 255 255 255 -207.000000
-5.09829998 3.58480000 10.66419983 255 255 255 -1087.000000
-5.11000013 3.60509992 10.64190006 255 255 255 -1327.000000
-5.13259983 3.64840007 10.59360027 255 255 255 -1215.000000
-5.14120007 3.67560005 10.56079960 255 255 255 -1215.000000
-5.15259981 3.69530010 10.53950024 255 255 255 -687.000000
-3.93020010 4.65689993 8.67329979 255 255 255 241.000000
-3.94860005 4.64949989 8.68910027 255 255 255 -1215.000000
-5.09219980 3.51859999 10.65299988 255 255 255 -399.000000
-5.09959984 3.54809999 10.61660004 255 255 255 -399.000000
-5.12650013 3.62980008 10.51920033 255 255 255 -1103.000000
-5.13759995 3.65319991 10.49279976 255 255 255 -527.000000
-5.07959986 3.47620010 10.74559975 255 255 255 -1503.000000
-5.08389997 3.51489997 10.69519997 255 255 255 -127.000000
-5.09210014 3.54369998 10.65999985 255 255 255 -191.000000
-5.10120010 3.57170010 10.62639999 255 255 255 -415.000000
-5.13269997 3.64210010 10.54570007 255 255 255 -991.000000
-5.13999987 3.67230010 10.50860023 255 255 255 -783.000000
-5.15159988 3.69160008 10.48789978 255 255 255 -575.000000
-5.16450024 3.71050000 10.46860027 255 255 255 -623.000000
-5.20979977 3.75009990 10.43659973 255 255 255 -751.000000
-5.22599983 3.75819993 10.43330002 255 255 255 -815.000000
-5.24200010 3.76819992 10.42739964 255 255 255 -1007.000000
-5.25969982 3.77550006 10.42609978 255 255 255 -879.000000
-5.27850008 3.77810001 10.43159962 255 255 255 -1103.000000
-5.29820013 3.78060007 10.43760014 255 255 255 -879.000000
-5.32100010 3.77749991 10.45259953 255 255 255 -1151.000000
-5.34410000 3.77209997 10.47099972 255 255 255 -1199.000000
-5.36740017 3.76749992 10.48830032 255 255 255 -1263.000000
-5.39150000 3.76259995 10.50650024 255 255 255 -943.000000
-5.42119980 3.74410009 10.54549980 255 255 255 -1007.000000
-5.46409988 3.69910002 10.62590027 255 255 255 -1327.000000
-3.93779993 4.62580013 8.67240047 255 255 255 -287.000000
-5.11980009 3.59229994 10.51039982 255 255 255 -1279.000000
-5.12720013 3.62199998 10.47430038 255 255 255 -1055.000000
-5.13570023 3.65100002 10.43939972 255 255 255 -799.000000
-5.10129976 3.51589990 10.64470005 255 255 255 -1343.000000
-5.12160015 3.61290002 10.52379990 255 255 255 -1343.000000
-5.12930012 3.64359999 10.48630047 255 255 255 -879.000000
-5.13840008 3.66980004 10.45549965 255 255 255 -719.000000
-5.14779997 3.69390011 10.42759991 255 255 255 -671.000000
-5.16069984 3.71300006 10.40799999 255 255 255 -639.000000
-5.19029999 3.74020004 10.38539982 255 255 255 -703.000000
-5.21280003 3.73769999 10.39890003 255 255 255 -463.000000
-5.23750019 3.77220011 10.36470032 255 255 255 -559.000000
-5.25470018 3.78029990 10.36209965 255 255 255 -831.000000
-5.27349997 3.78290009 10.36760044 255 255 255 -959.000000
-5.29400015 3.78369999 10.37609959 255 255 255 -1007.000000
-5.31699991 3.78010011 10.39179993 255 255 255 -927.000000
-5.34049988 3.77390003 10.41129971 255 255 255 -847.000000
-5.36469984 3.76760006 10.43120003 255 255 255 -687.000000
-5.39120007 3.75749993 10.45740032 255 255 255 -735.000000
-5.41820002 3.74449992 10.48770046 255 255 255 -495.000000
-3.94540000 4.59490013 8.67090034 255 255 255 -431.000000
-3.96070004 4.59770012 8.67160034 255 255 255 -351.000000
-5.13350010 3.64989996 10.38490009 255 255 255 -1103.000000
-5.12360001 3.60229993 10.48309994 255 255 255 -1311.000000
-5.12919998 3.63779998 10.43850040 255 255 255 -895.000000
-5.13670015 3.66770005 10.40219975 255 255 255 -735.000000
-5.14410019 3.69630003 10.36760044 255 255 255 -623.000000
-5.15619993 3.71700001 10.34560013 255 255 255 -575.000000
-5.16230011 3.74959993 10.30529976 255 255 255 -687.000000
-5.18520021 3.74550009 10.32110023 255 255 255 -623.000000
-5.19980001 3.76020002 10.30830002 255 255 255 -687.000000
-5.21509981 3.77020001 10.30220032 255 255 255 -751.000000
-5.24959993 3.78539991 10.29819965 255 255 255 -911.000000
-5.26859999 3.78769994 10.30410004 255 255 255 -815.000000
-5.29040003 3.78579998 10.31690025 255 255 255 -975.000000
-5.31209993 3.78469992 10.32859993 255 255 255 -1199.000000
-5.36639977 3.75839996 10.38899994 255 255 255 -1023.000000
-5.38929987 3.75589991 10.40320015 255 255 255 -799.000000
-5.40630007 3.76340008 10.40180016 255 255 255 -463.000000
-3.95339990 4.56239986 8.67169952 255 255 255 -879.000000
-3.96799994 4.56790018 8.66849995 255 255 255 -207.000000
-5.11780024 3.53600001 10.47319984 255 255 255 -463.000000
-5.12130022 3.57620001 10.42179966 255 255 255 -1135.000000
-5.12610006 3.61179996 10.37699986 255 255 255 -1135.000000
-5.11359978 3.57200003 10.46339989 255 255 255 -1039.000000
-5.13999987 3.69950008 10.30669975 255 255 255 -975.000000
-5.15269995 3.71910000 10.28660011 255 255 255 -623.000000
-5.16499996 3.73790002 10.26739979 255 255 255 -607.000000
-5.17950010 3.75230002 10.25500011 255 255 255 -735.000000
-5.19600010 3.76259995 10.24899960 255 255 255 -639.000000
-5.21120024 3.77300000 10.24230003 255 255 255 -559.000000
-5.22900009 3.77900004 10.24260044 255 255 255 -655.000000
-5.26560020 3.78830004 10.24740028 255 255 255 -911.000000
-5.28520012 3.79099989 10.25310040 255 255 255 -735.000000
-5.30730009 3.78929996 10.26570034 255 255 255 -927.000000
-5.33029985 3.78390002 10.28369999 255 255 255 -1119.000000
-5.35879993 3.76859999 10.31709957 255 255 255 -927.000000
-5.39949989 3.72930002 10.38770008 255 255 255 -735.000000
-3.95930004 4.53690004 8.66219997 255 255 255 -687.000000
-3.97589993 4.53609991 8.66810036 255 255 255 -287.000000
-5.12309980 3.51719999 10.44489956 255 255 255 -1039.000000
-5.12340021 3.56500006 10.38249969 255 255 255 -815.000000
-5.12470007 3.60879993 10.32579994 255 255 255 -783.000000
-5.12599993 3.65459991 10.26650047 255 255 255 -847.000000
-5.12249994 3.54539990 10.44690037 255 255 255 -991.000000
-5.12389994 3.58949995 10.38949966 255 255 255 -1007.000000
-5.12519979 3.63479996 10.33059978 255 255 255 -1167.000000
-5.15920019 3.79119992 10.14099979 255 255 255 -735.000000
-5.19049978 3.76900005 10.18400002 255 255 255 -223.000000
-5.20599985 3.77859998 10.17850018 255 255 255 -799.000000
-5.22329998 3.78559995 10.17730045 255 255 255 -751.000000
-5.24240017 3.78970003 10.18080044 255 255 255 -927.000000
-5.29099989 3.77320004 10.22480011 255 255 255 -1151.000000
-5.30340004 3.79180002 10.20650005 255 255 255 -1007.000000
-5.32579994 3.78769994 10.22239971 255 255 255 -799.000000
-5.35360003 3.77379990 10.25360012 255 255 255 -959.000000
-5.37709999 3.76979995 10.27000046 255 255 255 -751.000000
-5.41459990 3.73519993 10.33259964 255 255 255 -575.000000
-3.96840000 4.50070000 8.66800022 255 255 255 -655.000000
-3.98359990 4.50489998 8.66670036 255 255 255 -255.000000
-5.12370014 3.55819988 10.33699989 255 255 255 -1071.000000
-5.12360001 3.60509992 10.27589989 255 255 255 -783.000000
-5.12230015 3.65680003 10.20810032 255 255 255 -639.000000
-5.27740002 3.13109994 10.99950027 255 255 255 -431.000000
-5.12500000 3.53349996 10.40849972 255 255 255 -1327.000000
-5.12400007 3.58319998 10.34309959 255 255 255 -943.000000
-5.12529993 3.62859988 10.28419971 255 255 255 -863.000000
-5.12510014 3.67600012 10.22239971 255 255 255 -591.000000
-5.13290024 3.70379996 10.18949986 255 255 255 -863.000000
-5.14419985 3.72630000 10.16520023 255 255 255 -831.000000
-5.23689985 3.79570007 10.11690044 255 255 255 -799.000000
-5.31839991 3.79769993 10.15219975 255 255 255 -463.000000
-5.34359980 3.78909993 10.17510033 255 255 255 -911.000000
-5.37799978 3.76250005 10.22570038 255 255 255 -799.000000
-3.97539997 4.47149992 8.66359997 255 255 255 -415.000000
-3.99149990 4.47300005 8.66619968 255 255 255 -223.000000
-5.12839985 3.54119992 10.30690002 255 255 255 -783.000000
-5.11940002 3.60859990 10.21570015 255 255 255 -879.000000
-5.11759996 3.66140008 10.14659977 255 255 255 -607.000000
-5.12540007 3.57399988 10.30109978 255 255 255 -799.000000
-5.11969995 3.63540006 10.21889973 255 255 255 -815.000000
-5.12130022 3.67869997 10.16339970 255 255 255 -607.000000
-5.12769985 3.70970011 10.12600040 255 255 255 -655.000000
-5.13829994 3.73359990 10.09969997 255 255 255 -575.000000
-5.15150023 3.75049996 10.08360004 255 255 255 -191.000000
-5.16669989 3.76329994 10.07380009 255 255 255 -591.000000
-5.18209982 3.77600002 10.06429958 255 255 255 -879.000000
-5.27120018 3.80399990 10.06869984 255 255 255 -1183.000000
-5.29269981 3.80329990 10.07970047 255 255 255 -879.000000
-5.34210014 3.78670001 10.12390041 255 255 255 -719.000000
-5.37340021 3.76650000 10.16469955 255 255 255 -911.000000
-3.98280001 4.44110012 8.66079998 255 255 255 -191.000000
-3.99839997 4.44439983 8.66079998 255 255 255 -383.000000
-5.12900019 3.53360009 10.26290035 255 255 255 -943.000000
-5.11189985 3.61969995 10.14480019 255 255 255 -607.000000
-5.11250019 3.66680002 10.08430004 255 255 255 -527.000000
-5.12639999 3.56579995 10.25800037 255 255 255 -1023.000000
-5.11520004 3.68670011 10.09700012 255 255 255 -511.000000
-5.12389994 3.71239996 10.06770039 255 255 255 -527.000000
-5.13539982 3.73440003 10.04430008 255 255 255 -591.000000
-5.14849997 3.75149989 10.02799988 255 255 255 -399.000000
-5.16300011 3.76580000 10.01589966 255 255 255 -559.000000
-5.17929983 3.77640009 10.00959969 255 255 255 -687.000000
-5.19250011 3.79110003 9.99660015 255 255 255 -527.000000
-5.36549997 3.77760005 10.09340000 255 255 255 -943.000000
-2.73779988 3.53069997 9.67319965 255 255 255 -271.000000
-3.98950005 4.41289997 8.65470028 255 255 255 -63.000000
-4.00600004 4.41359997 8.65839958 255 255 255 -559.000000
-5.09340000 3.60940003 10.09710026 255 255 255 -2047.000000
-5.10939980 3.61949992 10.09090042 255 255 255 -847.000000
-5.11199999 3.66210008 10.03740025 255 255 255 -767.000000
-5.27169991 3.02099991 10.96700001 255 255 255 -383.000000
-5.11920023 3.57620001 10.18780041 255 255 255 -1199.000000
-5.11110020 3.64330006 10.09799957 255 255 255 -655.000000
-5.11380005 3.68409991 10.04679966 255 255 255 -719.000000
-5.12090015 3.71339989 10.01220036 255 255 255 -495.000000
-5.13189983 3.73650002 9.98740005 255 255 255 -463.000000
-5.14379978 3.75620008 9.96730042 255 255 255 -367.000000
-5.15969992 3.76740003 9.96000004 255 255 255 -575.000000
-5.17420006 3.78200006 9.94769955 255 255 255 -687.000000
-5.18860006 3.79399991 9.93869972 255 255 255 -655.000000
-5.19089985 3.83340001 9.88959980 255 255 255 -319.000000
-5.23869991 3.81800008 9.93060017 255 255 255 -863.000000
-5.25890017 3.81929994 9.93820000 255 255 255 -767.000000
-5.28210020 3.81489992 9.95440006 255 255 255 -1039.000000
-5.30490017 3.80979991 9.97140026 255 255 255 -1199.000000
-5.34009981 3.77999997 10.02560043 255 255 255 -1455.000000
-2.73839998 3.50329995 9.65999985 255 255 255 -559.000000
-3.37509990 4.15980005 8.81429958 255 255 255 -1807.000000
-3.99629998 4.38420010 8.64910030 255 255 255 65.000000
-4.01329994 4.38350010 8.65480042 255 255 255 -863.000000
-5.10610008 3.62089992 10.03509998 255 255 255 -959.000000
-5.10760021 3.66619992 9.97799969 255 255 255 -719.000000
-5.11810017 3.57279992 10.13819981 255 255 255 -1039.000000
-5.10830021 3.64389992 10.04319954 255 255 255 -767.000000
-5.11070013 3.68530011 9.99129963 255 255 255 -735.000000
-5.11649990 3.71749997 9.95259953 255 255 255 -559.000000
-5.12750006 3.74060011 9.92780018 255 255 255 -559.000000
-5.13969994 3.75959992 9.90890026 255 255 255 -607.000000
-5.15399981 3.77449989 9.89620018 255 255 255 -479.000000
-5.16809988 3.78999996 9.88269997 255 255 255 -687.000000
-5.18050003 3.80599999 9.86779976 255 255 255 -671.000000
-5.19189978 3.82579994 9.84770012 255 255 255 -655.000000
-5.21029997 3.83100009 9.84939957 255 255 255 -351.000000
-5.23070002 3.82960010 9.86030006 255 255 255 -751.000000
-5.25220013 3.82809997 9.87189960 255 255 255 -735.000000
-5.27519989 3.82399988 9.88770008 255 255 255 -815.000000
-5.29990005 3.81480002 9.91059971 255 255 255 -799.000000
-5.32530022 3.80539989 9.93420029 255 255 255 -863.000000
-5.38719988 3.76440001 10.01469994 255 255 255 -975.000000
-5.64830017 4.18730021 9.62139988 255 255 255 -2047.000000
-2.73810005 3.48399997 9.63570023 255 255 255 -783.000000
-4.00169992 4.36009979 8.63700008 255 255 255 97.000000
-4.01840019 4.36040020 8.64130020 255 255 255 -159.000000
-5.10489988 3.66639996 9.92450047 255 255 255 -799.000000
-5.10750008 3.64000010 9.99520016 255 255 255 -815.000000
-5.10799980 3.68569994 9.93739986 255 255 255 -751.000000
-5.11219978 3.72180009 9.89330006 255 255 255 -671.000000
-5.12319994 3.74469995 9.86890030 255 255 255 -463.000000
-5.16309977 3.79539990 9.82190037 255 255 255 -655.000000
-5.17679977 3.80870008 9.81110001 255 255 255 -655.000000
-5.20900011 3.82830000 9.80070019 255 255 255 -223.000000
-5.22749996 3.83100009 9.80550003 255 255 255 -687.000000
-5.24630022 3.83520007 9.80869961 255 255 255 -815.000000
-5.26959991 3.83049989 9.82509995 255 255 255 -799.000000
-5.29169989 3.82669997 9.84010029 255 255 255 -607.000000
-5.31820011 3.81500006 9.86690044 255 255 255 -943.000000
-5.35220003 3.78900003 9.91510010 255 255 255 -1167.000000
-5.37949991 3.77500010 9.94540024 255 255 255 -991.000000
-2.73639989 3.48000002 9.59049988 255 255 255 -2047.000000
-4.00869989 4.33080006 8.63220024 255 255 255 17.000000
-4.02330017 4.33809996 8.62670040 255 255 255 113.000000
-4.03989983 4.33909988 8.63010025 255 255 255 -255.000000
-5.10209990 3.64650011 9.93249989 255 255 255 -783.000000
-5.10860014 3.72410011 9.83699989 255 255 255 -479.000000
-5.11789989 3.75090003 9.80720043 255 255 255 -415.000000
-5.12970018 3.77080011 9.78709984 255 255 255 -431.000000
-5.14309978 3.78740001 9.77190018 255 255 255 -511.000000
-5.15840006 3.80019999 9.76239967 255 255 255 -767.000000
-5.17180014 3.81419992 9.75080013 255 255 255 -623.000000
-5.18830013 3.82259989 9.74740028 255 255 255 -607.000000
-5.20650005 3.82839990 9.74820042 255 255 255 -687.000000
-5.22349977 3.83430004 9.74829960 255 255 255 -623.000000
-5.24270010 3.83750010 9.75300026 255 255 255 -623.000000
-5.26370001 3.83759999 9.76229954 255 255 255 -911.000000
-5.28709984 3.83109999 9.78100014 255 255 255 -879.000000
-5.30579996 3.83550000 9.78409958 255 255 255 -1135.000000
-4.04530001 4.31540012 8.61740017 255 255 255 65.000000
-4.06069994 4.32210016 8.61310005 255 255 255 81.000000
-5.09999990 3.69269991 9.82159996 255 255 255 -767.000000
-5.09999990 3.73810005 9.76449966 255 255 255 -623.000000
-5.09759998 3.79099989 9.69709969 255 255 255 -1023.000000
-5.13840008 3.79250002 9.71259975 255 255 255 -559.000000
-5.15259981 3.80749989 9.69979954 255 255 255 -687.000000
-5.16620016 3.82100010 9.68889999 255 255 255 -703.000000
-5.18240023 3.83010006 9.68449974 255 255 255 -623.000000
-5.20090008 3.83500004 9.68659973 255 255 255 -687.000000
-5.21880007 3.83909988 9.68939972 255 255 255 -591.000000
-5.23629999 3.84570003 9.68889999 255 255 255 -591.000000
-5.30639982 3.82909989 9.74120045 255 255 255 -783.000000
-5.33820009 3.80739999 9.78269958 255 255 255 -1167.000000
-4.08230019 4.30119991 8.60140038 255 255 255 305.000000
-5.09600019 3.69610000 9.76439953 255 255 255 -879.000000
-5.10050011 3.73130012 9.72229958 255 255 255 -607.000000
-5.08510017 3.81380010 9.61270046 255 255 255 -1439.000000
-5.13250017 3.80010009 9.64990044 255 255 255 -687.000000
-5.14709997 3.81430006 9.63850021 255 255 255 -687.000000
-5.16120005 3.82669997 9.62909985 255 255 255 -623.000000
-5.17350006 3.84400010 9.61289978 255 255 255 -767.000000
-5.25320005 3.84920001 9.64159966 255 255 255 -639.000000
-5.27460003 3.84689999 9.65419960 255 255 255 -1007.000000
-5.29960012 3.83809996 9.67630005 255 255 255 -1439.000000
-4.10570002 4.27460003 8.59749985 255 255 255 -63.000000
-4.12190008 4.27920008 8.59630013 255 255 255 81.000000
-4.14050007 4.27519989 8.60690022 255 255 255 -287.000000
-5.08909988 3.70630002 9.69810009 255 255 255 -1263.000000
-5.09630013 3.73530006 9.66489983 255 255 255 -879.000000
-5.10489988 3.76370001 9.63319969 255 255 255 -687.000000
-5.13980007 3.82489991 9.57199955 255 255 255 -911.000000
-5.18590021 3.85680008 9.55249977 255 255 255 -591.000000
-5.20590019 3.85630012 9.56180000 255 255 255 -975.000000
-5.22660017 3.85610008 9.57120037 255 255 255 -1343.000000
-5.36089993 3.79239988 9.70979977 255 255 255 -1439.000000
-5.50309992 3.54220009 10.08139992 255 255 255 -1007.000000
-5.67360020 4.11899996 9.46780014 255 255 255 -1247.000000
-3.76329994 3.49009991 9.48690033 255 255 255 -863.000000
-4.14519978 4.25430012 8.59020042 255 255 255 33.000000
-4.16130018 4.25710011 8.59140015 255 255 255 -159.000000
-5.26200008 3.86299992 9.52859974 255 255 255 -1519.000000
-5.28350019 3.86150002 9.53999996 255 255 255 -1295.000000
-5.31739998 3.83509994 9.58759975 255 255 255 -1327.000000
-5.35209990 3.80550003 9.63930035 255 255 255 -1183.000000
-5.39709997 3.75500011 9.72140026 255 255 255 -1791.000000
-5.68240023 4.09870005 9.44729996 255 255 255 -1327.000000
-3.87369990 3.49329996 9.45559978 255 255 255 433.000000
-4.32259989 3.28239989 9.83570004 255 255 255 -2047.000000
-4.16820002 4.22980022 8.58349991 255 255 255 145.000000
-4.18559980 4.23159981 8.58640003 255 255 255 113.000000
-5.17700005 3.86570001 9.43859959 255 255 255 -1199.000000
-5.19290018 3.87360001 9.43579960 255 255 255 -831.000000
-5.21250010 3.87590003 9.44159985 255 255 255 -799.000000
-5.23229980 3.87809992 9.44769955 255 255 255 -767.000000
-5.25349998 3.87579989 9.45979977 255 255 255 -751.000000
-5.27799988 3.86780000 9.48040009 255 255 255 -1071.000000
-5.30770016 3.85030007 9.51500034 255 255 255 -1215.000000
-5.34429979 3.81649995 9.57240009 255 255 255 -1263.000000
-5.39039993 3.76370001 9.65730000 255 255 255 -1471.000000
-5.68450022 4.09040022 9.40919971 255 255 255 -1391.000000
-2.46849990 3.21709991 9.64439964 255 255 255 -319.000000
-4.32830000 3.25600004 9.81999969 255 255 255 -431.000000
-4.19430017 4.19920015 8.58520031 255 255 255 -271.000000
-4.20949984 4.20669985 8.58040047 255 255 255 33.000000
-4.22690010 4.20590019 8.58660030 255 255 255 81.000000
-5.08960009 3.78200006 9.45510006 255 255 255 -687.000000
-5.09219980 3.82209992 9.40709972 255 255 255 -895.000000
-5.10769987 3.83369994 9.39929962 255 255 255 -959.000000
-5.12419987 3.84349990 9.39430046 255 255 255 -815.000000
-5.16960001 3.87649989 9.37339973 255 255 255 -479.000000
-5.18730021 3.88070011 9.37590027 255 255 255 -719.000000
-5.20550013 3.88569999 9.37769985 255 255 255 -751.000000
-5.22700024 3.88429999 9.38879967 255 255 255 -751.000000
-5.24830008 3.88179994 9.40110016 255 255 255 -895.000000
-5.27129984 3.87689996 9.41720009 255 255 255 -1087.000000
-5.30070019 3.85969996 9.45110035 255 255 255 -1183.000000
-5.33260012 3.83570004 9.49429989 255 255 255 -1423.000000
-5.37559986 3.78889990 9.57019997 255 255 255 -1183.000000
-5.69350004 4.06949997 9.38949966 255 255 255 -2047.000000
-6.18919992 3.30220008 10.54500008 255 255 255 -1391.000000
-3.18980002 4.05560017 8.51939964 255 255 255 -655.000000
-4.33440018 3.22860003 9.80550003 255 255 255 -47.000000
-4.25059986 4.18419981 8.57649994 255 255 255 177.000000
-5.07639980 3.75880003 9.42889977 255 255 255 -1167.000000
-5.08230019 3.79310012 9.38949966 255 255 255 -767.000000
-5.09140015 3.81850004 9.36240005 255 255 255 -847.000000
-5.11600018 3.85640001 9.32649994 255 255 255 -479.000000
-5.18009996 3.89100003 9.31169987 255 255 255 -655.000000
-5.19939995 3.89369988 9.31680012 255 255 255 -639.000000
-5.21999979 3.89409995 9.32520008 255 255 255 -751.000000
-5.23920012 3.89599991 9.33129978 255 255 255 -927.000000
-5.26359987 3.88800001 9.35169983 255 255 255 -799.000000
-5.29010010 3.87689996 9.37670040 255 255 255 -815.000000
-5.32289982 3.85069990 9.42280006 255 255 255 -1183.000000
-5.36740017 3.80080009 9.50269985 255 255 255 -1167.000000
-6.20499992 3.26920009 10.53719997 255 255 255 -1999.000000
-3.19260001 4.02820015 8.51099968 255 255 255 -2047.000000
-4.24249983 3.51909995 9.36429977 255 255 255 -239.000000
-4.27680016 4.15430021 8.57740021 255 255 255 289.000000
-4.29370022 4.15500021 8.58160019 255 255 255 -351.000000
-5.08580017 3.77979994 9.35849953 255 255 255 -1231.000000
-5.08449984 3.82879996 9.29850006 255 255 255 -1151.000000
-5.10839987 3.86809993 9.26089954 255 255 255 -639.000000
-5.12340021 3.87820005 9.25500011 255 255 255 -495.000000
-3.38080001 3.75670004 8.83979988 255 255 255 -495.000000
-4.30089998 4.12809992 8.57279968 255 255 255 49.000000
-4.31869984 4.13079977 8.57499981 255 255 255 65.000000
-5.03669977 3.57299995 9.50839996 255 255 255 -367.000000
-5.04850006 3.59480000 9.48659992 255 255 255 -191.000000
-5.05719995 3.71849990 9.34060001 255 255 255 -1007.000000
-5.04050016 3.59549999 9.51519966 255 255 255 -415.000000
-5.06110001 3.69070005 9.40779972 255 255 255 -1167.000000
-5.06169987 3.73620009 9.35309982 255 255 255 -1231.000000
-5.06489992 3.77410007 9.30850029 255 255 255 -975.000000
-5.10349989 3.87389994 9.20400047 255 255 255 -847.000000
-5.11609983 3.88899994 9.19099998 255 255 255 -831.000000
-5.13320017 3.89549994 9.19040012 255 255 255 -559.000000
-5.15159988 3.90039992 9.19229984 255 255 255 -511.000000
-5.28579998 3.87599993 9.27919960 255 255 255 -1263.000000
-5.30730009 3.87330008 9.29189968 255 255 255 -1215.000000
-3.38380003 3.73079991 8.82750034 255 255 255 -527.000000
-4.39260006 3.51659989 9.31219959 255 255 255 577.000000
-4.34289980 4.10790014 8.56639957 255 255 255 209.000000
-4.67369986 3.66669989 9.21510029 255 255 255 -143.000000
-5.03179979 3.53180003 9.50710011 255 255 255 -191.000000
-5.04580021 3.54570007 9.49569988 255 255 255 81.000000
-5.05810022 3.56660008 9.47539997 255 255 255 -319.000000
-5.06029987 3.61010003 9.42389965 255 255 255 -287.000000
-5.04710007 3.68759990 9.32559967 255 255 255 -831.000000
-5.04990005 3.72959995 9.27630043 255 255 255 -783.000000
-5.03469992 3.55380011 9.51410007 255 255 255 -207.000000
-5.04780006 3.57259989 9.49639988 255 255 255 1.000000
-5.06120014 3.58920002 9.48149967 255 255 255 -431.000000
-5.05100012 3.70860004 9.33370018 255 255 255 -911.000000
-5.05389977 3.74869990 9.28649998 255 255 255 -671.000000
-5.05830002 3.78399992 9.24580002 255 255 255 -495.000000
-5.06300020 3.82089996 9.20339966 255 255 255 -879.000000
-5.11009979 3.89720011 9.13129997 255 255 255 -735.000000
-5.12820005 3.90140009 9.13370037 255 255 255 -671.000000
-5.14319992 3.91359997 9.12549973 255 255 255 -575.000000
-5.16130018 3.91639996 9.12969971 255 255 255 -319.000000
-5.18020010 3.91980004 9.13370037 255 255 255 -527.000000
-5.20030022 3.92109990 9.14070034 255 255 255 -511.000000
-5.21750021 3.92700005 9.14120007 255 255 255 -639.000000
-5.24009991 3.92260003 9.15600014 255 255 255 -687.000000
-5.26270008 3.91939998 9.16969967 255 255 255 -895.000000
-5.29029989 3.90359998 9.20049953 255 255 255 -1039.000000
-5.32289982 3.87770009 9.24549961 255 255 255 -1007.000000
-3.12700009 3.86870003 8.57649994 255 255 255 -575.000000
-3.38210011 3.72909999 8.78380013 255 255 255 -1247.000000
-4.36740017 4.08179998 8.56169987 255 255 255 145.000000
-4.38539982 4.08449984 8.56410027 255 255 255 -271.000000
-4.68629980 3.62719989 9.21990013 255 255 255 -287.000000
-5.07499981 3.57030010 9.42870045 255 255 255 -527.000000
-5.03950024 3.69980001 9.26010036 255 255 255 -543.000000
-5.04180002 3.74280000 9.20960045 255 255 255 -431.000000
-5.05859995 3.63730001 9.37399960 255 255 255 -591.000000
-5.04290009 3.72189999 9.26630020 255 255 255 -383.000000
-5.04680014 3.75970006 9.22259998 255 255 255 -383.000000
-5.04949999 3.79879999 9.17689991 255 255 255 -383.000000
-5.05700016 3.82940006 9.14340019 255 255 255 -655.000000
-5.06640005 3.85389996 9.11779976 255 255 255 -815.000000
-5.14120007 3.91289997 9.07830048 255 255 255 -847.000000
-5.15850019 3.91750002 9.08020020 255 255 255 -815.000000
-5.19600010 3.92529988 9.08679962 255 255 255 -767.000000
-5.21579981 3.92569995 9.09469986 255 255 255 -495.000000
-5.23829985 3.92149997 9.10939980 255 255 255 -735.000000
-5.26100016 3.91799998 9.12329960 255 255 255 -479.000000
-5.28499985 3.90980005 9.14340019 255 255 255 -943.000000
-5.31540012 3.88849998 9.18190002 255 255 255 -767.000000
-5.40240002 3.75430012 9.37800026 255 255 255 -2047.000000
-4.39270020 4.05800009 8.55449963 255 255 255 65.000000
-4.41090012 4.05819988 8.56000042 255 255 255 -223.000000
-5.02750015 3.67560005 9.23670006 255 255 255 -1807.000000
-5.03030014 3.71550012 9.19029999 255 255 255 -463.000000
-5.03529978 3.75230002 9.14850044 255 255 255 -543.000000
-5.03879976 3.67799997 9.26930046 255 255 255 -815.000000
-5.03490019 3.73530006 9.19950008 255 255 255 -639.000000
-5.04010010 3.76979995 9.16049957 255 255 255 -415.000000
-5.04449987 3.80500007 9.12020016 255 255 255 -575.000000
-5.05170012 3.83599997 9.08619976 255 255 255 -495.000000
-5.08990002 3.88879991 9.03890038 255 255 255 -671.000000
-5.10419989 3.90009999 9.03139973 255 255 255 -991.000000
-5.17369986 3.92379999 9.03230000 255 255 255 -639.000000
-5.19250011 3.92790008 9.03540039 255 255 255 -447.000000
