4.83339977 -0.77130002 -1.11800003 170 170 170
4.81729984 -0.78060001 -1.11520004 169 169 169
4.80550003 -0.79060000 -1.11339998 184 184 184
4.79479980 -0.80110002 -1.11189997 175 175 175
4.78919983 -0.81169999 -1.11160004 166 166 166
4.78739977 -0.82359999 -1.11220002 173 173 173
4.78620005 -0.83539999 -1.11290002 168 168 168
4.78319979 -0.84670001 -1.11319995 167 167 167
4.78560019 -0.85939997 -1.11479998 170 170 170
4.79010010 -0.87210000 -1.11679995 171 171 171
4.79549980 -0.88520002 -1.11909997 158 158 158
4.81169987 -0.90030003 -1.12390006 158 158 158
4.80630016 -0.91149998 -1.12370002 161 161 161
4.80950022 -0.92409998 -1.12549996 147 147 147
4.80289984 -0.93489999 -1.12500000 155 155 155
4.80049992 -0.94679999 -1.12549996 175 175 175
4.79799986 -0.95810002 -1.12600005 173 173 173
4.82270002 -0.97520000 -1.13290000 173 173 173
4.83990002 -0.99119997 -1.13810003 169 169 169
4.84320021 -1.00380003 -1.13989997 177 177 177
4.84619999 -1.01680005 -1.14180005 176 176 176
5.19010019 -0.37770000 -1.16480005 183 183 183
5.17780018 -0.38960001 -1.16279995 185 185 185
5.14799976 -0.39940000 -1.15680003 192 192 192
5.13810015 -0.41110000 -1.15530002 193 193 193
5.15010023 -0.42490000 -1.15869999 183 183 183
5.13940001 -0.43599999 -1.15699995 175 175 175
5.14349985 -0.44909999 -1.15869999 184 184 184
5.13070011 -0.46110001 -1.15660000 182 182 182
5.12659979 -0.47290000 -1.15639997 184 184 184
5.03499985 -0.47650000 -1.13650000 167 167 167
5.04479980 -0.49020001 -1.13950002 173 173 173
4.99989986 -0.49770001 -1.13010001 184 184 184
4.99700022 -0.50980002 -1.13020003 186 186 186
5.03749990 -0.52689999 -1.14020002 169 169 169
4.96150017 -0.53060001 -1.12370002 193 193 193
4.95149994 -0.54189998 -1.12230003 194 194 194
5.00010014 -0.56000000 -1.13409996 174 174 174
5.01160002 -0.57309997 -1.13750005 172 172 172
5.00379992 -0.58459997 -1.13660002 171 171 171
5.00129986 -0.59689999 -1.13689995 176 176 176
5.00029993 -0.60860002 -1.13750005 174 174 174
4.99749994 -0.62059999 -1.13769996 176 176 176
5.00000000 -0.63370001 -1.13909996 167 167 167
5.00349998 -0.64620000 -1.14080000 164 164 164
5.00500011 -0.65869999 -1.14199996 178 178 178
4.99599981 -0.67019999 -1.14090002 165 165 165
4.86429977 -0.70060003 -1.11430001 171 171 171
4.85500002 -0.71160001 -1.11310005 174 174 174
4.83260012 -0.72039998 -1.10889995 200 200 200
4.84709978 -0.73439997 -1.11310005 181 181 181
4.91559982 -0.67369998 -1.14150000 160 160 160
4.80490017 -0.68229997 -1.11749995 159 159 159
4.83199978 -0.69830000 -1.12469995 163 163 163
4.82870007 -0.70950001 -1.12479997 168 168 168
4.82550001 -0.72149998 -1.12500000 171 171 171
4.82200003 -0.73310000 -1.12510002 178 178 178
4.81389999 -0.74390000 -1.12419999 174 174 174
4.81909990 -0.75660002 -1.12629998 162 162 162
4.80819988 -0.77859998 -1.12570000 170 170 170
4.79710007 -0.78869998 -1.12399995 169 169 169
4.78480005 -0.79890001 -1.12220001 185 185 185
4.77220011 -0.80830002 -1.12010002 176 176 176
4.77299976 -0.82059997 -1.12129998 182 182 182
4.76870012 -0.83179998 -1.12129998 171 171 171
4.76359987 -0.84270000 -1.12109995 165 165 165
4.77619982 -0.85720003 -1.12510002 171 171 171
4.77229977 -0.86830002 -1.12520003 163 163 163
4.73019981 -0.87260002 -1.11629999 159 159 159
4.78520012 -0.89480001 -1.13030005 162 162 162
4.80229998 -0.91020000 -1.13540006 158 158 158
4.80270004 -0.92229998 -1.13660002 143 143 143
4.79720020 -0.93330002 -1.13629997 160 160 160
4.80049992 -0.94630003 -1.13820004 160 160 160
4.80249977 -0.95850003 -1.13970006 173 173 173
4.80700016 -0.97149998 -1.14189994 164 164 164
4.82600021 -0.98780000 -1.14750004 158 158 158
4.84170008 -1.00300002 -1.15240002 164 164 164
5.16410017 -0.38810000 -1.17299998 183 183 183
5.14839983 -0.39890000 -1.17009997 172 172 172
5.13600016 -0.41040000 -1.16799998 178 178 178
5.14610004 -0.42399999 -1.17110002 175 175 175
5.12720013 -0.43450001 -1.16750002 183 183 183
5.11940002 -0.44650000 -1.16649997 172 172 172
5.11549997 -0.45919999 -1.16630006 183 183 183
5.11810017 -0.47160000 -1.16770005 175 175 175
5.06559992 -0.47889999 -1.15639997 168 168 168
5.05270004 -0.50239998 -1.15499997 178 178 178
5.01189995 -0.52370000 -1.14730000 169 169 169
5.02220011 -0.53649998 -1.15050006 176 176 176
4.95359993 -0.54159999 -1.13559997 190 190 190
5.00670004 -0.56019998 -1.14859998 170 170 170
5.00180006 -0.57150000 -1.14820004 165 165 165
4.99809980 -0.58340001 -1.14820004 166 166 166
4.99840021 -0.59600002 -1.14919996 164 164 164
4.99020004 -0.60680002 -1.14810002 157 157 157
4.98680019 -0.61870003 -1.14820004 179 179 179
5.00019979 -0.63319999 -1.15209997 165 165 165
4.99480009 -0.64450002 -1.15180004 159 159 159
5.00790024 -0.65850002 -1.15559995 167 167 167
5.00159979 -0.67049998 -1.15509999 162 162 162
4.91730022 -0.68349999 -1.13740003 149 149 149
4.85010004 -0.69800001 -1.12370002 168 168 168
4.83780003 -0.70850003 -1.12170005 181 181 181
4.82900000 -0.71929997 -1.12059999 188 188 188
4.82579994 -0.73060000 -1.12080002 172 172 172
4.83449984 -0.66210002 -1.13520002 153 153 153
4.81780005 -0.70740002 -1.13489997 166 166 166
4.81680012 -0.71969998 -1.13559997 165 165 165
4.80749989 -0.73030001 -1.13440001 162 162 162
4.79850006 -0.74100000 -1.13320005 153 153 153
4.78749990 -0.75110000 -1.13150001 153 153 153
4.78700018 -0.76279998 -1.13230002 163 163 163
4.78739977 -0.77469999 -1.13339996 171 171 171
4.77939987 -0.78530002 -1.13240004 171 171 171
4.77159977 -0.79610002 -1.13160002 176 176 176
4.75860023 -0.80540001 -1.12940001 181 181 181
4.75040007 -0.81620002 -1.12849998 166 166 166
4.75349998 -0.82859999 -1.13020003 172 172 172
4.74739981 -0.83929998 -1.12979996 168 168 168
4.75540018 -0.85299999 -1.13269997 178 178 178
4.75029993 -0.86379999 -1.13250005 165 165 165
4.74949980 -0.87570000 -1.13329995 160 160 160
4.73019981 -0.88400000 -1.12979996 157 157 157
4.77069998 -0.90369999 -1.14049995 161 161 161
4.78980017 -0.91930002 -1.14610004 166 166 166
4.79659986 -0.93260002 -1.14880002 149 149 149
4.79549980 -0.94470000 -1.14970005 144 144 144
4.79909992 -0.95730001 -1.15160000 140 140 140
4.80170012 -0.96990001 -1.15330005 148 148 148
5.17399979 -0.38830000 -1.18859994 167 167 167
5.14659977 -0.39820001 -1.18299997 180 180 180
5.13409996 -0.40979999 -1.18079996 178 178 178
5.11590004 -0.42100000 -1.17739999 171 171 171
5.11240005 -0.43270001 -1.17729998 174 174 174
5.10370016 -0.44459999 -1.17610002 179 179 179
5.09569979 -0.45690000 -1.17499995 178 178 178
5.07980013 -0.46750000 -1.17209995 167 167 167
5.05420017 -0.49010000 -1.16770005 168 168 168
5.01709986 -0.49840000 -1.15989995 174 174 174
5.01679993 -0.52370000 -1.16139996 174 174 174
5.01149988 -0.53490001 -1.16100001 177 177 177
4.96040010 -0.54180002 -1.14999998 189 189 189
5.00029993 -0.55890000 -1.16009998 178 178 178
4.99459982 -0.57010001 -1.15950000 161 161 161
4.99130011 -0.58200002 -1.15960002 178 178 178
4.99380016 -0.59490001 -1.16100001 172 172 172
4.99149990 -0.60640001 -1.16129994 177 177 177
4.99209976 -0.61890000 -1.16229999 184 184 184
4.99189997 -0.63160002 -1.16320002 184 184 184
4.99940014 -0.64459997 -1.16579998 165 165 165
5.00939989 -0.65820003 -1.16900003 163 163 163
5.00649977 -0.67060000 -1.16919994 150 150 150
4.83360004 -0.65899998 -1.12969995 163 163 163
4.81379986 -0.69220001 -1.12779999 159 159 159
4.82460022 -0.70599997 -1.13119996 163 163 163
4.82189989 -0.71770000 -1.13150001 179 179 179
4.81860018 -0.72899997 -1.13160002 180 180 180
4.83249998 -0.66130000 -1.14740002 159 159 159
4.81710005 -0.67079997 -1.14460003 147 147 147
4.76929998 -0.77130002 -1.14160001 154 154 154
4.76599979 -0.78250003 -1.14180005 160 160 160
4.75239992 -0.79240000 -1.13950002 164 164 164
4.74219990 -0.80210000 -1.13800001 171 171 171
4.73619986 -0.81320000 -1.13759995 158 158 158
4.72809982 -0.82370001 -1.13660002 178 178 178
4.72620010 -0.89469999 -1.14230001 156 156 156
4.77400017 -0.91570002 -1.15489995 171 171 171
4.78039980 -0.92890000 -1.15750003 164 164 164
4.78830004 -0.94279999 -1.16059995 152 152 152
4.78910017 -0.95469999 -1.16180003 137 137 137
4.79519987 -0.96810001 -1.16439998 132 132 132
5.13509989 -0.39680001 -1.19360006 177 177 177
5.11170006 -0.40740001 -1.18889999 168 168 168
5.09170008 -0.44299999 -1.18649995 177 177 177
5.08099985 -0.45510000 -1.18470001 175 175 175
5.06860018 -0.46599999 -1.18260002 167 167 167
5.05730009 -0.47700000 -1.18069994 175 175 175
5.05210018 -0.48930001 -1.18030000 167 167 167
5.00229979 -0.52160001 -1.17100000 172 172 172
5.00059986 -0.53320003 -1.17139995 184 184 184
4.99389982 -0.54500002 -1.17069995 185 185 185
4.99179983 -0.55750000 -1.17100000 177 177 177
4.98999977 -0.56910002 -1.17139995 179 179 179
4.97770023 -0.57990003 -1.16929996 182 182 182
4.97989988 -0.59270000 -1.17069995 178 178 178
4.99149990 -0.60589999 -1.17429996 183 183 183
4.98740005 -0.61780000 -1.17420006 184 184 184
4.98689985 -0.63050002 -1.17499995 193 193 193
4.99389982 -0.64330000 -1.17750001 164 164 164
4.99009991 -0.65509999 -1.17739999 153 153 153
4.98430014 -0.66710001 -1.17700005 157 157 157
4.84189987 -0.65960002 -1.14419997 154 154 154
4.86000013 -0.66460001 -1.16659999 144 144 144
4.76840019 -0.92610002 -1.16729999 150 150 150
4.76690006 -0.93800002 -1.16799998 163 163 163
4.78240013 -0.95279998 -1.17289996 142 142 142
4.96829987 -0.55430001 -1.17840004 165 165 165
4.96439981 -0.56559998 -1.17830002 153 153 153
4.96180010 -0.57749999 -1.17850006 149 149 149
4.96579981 -0.59050000 -1.18030000 160 160 160
4.96640015 -0.60229999 -1.18130004 160 160 160
4.96430016 -0.61440003 -1.18159997 173 173 173
4.97069979 -0.62790000 -1.18410003 172 172 172
4.96579981 -0.63919997 -1.18379998 168 168 168
4.88350010 -0.64060003 -1.16499996 176 176 176
4.91109991 -0.65670002 -1.17250001 152 152 152
4.83669996 -0.65840000 -1.15559995 177 177 177
4.83150005 -0.67000002 -1.15530002 153 153 153
4.91599989 -0.59570003 -1.18210006 170 170 170
4.92649984 -0.60920000 -1.18550003 157 157 157
4.90829992 -0.61949998 -1.18200004 160 160 160
4.87480021 -0.62690002 -1.17470002 136 136 136
4.82740021 -0.65660000 -1.16600001 167 167 167
3.23410010 -3.21460009 17.67729950 206 206 206
3.22889996 -3.17330003 17.65390015 142 142 142
3.23850012 -3.17179990 17.66729927 150 150 150
3.29480004 -3.19810009 17.56439972 180 180 180
3.15070009 -3.06110001 17.72800064 205 205 205
3.21869993 -3.08969998 17.61359978 186 186 186
3.22119999 -3.05410004 17.56699944 198 198 198
3.13860011 -2.97390008 17.70590019 160 160 160
3.20260000 -2.98559999 17.67420006 149 149 149
3.20709991 -3.00699997 17.57019997 217 217 217
3.23189998 -2.98189998 17.70709991 160 160 160
3.11570001 -2.91589999 17.76020050 210 210 210
3.14240003 -2.92709994 17.71430016 188 188 188
3.20090008 -2.96810007 17.53650093 204 204 204
3.21040010 -2.96679997 17.54750061 174 174 174
3.19499993 -2.92440009 17.52759933 203 203 203
3.20460010 -2.92569995 17.52529907 155 155 155
5.13380003 -3.56010008 17.69580078 130 130 130
5.14410019 -3.56270003 17.71310043 227 227 227
5.27349997 -3.58039999 17.99360085 170 170 170
5.15320015 -3.51710010 17.69849968 204 204 204
3.17890000 -2.75690007 17.46129990 93 93 93
3.18939996 -2.75589991 17.46990013 215 215 215
3.19899988 -2.75659990 17.47019958 178 178 178
3.76460004 -2.75110006 17.89780045 186 186 186
4.81169987 -3.25099993 17.68829918 203 203 203
5.31099987 -3.48370004 18.02389908 198 198 198
3.78410006 -2.71000004 17.88999939 138 138 138
4.82969999 -3.21760011 17.65399933 187 187 187
4.83799982 -3.22239995 17.65309906 157 157 157
5.31750011 -3.45469999 17.93899918 182 182 182
3.79279995 -2.66969991 17.86840057 129 129 129
4.57919979 -3.31229997 16.57309914 187 187 187
3.22690010 -2.64739990 17.36450005 210 210 210
3.80609989 -2.61630011 17.90769958 213 213 213
3.81890011 -2.61069989 17.94449997 138 138 138
4.58960009 -3.28819990 16.50040054 192 192 192
2.89739990 -2.56340003 17.46269989 191 191 191
3.23009992 -2.60739994 17.34350014 196 196 196
3.23920012 -2.61220002 17.32629967 215 215 215
3.46239996 -2.56040001 17.67060089 151 151 151
3.67479992 -2.31410003 18.88829994 209 209 209
3.77419996 -2.29189992 19.06419945 202 202 202
3.81780005 -2.56750011 17.92449951 211 211 211
4.29750013 -3.10389996 16.51819992 222 222 222
2.74769998 -2.46239996 17.71500015 193 193 193
2.89730000 -2.52360010 17.43969917 195 195 195
3.24839997 -2.49300003 17.65369987 159 159 159
3.68039989 -2.27600002 18.84329987 202 202 202
4.24889994 -2.80010009 17.48229980 211 211 211
4.37970018 -2.67899990 18.16379929 209 209 209
4.39209986 -2.67829990 18.18519974 138 138 138
2.73550010 -2.42300010 17.68829918 182 182 182
2.78600001 -2.44959998 17.56730080 200 200 200
2.89750004 -2.48200011 17.42440033 204 204 204
3.24850011 -2.46849990 17.56189919 164 164 164
3.24460006 -2.53859997 17.25799942 205 205 205
3.25399995 -2.54469991 17.23579979 217 217 217
3.77609992 -2.21140003 18.98170090 156 156 156
4.71409988 -2.32290006 19.88640022 197 197 197
2.74259996 -2.41120005 17.54059982 204 204 204
2.79550004 -2.40869999 17.54680061 196 196 196
2.89779997 -2.43939996 17.41379929 208 208 208
3.26290011 -2.42459989 17.55999947 154 154 154
3.25720000 -2.50629997 17.20940018 222 222 222
3.26769996 -2.50799990 17.20669937 201 201 201
4.73430014 -2.27419996 19.89089966 192 192 192
4.60500002 -3.03279996 16.76930046 194 194 194
4.91359997 -3.17160010 16.85580063 192 192 192
4.92140007 -3.17829990 16.84799957 212 212 212
2.89809990 -2.39700007 17.40220070 172 172 172
3.26220012 -2.40459991 17.45140076 206 206 206
3.27169991 -2.41210008 17.42350006 192 192 192
4.93330002 -3.13750005 16.83709908 232 232 232
4.97989988 -3.09249997 17.09140015 168 168 168
5.20310020 -3.14540005 17.38419914 217 217 217
2.87779999 -2.12930012 18.34280014 161 161 161
2.88960004 -2.12639999 18.35499954 170 170 170
3.27940011 -2.40619993 17.26230049 181 181 181
3.28399992 -2.43600011 17.13969994 223 223 223
3.29469991 -2.43650007 17.14220047 123 123 123
3.70810008 -2.10710001 18.74290085 229 229 229
3.79169989 -2.36879992 17.74329948 91 91 91
3.80209994 -2.37030005 17.74650002 215 215 215
3.80900002 -2.38459992 17.69459915 164 164 164
4.94460011 -3.09750009 16.82239914 78 78 78
4.95289993 -3.10349989 16.81830025 224 224 224
4.96560001 -3.10389996 16.84280014 151 151 151
5.19700003 -3.11279988 17.29850006 197 197 197
5.20669985 -3.11739993 17.30400085 201 201 201
2.87779999 -2.08380008 18.33419991 168 168 168
2.88960004 -2.08139992 18.34420013 216 216 216
2.90459991 -2.04270005 18.50639915 149 149 149
3.28810000 -2.39429998 17.12890053 214 214 214
3.29789996 -2.39930010 17.11249924 225 225 225
3.78760004 -2.32960010 17.70809937 178 178 178
3.79929996 -2.32990003 17.71680069 198 198 198
3.80530000 -2.34520006 17.66069984 188 188 188
4.27790022 -2.41389990 17.88990021 210 210 210
4.59959984 -2.99760008 16.35960007 185 185 185
4.60939980 -3.00009990 16.36750031 225 225 225
5.34030008 -2.36669993 19.97240067 198 198 198
4.97340012 -3.06820011 16.80599976 232 232 232
2.62820005 -1.93210006 18.79249954 191 191 191
2.88969994 -2.03500009 18.33889961 205 205 205
2.96550012 -2.16770005 17.79459953 175 175 175
3.72320008 -2.01810002 18.71339989 214 214 214
3.80850005 -2.28629994 17.71050072 213 213 213
4.26789999 -2.36910009 17.86129951 224 224 224
4.28119993 -2.36700010 17.88579941 139 139 139
4.27939987 -2.41689992 17.88669968 217 217 217
4.86780024 -2.30660009 19.14739990 210 210 210
4.62599993 -2.96510005 16.35149956 175 175 175
2.88940001 -1.99370003 18.31290054 213 213 213
2.96600008 -2.12689996 17.77219963 162 162 162
3.31750011 -2.31699991 17.09140015 227 227 227
3.32800007 -2.31830001 17.09090042 226 226 226
3.34130001 -2.30850005 17.13649940 140 140 140
3.49979997 -1.91340005 18.79980087 189 189 189
3.73169994 -1.97049999 18.71190071 212 212 212
3.82259989 -2.26180005 17.63310051 184 184 184
4.25820017 -2.37050009 17.85079956 200 200 200
4.26910019 -2.37310004 17.85409927 220 220 220
4.66169977 -2.93869996 16.33749962 232 232 232
4.95849991 -2.50830007 18.37669945 194 194 194
2.88779998 -1.96480000 18.23690033 187 187 187
2.96630001 -2.08710003 17.74600029 181 181 181
2.99510002 -2.12989998 17.57609940 97 97 97
3.34270000 -2.28119993 17.06669998 229 229 229
3.35409999 -2.28180003 17.06909943 196 196 196
3.33780003 -2.45479989 16.37319946 197 197 197
3.64860010 -1.79700005 19.14640045 172 172 172
3.66070008 -1.79879999 19.14640045 194 194 194
3.72709990 -1.92630005 18.68759918 218 218 218
3.73959994 -1.92499995 18.70129967 133 133 133
3.83069992 -2.22210002 17.61120033 213 213 213
4.67999983 -2.90120006 16.33329964 119 119 119
4.68699980 -2.90890002 16.31789970 231 231 231
5.22030020 -3.00329995 17.00449944 197 197 197
3.35669994 -2.24900007 17.02309990 218 218 218
3.36750007 -2.25079989 17.02090073 217 217 217
3.65380001 -1.75689995 19.10869980 152 152 152
3.73399997 -1.88370001 18.66519928 197 197 197
3.77839994 -1.77049994 19.13489914 194 194 194
3.83699989 -2.18770003 17.56780052 216 216 216
4.71339989 -2.87879992 16.30190086 227 227 227
2.65350008 -1.77810001 18.62030029 168 168 168
2.66540003 -1.79030001 18.56990051 208 208 208
3.06170011 -2.45679998 15.93430042 181 181 181
3.24679995 -2.26970005 16.72310066 181 181 181
3.38470006 -2.20309997 17.03989983 176 176 176
3.71190000 -2.31150007 16.81970024 213 213 213
3.73779988 -2.26300001 17.02420044 122 122 122
3.85479999 -2.15569997 17.52529907 217 217 217
3.86520004 -2.16170001 17.51119995 95 95 95
4.57989979 -2.93099999 15.73770046 183 183 183
2.67589998 -1.74030006 18.57360077 206 206 206
2.68750000 -1.75030005 18.53269958 168 168 168
3.00029993 -1.98629999 17.59980011 193 193 193
3.06340003 -2.42009997 15.91510010 172 172 172
3.13350010 -2.03600001 17.42849922 197 197 197
3.70860004 -2.26830006 16.81080055 213 213 213
3.74390006 -2.22830009 16.98810005 117 117 117
3.87290001 -2.12380004 17.48349953 214 214 214
4.14930010 -2.17420006 17.55249977 192 192 192
4.74520016 -1.91429996 19.40040016 149 149 149
2.68549991 -1.70679998 18.51359940 213 213 213
2.90120006 -1.76750004 18.26309967 225 225 225
3.13770008 -1.98119998 17.46439934 179 179 179
3.48320007 -2.32730007 16.27449989 178 178 178
3.88899994 -2.09619999 17.42460060 213 213 213
4.75820017 -2.09680009 18.58119965 198 198 198
4.87099981 -1.99140000 19.11059952 186 186 186
4.88210011 -1.99670005 19.10790062 157 157 157
4.78289986 -2.78509998 16.25009918 234 234 234
5.88549995 -2.54430008 19.11949921 190 190 190
2.90190005 -1.71580005 18.27809906 210 210 210
2.91289997 -1.72940004 18.22610092 216 216 216
3.03379989 -2.35060000 15.85519981 199 199 199
3.12579989 -1.95570004 17.38430023 162 162 162
3.15380001 -1.84909999 17.79770088 172 172 172
3.45609999 -2.13750005 16.81170082 215 215 215
3.46729994 -2.13930011 16.81089973 202 202 202
3.48760009 -2.29310012 16.24340057 207 207 207
3.74710011 -1.71889997 18.54800034 189 189 189
4.77729988 -2.05049992 18.58569908 190 190 190
5.57989979 -2.11330009 19.67130089 204 204 204
5.59049988 -2.12129998 19.66510010 196 196 196
5.90049982 -3.05340004 17.49230003 188 188 188
2.56279993 -2.26469994 16.03280067 192 192 192
2.69770002 -1.55019999 18.73909950 181 181 181
2.92510009 -1.69250000 18.18479919 211 211 211
2.93740010 -1.68900001 18.19879913 189 189 189
2.95050001 -1.68159997 18.22750092 123 123 123
3.03469992 -2.31750011 15.82289982 201 201 201
3.12789989 -1.91380000 17.37010002 184 184 184
3.47009993 -2.10969996 16.75639915 207 207 207
3.48119998 -2.11299992 16.74959946 217 217 217
3.49259996 -2.11470008 16.74920082 213 213 213
3.50359988 -2.11870003 16.74029922 163 163 163
3.51909995 -2.10299993 16.80669975 124 124 124
3.49309993 -2.25440001 16.22960091 207 207 207
3.50390005 -2.25799990 16.22249985 116 116 116
4.82600021 -2.72219992 16.21229935 225 225 225
2.12430000 -2.32859993 15.80850029 188 188 188
3.02530003 -2.28010011 15.80560017 163 163 163
3.03649998 -2.27859998 15.81330013 128 128 128
3.11910009 -1.86640000 17.37479973 206 206 206
3.51929998 -2.08500004 16.70870018 224 224 224
3.52940011 -2.09130001 16.69090080 208 208 208
3.50990009 -2.21770000 16.21520042 211 211 211
3.75790000 -1.69330001 18.28619957 220 220 220
3.95309997 -2.00929999 17.28190041 223 223 223
4.32310009 -1.78799999 18.41329956 142 142 142
4.58209991 -1.60819995 19.32150078 209 209 209
4.84439993 -2.68569994 16.20509911 227 227 227
4.85580015 -2.68919992 16.21229935 211 211 211
5.19169998 -2.79349995 16.46389961 208 208 208
5.56129980 -2.58299994 17.81030083 201 201 201
1.62580001 -2.15840006 16.67379951 179 179 179
3.06320000 -1.80130005 17.43639946 124 124 124
3.02629995 -2.24640012 15.77620029 198 198 198
3.51650000 -2.17490005 16.21710014 184 184 184
3.60430002 -2.06180000 16.67860031 92 92 92
3.61700010 -2.05990005 16.69309998 176 176 176
3.78620005 -1.66810000 18.21809959 201 201 201
3.79949999 -1.66810000 18.22660065 188 188 188
3.94989991 -1.96850002 17.25799942 227 227 227
3.96059990 -1.97360003 17.24860001 164 164 164
4.61059999 -1.24740005 20.41710091 158 158 158
4.62349987 -1.25399995 20.40740013 197 197 197
4.59689999 -1.56210005 19.31209946 218 218 218
4.58790016 -1.61090004 19.32299995 196 196 196
4.66410017 -2.74440002 15.57779980 209 209 209
5.19229984 -2.76699996 16.39030075 217 217 217
5.20219994 -2.77259994 16.39150047 201 201 201
5.74429989 -2.17720008 19.21549988 214 214 214
5.56629992 -2.54959989 17.75180054 202 202 202
5.67920017 -2.48860002 18.15259933 225 225 225
1.60150003 -2.10940003 16.71100044 178 178 178
1.61819994 -2.13429999 16.60379982 117 117 117
1.68200004 -2.16190004 16.44319916 204 204 204
2.10430002 -2.15529990 16.15049934 171 171 171
2.49510002 -1.47189999 18.52160072 192 192 192
2.50760007 -1.52030003 18.33839989 127 127 127
3.02749991 -2.21059990 15.75500011 200 200 200
3.52360010 -2.13030005 16.22599983 166 166 166
3.53489995 -2.13140011 16.22800064 208 208 208
3.59710002 -2.02699995 16.63920021 184 184 184
3.60820007 -2.03099990 16.63150024 232 232 232
3.61940002 -2.03489995 16.62380028 237 237 237
3.63080001 -2.03609991 16.62630081 228 228 228
3.64339995 -2.03449988 16.63969994 165 165 165
3.80119991 -1.64569998 18.13290024 201 201 201
3.81259990 -1.65069997 18.12240028 203 203 203
3.82540011 -1.65160000 18.12759972 177 177 177
3.93680000 -1.91890001 17.25760078 212 212 212
3.94700003 -1.92610002 17.24020004 224 224 224
4.59600019 -1.55209994 19.16160011 192 192 192
4.60249996 -1.56640005 19.30739975 207 207 207
4.66930008 -2.70709991 15.55900002 165 165 165
4.67770004 -2.71409988 15.54860020 194 194 194
5.19740009 -2.73410010 16.34600067 216 216 216
5.21059990 -2.73559999 16.36529922 196 196 196
5.51900005 -2.44309998 17.81620026 194 194 194
5.76560020 -2.14170003 19.18129921 216 216 216
5.58650017 -2.51710010 17.72069931 201 201 201
5.69820023 -2.45810008 18.10950089 133 133 133
5.71210003 -2.46079993 18.12820053 189 189 189
1.59309995 -2.08139992 16.65570068 182 182 182
2.06570005 -2.13809991 16.07839966 154 154 154
2.07570004 -2.12820005 16.10890007 203 203 203
2.56180000 -1.19910002 19.32810020 158 158 158
3.12969995 -1.61619997 17.78669930 139 139 139
3.53270006 -2.07730007 16.26519966 164 164 164
3.54220009 -2.08629990 16.23819923 188 188 188
3.62529993 -1.99689996 16.60409927 185 185 185
3.64689994 -2.00600004 16.58449936 215 215 215
3.82030010 -1.46280003 18.62140083 195 195 195
3.80439997 -1.61800003 18.06060028 178 178 178
3.81640005 -1.62109995 18.05719948 208 208 208
3.82940006 -1.62199998 18.06250000 186 186 186
3.94519997 -1.87950003 17.23839951 224 224 224
3.95770001 -1.88030005 17.24530029 206 206 206
3.96370006 -1.89989996 17.18149948 180 180 180
4.22480011 -1.68340003 18.15830040 156 156 156
4.23909998 -1.68180001 18.17690086 177 177 177
4.68330002 -2.67600012 15.53359985 208 208 208
4.69320011 -2.68059993 15.53320026 199 199 199
5.55459976 -2.38919997 17.87630081 192 192 192
5.78100014 -2.11389995 19.11409950 203 203 203
5.67469978 -2.27349997 18.44249916 93 93 93
5.59679985 -2.47729993 17.69269943 217 217 217
5.73180008 -2.42960000 18.08880043 218 218 218
1.58589995 -2.05949998 16.57880020 120 120 120
1.59640002 -2.05150008 16.59740067 107 107 107
1.79480004 -2.02589989 16.51700020 192 192 192
2.04740000 -2.09770012 16.08020020 205 205 205
2.51399994 -1.40900004 18.38940048 193 193 193
3.32969999 -2.01370001 16.24500084 141 141 141
3.48009992 -1.70140004 17.42090034 222 222 222
3.82999992 -1.60399997 17.95569992 161 161 161
3.94059992 -1.84070003 17.20709991 204 204 204
3.95390010 -1.83949995 17.22179985 236 236 236
3.96530008 -1.84370005 17.21590042 137 137 137
3.97160006 -1.86300004 17.15399933 198 198 198
5.15490007 -2.66190004 16.18689919 194 194 194
5.16330004 -2.67020011 16.17639923 204 204 204
5.17469978 -2.67409992 16.18420029 208 208 208
5.73829985 -2.41470003 17.97769928 184 184 184
1.58949995 -2.03110003 16.51589966 182 182 182
1.74070001 -2.00480008 16.47649956 191 191 191
2.01819992 -2.06699991 16.05380058 180 180 180
2.55019999 -1.37629998 18.32309914 171 171 171
2.56290007 -1.39890003 18.23909950 202 202 202
3.30669999 -1.58340001 17.61079979 179 179 179
3.31690001 -1.59840000 17.56069946 188 188 188
3.32769990 -1.61220002 17.51479912 183 183 183
3.33290005 -1.97829998 16.21850014 172 172 172
3.48699999 -1.65050006 17.43939972 183 183 183
3.50200009 -1.64110005 17.47879982 153 153 153
3.69589996 -1.93130004 16.56380081 178 178 178
3.95939994 -1.80920005 17.16920090 209 209 209
4.92840004 -1.91559994 18.01819992 204 204 204
4.94019985 -1.92139995 18.01569939 169 169 169
5.11499977 -1.76870000 18.74729919 187 187 187
4.77519989 -2.65639997 15.44390011 200 200 200
5.07889986 -2.62319994 16.02709961 223 223 223
5.01370001 -2.79679990 15.39229965 220 220 220
5.15089989 -2.64140010 16.09289932 205 205 205
5.16190004 -2.64540005 16.09970093 208 208 208
1.59730005 -2.02440000 16.37389946 217 217 217
1.65610003 -2.01679993 16.34790039 191 191 191
3.12940001 -1.62940001 17.23959923 206 206 206
3.34559989 -1.56060004 17.53809929 188 188 188
3.35739994 -1.56809998 17.51549911 205 205 205
3.37010002 -1.57110000 17.50959969 221 221 221
3.52419996 -2.06469989 15.85050011 195 195 195
3.58229995 -1.97619998 16.18860054 211 211 211
3.69039989 -1.89100003 16.54549980 226 226 226
3.70219994 -1.89400005 16.54240036 235 235 235
3.82850003 -1.53079998 17.87299919 209 209 209
4.82999992 -1.35360003 19.54980087 150 150 150
4.83900023 -1.36699998 19.51619911 155 155 155
4.85780001 -1.39339995 19.45159912 160 160 160
4.95800018 -1.88010001 18.00519943 210 210 210
4.82830000 -2.64720011 15.41049957 214 214 214
4.83790016 -2.65289998 15.40740013 194 194 194
5.11350012 -2.60719991 15.98560047 211 211 211
5.14559984 -2.62190008 15.99489975 210 210 210
5.15770006 -2.62509990 16.00589943 196 196 196
5.62080002 -2.34389997 17.63890076 227 227 227
6.17129993 -1.97800004 19.70159912 177 177 177
1.49489999 -1.95690000 16.54879951 171 171 171
1.88559997 -1.97529995 16.15909958 193 193 193
2.98679996 -1.27040005 18.32229996 194 194 194
3.13159990 -1.58640003 17.23049927 228 228 228
3.19219995 -1.43659997 17.76729965 183 183 183
3.51900005 -2.02060008 15.85289955 190 190 190
3.52920008 -2.02870011 15.83030033 190 190 190
3.58759999 -1.93959999 16.16749954 199 199 199
3.70860004 -1.85590005 16.52379990 216 216 216
3.72040009 -1.85899997 16.52050018 232 232 232
3.73340011 -1.85609996 16.53860092 206 206 206
3.84260011 -1.51310003 17.77759933 201 201 201
3.94309998 -1.71130002 17.17250061 205 205 205
3.96280003 -1.73150003 17.11870003 201 201 201
3.98079991 -1.71640003 17.18280029 169 169 169
4.06370020 -1.74520004 17.15060043 67 67 67
4.85340023 -1.32560003 19.48830032 196 196 196
4.97480011 -1.84060001 17.98780060 200 200 200
5.02769995 -2.72510004 15.34939957 201 201 201
5.03800011 -2.73029995 15.35099983 216 216 216
5.14349985 -2.59789991 15.91769981 212 212 212
5.15539980 -2.60120010 15.92749977 198 198 198
5.17379999 -2.59559989 15.97469997 73 73 73
5.80219984 -1.96619999 18.88899994 207 207 207
5.81180000 -1.97619998 18.87639999 211 211 211
5.82439995 -1.98150003 18.88330078 207 207 207
5.65679979 -2.31100011 17.63850021 205 205 205
5.72200012 -2.31139994 17.75460052 160 160 160
5.72580004 -2.32809997 17.71400070 206 206 206
6.12650013 -1.91380000 19.62100029 189 189 189
6.18240023 -1.93490005 19.66580009 197 197 197
1.66600001 -2.03730011 15.96059990 188 188 188
1.67890000 -2.04139996 15.93589973 178 178 178
1.69089997 -2.04390001 15.91699982 164 164 164
1.81959999 -2.11969995 15.55270004 91 91 91
1.84159994 -2.11179996 15.56369972 179 179 179
1.86010003 -2.16409993 15.36870003 205 205 205
2.94350004 -1.99020004 15.63990021 198 198 198
3.13350010 -1.54560006 17.21330070 224 224 224
3.19479990 -1.39260006 17.75639915 177 177 177
3.55970001 -0.98259997 19.28240013 192 192 192
3.51259995 -1.53610003 17.36219978 210 210 210
3.52110004 -1.55900002 17.28730011 200 200 200
3.59299994 -1.90320003 16.14609909 211 211 211
3.72889996 -1.81379998 16.52729988 208 208 208
3.73850012 -1.82360005 16.49990082 235 235 235
3.75029993 -1.82650006 16.49769974 220 220 220
3.93829989 -1.67009997 17.15010071 223 223 223
3.96819997 -1.70150006 17.06669998 183 183 183
5.01149988 -1.53489995 18.83340073 198 198 198
5.03879976 -1.51139998 18.94210052 176 176 176
4.98190022 -1.79059994 17.99049950 172 172 172
4.99760008 -1.78999996 18.01320076 205 205 205
5.04330015 -2.69610000 15.32199955 204 204 204
5.11030006 -2.61949992 15.65649986 157 157 157
5.15299988 -2.57769990 15.84939957 210 210 210
5.16569996 -2.58010006 15.86310005 190 190 190
5.81790018 -1.93780005 18.82810020 196 196 196
5.82849979 -1.94659996 18.82110023 214 214 214
5.84019995 -1.95319998 18.82239914 212 212 212
5.67479992 -2.28090000 17.59749985 225 225 225
5.72160006 -2.28430009 17.67140007 189 189 189
5.73029995 -2.29410005 17.65929985 203 203 203
5.97399998 -2.00729990 18.90609932 104 104 104
5.98969984 -2.00950003 18.92840004 113 113 113
6.50939989 -2.07610011 19.73940086 164 164 164
1.66740000 -1.99150002 15.96730042 185 185 185
1.71050000 -2.03489995 15.78320026 181 181 181
1.72239995 -2.03620005 15.76889992 145 145 145
1.77520001 -2.07240009 15.60340023 165 165 165
1.78719997 -2.07220006 15.59490013 206 206 206
1.79869998 -2.07389998 15.58040047 206 206 206
1.81050003 -2.07579994 15.56529999 177 177 177
1.90020001 -2.13829994 15.28619957 205 205 205
2.07590008 -2.19989991 14.96459961 130 130 130
2.94420004 -1.95319998 15.62409973 208 208 208
3.18350005 -1.34679997 17.74900055 172 172 172
3.27300000 -1.83159995 16.10820007 216 216 216
3.62019992 -1.51259995 17.33279991 134 134 134
3.54200006 -1.94560003 15.82970047 208 208 208
3.55080009 -2.00780010 15.62399960 158 158 158
3.59710002 -1.87170005 16.10759926 179 179 179
3.74539995 -1.78450000 16.48559952 205 205 205
3.75670004 -1.78970003 16.47509956 235 235 235
3.76909995 -1.79110003 16.47809982 215 215 215
5.00619984 -1.50520003 18.74979973 168 168 168
4.99060011 -1.56579995 18.54030037 211 211 211
5.02640009 -1.52579999 18.71069908 192 192 192
5.06799984 -1.47660005 18.91729927 160 160 160
5.00640011 -1.73670006 18.02779961 222 222 222
5.01380014 -1.75150001 17.99160004 213 213 213
5.15969992 -2.56150007 15.76599979 196 196 196
5.17409992 -2.56159997 15.78919983 178 178 178
5.83190012 -1.91149998 18.75939941 208 208 208
5.84520006 -1.91680002 18.76689911 205 205 205
5.69589996 -2.24679995 17.57430077 212 212 212
5.72469997 -2.25259995 17.60860062 212 212 212
5.73670006 -2.25839996 17.61359978 196 196 196
6.19229984 -2.51040006 17.79879951 153 153 153
1.66869998 -1.94649994 15.97080040 212 212 212
1.72739995 -2.01079988 15.70520020 209 209 209
2.09170008 -2.15910006 14.95779991 226 226 226
2.75990009 -1.07459998 18.49430084 137 137 137
3.15000010 -1.46420002 17.18090057 214 214 214
3.28819990 -1.72599995 16.32460022 194 194 194
3.28740001 -1.79719996 16.08279991 212 212 212
3.54870009 -1.90279996 15.83329964 205 205 205
3.55629992 -1.97070003 15.60970020 197 197 197
3.60360003 -1.83060002 16.10280037 210 210 210
3.75180006 -1.74730003 16.46439934 207 207 207
3.76360011 -1.75109994 16.45890045 237 237 237
3.86870003 -1.47109997 17.45319939 189 189 189
5.02510023 -1.49000001 18.65270042 206 206 206
5.02360010 -1.52199996 18.55150032 206 206 206
5.04659986 -1.50810003 18.62360001 200 200 200
5.03410006 -1.70560002 17.99839973 230 230 230
5.04640007 -1.71109998 17.99760056 157 157 157
5.83690023 -1.87360001 18.70879936 186 186 186
5.84619999 -1.88489997 18.69280052 213 213 213
5.86159992 -1.88759995 18.71120071 197 197 197
5.71799994 -2.21129990 17.55649948 203 203 203
5.72919989 -2.21810007 17.55710030 220 220 220
6.08160019 -1.85669994 19.17989922 203 203 203
6.10580015 -1.84889996 19.24469948 212 212 212
6.27029991 -2.42190003 18.02610016 199 199 199
3.00539994 -1.87520003 15.61240005 207 207 207
3.15129995 -1.42859995 17.14620018 201 201 201
3.30380011 -1.75619996 16.08099937 167 167 167
3.55399990 -1.86549997 15.81770039 210 210 210
3.60969996 -1.79110003 16.09259987 216 216 216
3.74650002 -1.70690000 16.44709969 160 160 160
3.75799990 -1.71099997 16.44039917 230 230 230
3.77020001 -1.71329999 16.44000053 233 233 233
3.86899996 -1.45580006 17.34770012 186 186 186
4.06190014 -1.32360005 17.90880013 209 209 209
5.04360008 -1.47430003 18.55809975 211 211 211
5.05159998 -1.48959994 18.52109909 205 205 205
5.06599998 -1.49230003 18.53070068 196 196 196
5.08239985 -1.49039996 18.55739975 141 141 141
5.06129980 -1.67530000 17.96619987 178 178 178
5.86700010 -1.75390005 18.93129921 206 206 206
5.87150002 -1.84370005 18.68670082 187 187 187
5.73799992 -2.17869997 17.52739906 219 219 219
5.74949980 -2.18510008 17.52969933 206 206 206
5.56190014 -2.62739992 15.98859978 87 87 87
1.66129994 -1.86459994 15.95839977 216 216 216
2.16129994 -2.08800006 14.89150047 226 226 226
2.98130012 -1.26719999 17.51239967 83 83 83
3.30760002 -1.71560001 16.07340050 224 224 224
3.55870008 -1.83080006 15.79319954 191 191 191
3.61549997 -1.75279999 16.07819939 208 208 208
3.73860002 -1.67359996 16.40500069 177 177 177
3.75309992 -1.66880000 16.42930031 227 227 227
3.76510000 -1.67110002 16.42869949 237 237 237
5.06290007 -1.45899999 18.46479988 84 84 84
5.07539988 -1.46560001 18.46030045 202 202 202
5.08669996 -1.47319996 18.45129967 203 203 203
5.10120010 -1.47669995 18.45899963 180 180 180
5.10050011 -1.65129995 17.93090057 227 227 227
5.11299992 -1.65629995 17.93239975 155 155 155
5.08330011 -2.55010009 15.26589966 211 211 211
5.09329987 -2.55660009 15.26290035 198 198 198
5.85309982 -1.81420004 18.57519913 195 195 195
5.86110020 -1.82630002 18.55480003 197 197 197
5.74679995 -2.13899994 17.49889946 193 193 193
5.75710011 -2.14720011 17.49370003 226 226 226
5.77820015 -2.14129996 17.54619980 98 98 98
5.58599997 -2.59190011 15.98830032 149 149 149
1.65199995 -1.82579994 15.94929981 103 103 103
1.66330004 -1.81750000 15.96800041 126 126 126
2.10770011 -1.69470000 16.09679985 211 211 211
2.16770005 -2.05189991 14.87520027 159 159 159
2.17880011 -2.05329990 14.86559963 221 221 221
2.19099998 -2.05340004 14.85980034 236 236 236
2.73280001 -1.78880000 15.61330032 138 138 138
3.31270003 -1.66820002 16.08889961 202 202 202
3.32540011 -1.66980004 16.08749962 165 165 165
3.40289998 -1.78629994 15.73149967 161 161 161
3.62089992 -1.71599996 16.05870056 193 193 193
3.76130009 -1.42240000 17.08760071 217 217 217
3.77340007 -1.42939997 17.07180023 199 199 199
3.78559995 -1.43359995 17.06469917 193 193 193
3.74049997 -1.65260005 16.32939911 129 129 129
3.76049995 -1.62759995 16.42210007 229 229 229
3.77290010 -1.62890005 16.42519951 230 230 230
5.26310015 -0.89969999 20.23679924 169 169 169
5.32320023 -0.91659999 20.25810051 204 204 204
5.08620024 -1.43599999 18.40119934 116 116 116
5.09399986 -1.45060003 18.36700058 197 197 197
5.10690022 -1.45720005 18.36300087 200 200 200
5.12069988 -1.46109998 18.36870003 175 175 175
5.12209988 -1.63150001 17.86109924 194 194 194
5.86399984 -1.79200006 18.49370003 209 209 209
5.76620007 -2.10700011 17.46750069 226 226 226
5.77759981 -2.11380005 17.46809959 193 193 193
5.50050020 -2.57669997 15.74180031 153 153 153
5.89069986 -2.39409995 16.91869926 173 173 173
6.24459982 -2.23079991 17.99749947 213 213 213
6.25369978 -2.51780009 17.29199982 200 200 200
1.65359998 -1.77610004 15.96739960 114 114 114
2.10150003 -1.64789999 16.11079979 210 210 210
2.19779992 -2.01740003 14.84350014 206 206 206
2.20919991 -2.01859999 14.83469963 233 233 233
2.22119999 -2.01769996 14.83269978 229 229 229
2.65820003 -1.16849995 17.53779984 151 151 151
2.70070004 -1.13890004 17.63100052 171 171 171
3.33010006 -1.62500000 16.09370041 218 218 218
3.40799999 -1.74430001 15.73169994 187 187 187
3.75769997 -1.42149997 16.93889999 200 200 200
3.77099991 -1.42369998 16.93899918 206 206 206
3.78349996 -1.42680001 16.93600082 205 205 205
3.76510000 -1.54690003 16.54000092 144 144 144
3.76780009 -1.58679998 16.41349983 230 230 230
3.78029990 -1.58800006 16.41659927 233 233 233
4.17589998 -1.61020005 16.62210083 183 183 183
5.11299992 -1.43690002 18.27160072 198 198 198
5.12599993 -1.44260001 18.27079964 200 200 200
5.14820004 -1.42999995 18.33580017 164 164 164
5.16890001 -1.59590006 17.87179947 223 223 223
5.11850023 -2.46379995 15.29899979 199 199 199
5.11789989 -2.48629999 15.23470020 200 200 200
5.12890005 -2.49160004 15.23670006 193 193 193
5.15420008 -2.47490001 15.32219982 216 216 216
5.77780008 -2.06229997 17.45770073 197 197 197
5.78649998 -2.07380009 17.44099998 233 233 233
6.01359987 -2.05069995 17.89159966 155 155 155
6.25689983 -2.21099997 17.91720009 189 189 189
6.23820019 -2.52839994 17.08860016 193 193 193
6.67509985 -2.83310008 17.27409935 203 203 203
1.64370000 -1.73329997 15.97150040 203 203 203
2.09500003 -1.59819996 16.13389969 160 160 160
2.22830009 -1.98329997 14.81130028 230 230 230
2.23979998 -1.98290002 14.80840015 236 236 236
2.25200009 -1.98319995 14.80249977 212 212 212
2.70079994 -1.06340003 17.72389984 201 201 201
3.00850010 -1.16770005 17.37919998 211 211 211
3.02119994 -1.17089999 17.36989975 215 215 215
3.03469992 -1.17659998 17.35280037 215 215 215
3.04649997 -1.19340003 17.29910088 201 201 201
3.33410001 -1.58399999 16.08709908 205 205 205
3.42519999 -1.70679998 15.72189999 208 208 208
3.59899998 -1.72340000 15.74489975 207 207 207
3.77090001 -1.40950000 16.83709908 200 200 200
3.78200006 -1.41810000 16.81590080 205 205 205
3.79469991 -1.42219996 16.80990028 207 207 207
3.77710009 -1.53859997 16.42930031 200 200 200
3.78710008 -1.54929996 16.40119934 234 234 234
4.18300009 -1.57910001 16.58079910 150 150 150
4.46129990 -1.09539998 18.31040001 180 180 180
5.12080002 -1.41369998 18.19190025 186 186 186
5.13250017 -1.42170000 18.18289948 213 213 213
5.14459991 -1.42809999 18.17889977 203 203 203
5.12260008 -2.43079996 15.26620007 170 170 170
5.12620020 -2.44610000 15.22889996 200 200 200
5.13530016 -2.45420003 15.22000027 208 208 208
5.14709997 -2.45849991 15.22579956 190 190 190
5.16470003 -2.45339990 15.26659966 189 189 189
5.78140020 -1.74670005 18.17009926 158 158 158
5.83239985 -1.69910002 18.38080025 197 197 197
5.84390020 -1.70790005 18.37490082 212 212 212
5.79799986 -2.02909994 17.43140030 193 193 193
5.80719995 -2.04010010 17.41699982 227 227 227
5.82289982 -2.04159999 17.43930054 106 106 106
5.60900021 -2.46639991 15.95040035 191 191 191
6.21099997 -2.10999990 17.93709946 223 223 223
6.26700020 -2.31669998 17.52050018 178 178 178
6.67670012 -2.79089999 17.22669983 206 206 206
6.68480015 -2.80159998 17.22010040 195 195 195
6.69859982 -2.80780005 17.23590088 195 195 195
1.73220003 -1.75500000 15.69540024 159 159 159
2.16240001 -1.91949999 14.91619968 86 86 86
2.23530006 -1.94420004 14.80580044 167 167 167
2.24780011 -1.94930005 14.78429985 218 218 218
2.25920010 -1.94889998 14.78149986 237 237 237
2.27099991 -1.94729996 14.78230000 226 226 226
2.65030003 -1.19719994 17.13839912 157 157 157
2.87439990 -0.91939998 18.02869987 203 203 203
2.95460010 -0.81480002 18.37000084 198 198 198
3.15210009 -1.19500005 17.15769958 187 187 187
3.43099999 -1.66199994 15.73110008 147 147 147
3.44260001 -1.66559994 15.72410011 142 142 142
3.55809999 -1.66589999 15.77210045 160 160 160
3.56100011 -1.70720005 15.64200020 136 136 136
3.58340001 -1.72080004 15.60939980 185 185 185
3.60349989 -1.69050002 15.71539974 203 203 203
3.78959990 -1.37469995 16.81180000 187 187 187
3.79900002 -1.39199996 16.76250076 204 204 204
4.47559977 -1.04550004 18.31830025 143 143 143
5.14029980 -1.36819994 18.19300079 102 102 102
5.14150000 -1.39639997 18.11219978 204 204 204
5.15290022 -1.40429997 18.10309982 211 211 211
5.16569996 -1.41110003 18.09900093 197 197 197
5.14270020 -2.41520000 15.20919991 201 201 201
5.17700005 -2.42910004 15.22249985 184 184 184
5.80210018 -1.65980005 18.28470039 182 182 182
5.82950020 -1.67149997 18.29540062 211 211 211
5.84429979 -1.67519999 18.30839920 209 209 209
5.80240011 -2.01679993 17.32369995 210 210 210
1.84500003 -1.87370002 15.10229969 151 151 151
2.06270003 -1.89069998 14.92440033 210 210 210
2.07450008 -1.88999999 14.92090034 222 222 222
2.08579993 -1.88730001 14.92430019 188 188 188
2.27920008 -1.91569996 14.75259972 224 224 224
2.29069996 -1.91659999 14.74540043 220 220 220
2.30270004 -1.91639996 14.74199963 198 198 198
3.35540009 -1.50020003 16.08370018 217 217 217
3.38129997 -1.50339997 16.08169937 218 218 218
3.39339995 -1.50689995 16.07469940 207 207 207
3.56010008 -1.64230001 15.71199989 186 186 186
3.58949995 -1.68110001 15.60350037 208 208 208
4.08690023 -1.43130004 16.67939949 168 168 168
5.15799999 -1.35689998 18.09259987 194 194 194
5.21070004 -1.40910006 18.00650024 220 220 220
5.56519985 -1.34510005 18.65320015 204 204 204
5.17999983 -2.39750004 15.18470001 210 210 210
5.19309998 -2.39930010 15.19929981 185 185 185
5.81820011 -1.62979996 18.23629951 214 214 214
5.82670021 -1.64320004 18.21319962 215 215 215
5.80170012 -1.70400000 18.01049995 201 201 201
5.84200001 -1.98150003 17.33569908 225 225 225
6.83850002 -2.64000010 17.61269951 188 188 188
1.79180002 -1.86319995 15.03849983 192 192 192
1.83990002 -1.85469997 15.03439999 225 225 225
2.26799989 -1.68589997 15.36439991 82 82 82
2.28369999 -1.79289997 15.01630020 145 145 145
2.29900002 -1.88569999 14.71399975 203 203 203
2.34640002 -1.89139998 14.68060017 206 206 206
3.24099994 -1.19739997 16.87330055 195 195 195
3.25519991 -1.19330001 16.88929939 171 171 171
3.31500006 -1.63399994 15.51119995 219 219 219
3.32710004 -1.63670003 15.50660038 196 196 196
3.43650007 -1.47140002 16.06399918 188 188 188
3.44810009 -1.47790003 16.04780006 225 225 225
3.46110010 -1.48109996 16.04249954 202 202 202
3.60890007 -1.63960004 15.60919952 212 212 212
3.62719989 -1.61839998 15.68410015 202 202 202
5.26879978 -1.41349995 17.91469955 206 206 206
5.28149986 -1.41849995 17.91659927 187 187 187
5.11649990 -2.17120004 15.58629990 135 135 135
5.15150023 -2.34599996 15.15579987 164 164 164
5.16120005 -2.35430002 15.14719963 211 211 211
5.17100000 -2.36050010 15.14459991 216 216 216
5.18240023 -2.36570001 15.14719963 213 213 213
5.19449997 -2.36999989 15.15359974 181 181 181
5.84299994 -1.58720005 18.23550034 153 153 153
5.82310009 -1.64139998 18.06019974 191 191 191
5.84110022 -1.64110005 18.08839989 190 190 190
5.85720015 -1.64310002 18.10779953 196 196 196
6.61339998 -2.65009999 16.98229980 208 208 208
6.83879995 -2.61590004 17.52120018 150 150 150
1.62650001 -1.83910000 15.10079956 205 205 205
1.67509997 -1.83440006 15.07950020 225 225 225
1.68729997 -1.83150005 15.07979965 219 219 219
1.91670001 -1.70650005 15.32649994 180 180 180
2.02670002 -1.81480002 14.92539978 128 128 128
2.03780007 -1.80920005 14.93750000 214 214 214
2.26530004 -1.68959999 15.22119999 149 149 149
2.34290004 -1.85300004 14.67759991 188 188 188
2.35509992 -1.86220002 14.64480019 218 218 218
2.36689997 -1.86350000 14.63729954 222 222 222
2.37899995 -1.86350000 14.63360023 216 216 216
2.39070010 -1.86479998 14.62660027 197 197 197
3.25480008 -1.17289996 16.80970001 212 212 212
3.26869988 -1.17540002 16.80520058 204 204 204
3.28130007 -1.18089998 16.79070091 130 130 130
3.31800008 -1.59870005 15.49079990 165 165 165
3.33130002 -1.59580004 15.50419998 187 187 187
3.34389997 -1.59679997 15.50479984 203 203 203
3.35649991 -1.60010004 15.49849987 220 220 220
3.64350009 -1.48150003 15.98260021 218 218 218
3.62980008 -1.59379995 15.62870026 200 200 200
4.97219992 -0.80040002 19.19680023 80 80 80
5.11439991 -1.13929999 18.36190033 160 160 160
5.29069996 -1.39429998 17.84639931 196 196 196
5.31689978 -1.43579996 17.76300049 211 211 211
5.32940006 -1.44340003 17.75779915 212 212 212
5.11259985 -2.17120004 15.45100021 195 195 195
5.16370010 -2.32139993 15.11359978 206 206 206
5.17449999 -2.32809997 15.11110020 218 218 218
5.18520021 -2.33310008 15.11299992 220 220 220
5.19729996 -2.33739996 15.11900043 201 201 201
5.82030010 -1.61290002 17.98150063 200 200 200
5.84009981 -1.63580000 17.95050049 203 203 203
5.85650015 -1.63740003 17.97130013 188 188 188
6.01779985 -1.80760002 17.78109932 189 189 189
6.63819981 -2.62240005 16.95470047 200 200 200
6.85279989 -2.59870005 17.44429970 145 145 145
1.15499997 -1.65269995 15.95860004 198 198 198
1.46239996 -1.78240001 15.27690029 203 203 203
1.47580004 -1.78499997 15.25780010 217 217 217
1.62660003 -1.78279996 15.14560032 154 154 154
1.90779996 -1.64909995 15.37950039 190 190 190
2.01939988 -1.76259995 14.96490002 179 179 179
2.03119993 -1.76370001 14.95549965 216 216 216
3.25589991 -1.14359999 16.75930023 174 174 174
3.26979995 -1.14619994 16.75440025 215 215 215
3.28279996 -1.14940000 16.74729919 218 218 218
3.29629993 -1.15129995 16.74469948 207 207 207
3.39790010 -1.56850004 15.47939968 212 212 212
3.65009999 -1.43959999 15.97980022 208 208 208
3.63709998 -1.54929996 15.63710022 164 164 164
4.99030018 -0.74989998 19.20120049 128 128 128
5.41970015 -1.12650001 18.60639954 172 172 172
5.44159985 -1.11679995 18.66080093 173 173 173
5.34390020 -1.41050005 17.71999931 223 223 223
5.35720015 -1.41610003 17.72139931 210 210 210
5.16730022 -2.28719997 15.08539963 197 197 197
5.17799997 -2.29360008 15.08349991 217 217 217
5.18909979 -2.29999995 15.08189964 216 216 216
5.20079994 -2.30360007 15.08920002 195 195 195
5.82159996 -1.63000000 17.78960037 192 192 192
5.83249998 -1.63979995 17.78039932 189 189 189
5.84840012 -1.64219999 17.79809952 172 172 172
1.33019996 -1.72300005 15.44229984 218 218 218
1.34270000 -1.72070003 15.43799973 219 219 219
1.35660005 -1.72350001 15.41730022 147 147 147
1.46309996 -1.73539996 15.28950024 211 211 211
1.61520004 -1.73199999 15.18089962 188 188 188
3.29800010 -1.11930001 16.70359993 211 211 211
3.31139994 -1.12590003 16.68639946 218 218 218
3.32520008 -1.12530005 16.69190025 197 197 197
3.37549996 -1.15910006 16.60129929 120 120 120
3.66409993 -1.42359996 15.90159988 189 189 189
3.65599990 -1.51119995 15.63129997 117 117 117
4.99280024 -0.65630001 19.31520081 109 109 109
5.00419998 -0.67009997 19.28630066 82 82 82
5.40140009 -1.12039995 18.44720078 165 165 165
5.40939999 -1.13709998 18.41060066 206 206 206
5.42180014 -1.14409995 18.40640068 202 202 202
5.37060022 -1.38530004 17.67670059 213 213 213
5.37970018 -1.39740002 17.65509987 218 218 218
5.39300013 -1.40359998 17.65500069 208 208 208
5.19290018 -2.26500010 15.05650043 207 207 207
5.20569992 -2.26880002 15.06449986 211 211 211
5.21460009 -2.27699995 15.05550003 156 156 156
5.88999987 -1.82239997 17.25079918 198 198 198
6.40210009 -1.57000005 18.71240044 185 185 185
1.45220006 -1.69459999 15.29249954 174 174 174
2.05460000 -1.65980005 15.01280022 171 171 171
2.06760001 -1.65810001 15.01220036 207 207 207
2.52589989 -1.79050004 14.45909977 233 233 233
3.31690001 -1.07060003 16.71780014 196 196 196
3.32960010 -1.07749999 16.70000076 198 198 198
3.39199996 -1.12779999 16.56360054 202 202 202
3.40310001 -1.14339995 16.51919937 194 194 194
3.41639996 -1.14680004 16.51300049 200 200 200
3.43070006 -1.14699996 16.51670074 210 210 210
3.44610000 -1.13800001 16.54899979 121 121 121
3.72760010 -0.69730002 17.99239922 169 169 169
3.67269993 -1.37390006 15.92360020 147 147 147
5.01620007 -0.63309997 19.24480057 206 206 206
5.20970011 -2.23340011 15.04030037 195 195 195
5.22119999 -2.23939991 15.04100037 136 136 136
5.84989977 -1.60169995 17.61510086 181 181 181
5.85680008 -1.61710000 17.58569908 195 195 195
