-0.67330003 -4.95979977 0.25330001 205 205 205 1233.000000
-0.68580002 -4.96199989 0.25360000 231 231 231 1649.000000
-0.69800001 -4.96280003 0.25389999 221 221 221 1489.000000
-0.71219999 -4.96999979 0.25459999 253 253 253 2001.000000
-0.72509998 -4.97650003 0.25510001 200 200 200 1153.000000
-0.73920000 -4.98719978 0.25600001 201 201 201 1169.000000
-0.75559998 -5.00680017 0.25720000 195 195 195 1073.000000
-0.77139997 -5.03009987 0.25870001 183 183 183 881.000000
-0.78740001 -5.05350018 0.26019999 181 181 181 849.000000
-0.44330001 -5.14190006 0.24490000 205 205 205 1233.000000
-0.45060000 -5.08090019 0.24230000 212 212 212 1345.000000
-0.46140000 -5.05999994 0.24150001 211 211 211 1329.000000
-0.47170001 -5.04589987 0.24100000 206 206 206 1249.000000
-0.48280001 -5.03189993 0.24060000 203 203 203 1201.000000
-0.49439999 -5.01590014 0.24010000 205 205 205 1233.000000
-0.50500000 -5.00409985 0.23980001 224 224 224 1537.000000
-0.51660001 -4.99770021 0.23970000 227 227 227 1585.000000
-0.52880001 -4.98979998 0.23960000 226 226 226 1569.000000
-0.54000002 -4.98509979 0.23950000 238 238 238 1761.000000
-0.55210000 -4.98229980 0.23960000 231 231 231 1649.000000
-0.56470001 -4.97900009 0.23970000 229 229 229 1617.000000
-0.57569999 -4.97419977 0.23970000 224 224 224 1537.000000
-0.58759999 -4.97200012 0.23989999 219 219 219 1457.000000
-0.59979999 -4.96799994 0.23989999 223 223 223 1521.000000
-0.61150002 -4.96350002 0.23989999 255 255 255 2033.000000
-0.62330002 -4.96070004 0.23999999 218 218 218 1441.000000
-0.63569999 -4.95669985 0.24010000 220 220 220 1473.000000
-0.64789999 -4.95760012 0.24040000 255 255 255 2033.000000
-0.65950000 -4.95489979 0.24050000 212 212 212 1345.000000
-0.67299998 -4.95639992 0.24079999 203 203 203 1201.000000
-0.68550003 -4.95849991 0.24120000 208 208 208 1281.000000
-0.69819999 -4.96330023 0.24169999 223 223 223 1521.000000
-0.71200001 -4.96770000 0.24210000 255 255 255 2033.000000
-0.72490001 -4.97389984 0.24270000 179 179 179 817.000000
-0.73920000 -4.98589993 0.24349999 185 185 185 913.000000
-0.75510001 -5.00260019 0.24460000 164 164 164 577.000000
-0.77090001 -5.02570009 0.24600001 182 182 182 865.000000
-0.78719997 -5.05130005 0.24750000 166 166 166 609.000000
-0.44369999 -5.14470005 0.23240000 188 188 188 961.000000
-0.45100001 -5.08330011 0.22990000 198 198 198 1121.000000
-0.46160001 -5.06050014 0.22910000 217 217 217 1425.000000
-0.47189999 -5.04610014 0.22860000 212 212 212 1345.000000
-0.48300001 -5.03210020 0.22820000 198 198 198 1121.000000
-0.49450001 -5.01529980 0.22770000 207 207 207 1265.000000
-0.50489998 -5.00229979 0.22730000 204 204 204 1217.000000
-0.51670003 -4.99709988 0.22730000 242 242 242 1825.000000
-0.52890003 -4.98929977 0.22720000 221 221 221 1489.000000
-0.54020000 -4.98619986 0.22730000 250 250 250 1953.000000
-0.55210000 -4.98050022 0.22730000 232 232 232 1665.000000
-0.56470001 -4.97739983 0.22740000 226 226 226 1569.000000
-0.57590002 -4.97440004 0.22750001 237 237 237 1745.000000
-0.58759999 -4.97060013 0.22750001 224 224 224 1537.000000
-0.60000002 -4.96750021 0.22759999 216 216 216 1409.000000
-0.61180001 -4.96409988 0.22770000 255 255 255 2033.000000
-0.62360001 -4.96129990 0.22780000 219 219 219 1457.000000
-0.63599998 -4.95749998 0.22790000 224 224 224 1537.000000
-0.64800000 -4.95669985 0.22810000 255 255 255 2033.000000
-0.65979999 -4.95569992 0.22830001 220 220 220 1473.000000
-0.67330003 -4.95769978 0.22860000 196 196 196 1089.000000
-0.68580002 -4.95959997 0.22890000 201 201 201 1169.000000
-0.69800001 -4.96089983 0.22920001 217 217 217 1425.000000
-0.71200001 -4.96640015 0.22980000 235 235 235 1713.000000
-0.72479999 -4.97230005 0.23029999 184 184 184 897.000000
-0.73890001 -4.98290014 0.23100001 176 176 176 769.000000
-0.75500000 -5.00089979 0.23210000 192 192 192 1025.000000
-0.77060002 -5.02269983 0.23340000 173 173 173 721.000000
-0.78640002 -5.04530001 0.23469999 156 156 156 449.000000
-0.44520000 -5.15969992 0.22040001 113 113 113 -239.000000
-0.45140001 -5.08650017 0.21750000 210 210 210 1313.000000
-0.46190000 -5.06190014 0.21670000 216 216 216 1409.000000
-0.47209999 -5.04670000 0.21619999 200 200 200 1153.000000
-0.48300001 -5.03079987 0.21580000 208 208 208 1281.000000
-0.49480000 -5.01700020 0.21540000 188 188 188 961.000000
-0.50510001 -5.00199986 0.21500000 210 210 210 1313.000000
-0.51690000 -4.99739981 0.21500000 249 249 249 1937.000000
-0.52920002 -4.99060011 0.21500000 225 225 225 1553.000000
-0.54040003 -4.98619986 0.21500000 255 255 255 2033.000000
-0.55229998 -4.98080015 0.21500000 231 231 231 1649.000000
-0.56470001 -4.97590017 0.21500000 219 219 219 1457.000000
-0.57599998 -4.97359991 0.21510001 221 221 221 1489.000000
-0.58759999 -4.96980000 0.21520001 219 219 219 1457.000000
-0.60000002 -4.96670008 0.21529999 233 233 233 1681.000000
-0.61189997 -4.96400023 0.21540000 255 255 255 2033.000000
-0.62379998 -4.96180010 0.21560000 205 205 205 1233.000000
-0.63609999 -4.95720005 0.21560000 214 214 214 1377.000000
-0.64800000 -4.95559978 0.21580000 255 255 255 2033.000000
-0.65950000 -4.95219994 0.21590000 194 194 194 1057.000000
-0.67299998 -4.95469999 0.21619999 184 184 184 897.000000
-0.68580002 -4.95879984 0.21660000 208 208 208 1281.000000
-0.69800001 -4.95959997 0.21690001 219 219 219 1457.000000
-0.71179998 -4.96390009 0.21730000 215 215 215 1393.000000
-0.72460002 -4.96969986 0.21780001 182 182 182 865.000000
-0.73860002 -4.98040009 0.21850000 196 196 196 1089.000000
-0.75449997 -4.99639988 0.21950001 204 204 204 1217.000000
-0.76990002 -5.01739979 0.22070000 174 174 174 737.000000
-0.78609997 -5.04209995 0.22200000 164 164 164 577.000000
-0.44639999 -5.17129993 0.20810001 91 91 91 -591.000000
-0.45199999 -5.09079981 0.20510000 228 228 228 1601.000000
-0.46210000 -5.06190014 0.20420000 213 213 213 1361.000000
-0.47220001 -5.04519987 0.20370001 198 198 198 1121.000000
-0.48339999 -5.03310013 0.20350000 211 211 211 1329.000000
-0.49480000 -5.01529980 0.20299999 198 198 198 1121.000000
-0.50550002 -5.00439978 0.20280001 209 209 209 1297.000000
-0.51719999 -4.99840021 0.20270000 250 250 250 1953.000000
-0.52929997 -4.98979998 0.20260000 215 215 215 1393.000000
-0.54040003 -4.98439980 0.20260000 253 253 253 2001.000000
-0.55250001 -4.98129988 0.20270000 229 229 229 1617.000000
-0.56470001 -4.97489977 0.20270000 221 221 221 1489.000000
-0.57590002 -4.97139978 0.20280001 210 210 210 1313.000000
-0.58780003 -4.96929979 0.20290001 255 255 255 2033.000000
-0.60020000 -4.96700001 0.20310000 218 218 218 1441.000000
-0.61199999 -4.96339989 0.20310000 255 255 255 2033.000000
-0.62379998 -4.96029997 0.20320000 213 213 213 1361.000000
-0.63620001 -4.95669985 0.20330000 218 218 218 1441.000000
-0.64800000 -4.95480013 0.20350000 231 231 231 1649.000000
-0.65979999 -4.95330000 0.20360000 212 212 212 1345.000000
-0.67330003 -4.95520020 0.20400000 210 210 210 1313.000000
-0.68589997 -4.95800018 0.20430000 210 210 210 1313.000000
-0.69819999 -4.96019983 0.20460001 230 230 230 1633.000000
-0.71170002 -4.96250010 0.20500000 212 212 212 1345.000000
-0.72450000 -4.96829987 0.20550001 191 191 191 1009.000000
-0.73850000 -4.97800016 0.20610000 228 228 228 1601.000000
-0.75410002 -4.99270010 0.20700000 227 227 227 1585.000000
-0.76940000 -5.01329994 0.20810001 174 174 174 737.000000
-0.78630000 -5.04260015 0.20950000 157 157 157 465.000000
-0.45230001 -5.09299994 0.19270000 224 224 224 1537.000000
-0.46239999 -5.06419992 0.19180000 213 213 213 1361.000000
-0.47240001 -5.04619980 0.19130000 218 218 218 1441.000000
-0.48370001 -5.03429985 0.19110000 203 203 203 1201.000000
-0.49509999 -5.01609993 0.19069999 201 201 201 1169.000000
-0.50559998 -5.00400019 0.19040000 220 220 220 1473.000000
-0.51730001 -4.99760008 0.19040000 252 252 252 1985.000000
-0.52929997 -4.98839998 0.19030000 217 217 217 1425.000000
-0.54070002 -4.98640013 0.19040000 255 255 255 2033.000000
-0.55239999 -4.97949982 0.19040000 224 224 224 1537.000000
-0.56459999 -4.97289991 0.19040000 221 221 221 1489.000000
-0.57609999 -4.97189999 0.19050001 214 214 214 1377.000000
-0.58789998 -4.96939993 0.19059999 241 241 241 1809.000000
-0.60049999 -4.96789980 0.19080000 231 231 231 1649.000000
-0.61199999 -4.96210003 0.19080000 251 251 251 1969.000000
-0.62379998 -4.95970011 0.19100000 224 224 224 1537.000000
-0.63630003 -4.95620012 0.19110000 229 229 229 1617.000000
-0.64800000 -4.95330000 0.19120000 251 251 251 1969.000000
-0.66000003 -4.95410013 0.19140001 254 254 254 2017.000000
-0.67350000 -4.95550013 0.19170000 204 204 204 1217.000000
-0.68599999 -4.95809984 0.19210000 207 207 207 1265.000000
-0.69800001 -4.95739985 0.19230001 245 245 245 1873.000000
-0.71190000 -4.96269989 0.19270000 242 242 242 1825.000000
-0.72469997 -4.96880007 0.19320001 193 193 193 1041.000000
-0.73839998 -4.97669983 0.19370000 202 202 202 1185.000000
-0.75400001 -4.99119997 0.19450000 237 237 237 1745.000000
-0.76940000 -5.01189995 0.19560000 201 201 201 1169.000000
-0.78579998 -5.03830004 0.19679999 143 143 143 241.000000
-0.45249999 -5.09270000 0.18009999 216 216 216 1409.000000
-0.46259999 -5.06379986 0.17930000 227 227 227 1585.000000
-0.47260001 -5.04640007 0.17890000 234 234 234 1697.000000
-0.48379999 -5.03380013 0.17870000 204 204 204 1217.000000
-0.49520001 -5.01599979 0.17829999 206 206 206 1249.000000
-0.50580001 -5.00449991 0.17810000 240 240 240 1793.000000
-0.51740003 -4.99739981 0.17810000 249 249 249 1937.000000
-0.52950001 -4.98890018 0.17800000 227 227 227 1585.000000
-0.54060000 -4.98360014 0.17800000 255 255 255 2033.000000
-0.55260003 -4.97970009 0.17810000 230 230 230 1633.000000
-0.56510001 -4.97559977 0.17820001 222 222 222 1505.000000
-0.57639998 -4.97329998 0.17829999 219 219 219 1457.000000
-0.58810002 -4.96910000 0.17839999 249 249 249 1937.000000
-0.60070002 -4.96810007 0.17860000 219 219 219 1457.000000
-0.61199999 -4.96099997 0.17850000 248 248 248 1921.000000
-0.62390000 -4.95860004 0.17870000 213 213 213 1361.000000
-0.63639998 -4.95569992 0.17880000 226 226 226 1569.000000
-0.64810002 -4.95300007 0.17890000 208 208 208 1281.000000
-0.66000003 -4.95249987 0.17910001 250 250 250 1953.000000
-0.67360002 -4.95520020 0.17950000 196 196 196 1089.000000
-0.68580002 -4.95499992 0.17970000 207 207 207 1265.000000
-0.69819999 -4.95790005 0.18000001 255 255 255 2033.000000
-0.71160001 -4.95989990 0.18030000 236 236 236 1729.000000
-0.72439998 -4.96540022 0.18070000 196 196 196 1089.000000
-0.73799998 -4.97289991 0.18120000 229 229 229 1617.000000
-0.75430000 -4.99230003 0.18220000 228 228 228 1601.000000
-0.76910001 -5.00890017 0.18300000 173 173 173 721.000000
-0.78520000 -5.03350019 0.18420000 165 165 165 593.000000
-0.45269999 -5.09350014 0.16760001 237 237 237 1745.000000
-0.46300000 -5.06699991 0.16700000 214 214 214 1377.000000
-0.47310001 -5.04939985 0.16660000 245 245 245 1873.000000
-0.48410001 -5.03469992 0.16630000 220 220 220 1473.000000
-0.49529999 -5.01550007 0.16590001 196 196 196 1089.000000
-0.50599998 -5.00430012 0.16580001 253 253 253 2001.000000
-0.51719999 -4.99350023 0.16560000 218 218 218 1441.000000
-0.52929997 -4.98530006 0.16560000 231 231 231 1649.000000
-0.54070002 -4.98290014 0.16570000 255 255 255 2033.000000
-0.55260003 -4.97779989 0.16570000 227 227 227 1585.000000
-0.56529999 -4.97569990 0.16590001 219 219 219 1457.000000
-0.57620001 -4.96999979 0.16590001 216 216 216 1409.000000
-0.58800000 -4.96780014 0.16610000 226 226 226 1569.000000
-0.60079998 -4.96780014 0.16630000 198 198 198 1121.000000
-0.61240000 -4.96239996 0.16630000 251 251 251 1969.000000
-0.62379998 -4.95679998 0.16640000 219 219 219 1457.000000
-0.63620001 -4.95300007 0.16650000 206 206 206 1249.000000
-0.64780003 -4.94950008 0.16660000 198 198 198 1121.000000
-0.65990001 -4.95090008 0.16680001 243 243 243 1841.000000
-0.67330003 -4.95200014 0.16710000 203 203 203 1201.000000
-0.68599999 -4.95590019 0.16740000 191 191 191 1009.000000
-0.69809997 -4.95620012 0.16769999 246 246 246 1889.000000
-0.71170002 -4.95919991 0.16800000 197 197 197 1105.000000
-0.72439998 -4.96449995 0.16840000 209 209 209 1297.000000
-0.73839998 -4.97480011 0.16900000 255 255 255 2033.000000
-0.75360000 -4.98659992 0.16960000 183 183 183 881.000000
-0.76859999 -5.00489998 0.17050000 175 175 175 753.000000
-0.78479999 -5.03039980 0.17160000 188 188 188 961.000000
-0.80339998 -5.06540012 0.17299999 146 146 146 289.000000
-0.45320001 -5.09660006 0.15520000 227 227 227 1585.000000
-0.46329999 -5.06790018 0.15449999 211 211 211 1329.000000
-0.47330001 -5.04960012 0.15420000 240 240 240 1793.000000
-0.48410001 -5.03350019 0.15390000 210 210 210 1313.000000
-0.49559999 -5.01639986 0.15360001 196 196 196 1089.000000
-0.50620002 -5.00519991 0.15350001 255 255 255 2033.000000
-0.51709998 -4.99119997 0.15320000 202 202 202 1185.000000
-0.52990001 -4.98920012 0.15340000 244 244 244 1857.000000
-0.54079998 -4.98250008 0.15340000 238 238 238 1761.000000
-0.55290002 -4.97879982 0.15350001 255 255 255 2033.000000
-0.56519997 -4.97329998 0.15360001 208 208 208 1281.000000
-0.57630002 -4.96929979 0.15360001 214 214 214 1377.000000
-0.58810002 -4.96659994 0.15380000 246 246 246 1889.000000
-0.60030001 -4.96260023 0.15390000 229 229 229 1617.000000
-0.61229998 -4.96029997 0.15400000 214 214 214 1377.000000
-0.62400001 -4.95739985 0.15410000 217 217 217 1425.000000
-0.63630003 -4.95289993 0.15420000 205 205 205 1233.000000
-0.64780003 -4.94859982 0.15430000 224 224 224 1537.000000
-0.66000003 -4.95020008 0.15459999 252 252 252 1985.000000
-0.67330003 -4.95069981 0.15480000 212 212 212 1345.000000
-0.68580002 -4.95300007 0.15510000 207 207 207 1265.000000
-0.69800001 -4.95450020 0.15530001 216 216 216 1409.000000
-0.71170002 -4.95819998 0.15570000 200 200 200 1153.000000
-0.72420001 -4.96220016 0.15600000 211 211 211 1329.000000
-0.73820001 -4.97189999 0.15660000 249 249 249 1937.000000
-0.75349998 -4.98500013 0.15719999 205 205 205 1233.000000
-0.76849997 -5.00360012 0.15800001 180 180 180 833.000000
-0.78439999 -5.02640009 0.15899999 166 166 166 609.000000
-0.80280000 -5.06059980 0.16030000 171 171 171 689.000000
-0.45310000 -5.09429979 0.14260000 218 218 218 1441.000000
-0.46360001 -5.06930017 0.14210001 231 231 231 1649.000000
-0.47330001 -5.04850006 0.14170000 207 207 207 1265.000000
-0.48440000 -5.03420019 0.14150000 201 201 201 1169.000000
-0.49579999 -5.01700020 0.14129999 180 180 180 833.000000
-0.50650001 -5.00659990 0.14120001 255 255 255 2033.000000
-0.51760000 -4.99429989 0.14100000 210 210 210 1313.000000
-0.52990001 -4.98850012 0.14110000 255 255 255 2033.000000
-0.54070002 -4.98010015 0.14110000 226 226 226 1569.000000
-0.55290002 -4.97790003 0.14120001 255 255 255 2033.000000
-0.56519997 -4.97230005 0.14129999 223 223 223 1521.000000
-0.57639998 -4.96850014 0.14139999 231 231 231 1649.000000
-0.58819997 -4.96610022 0.14150000 216 216 216 1409.000000
-0.60060000 -4.96369982 0.14160000 219 219 219 1457.000000
-0.61240000 -4.96010017 0.14180000 203 203 203 1201.000000
-0.62400001 -4.95599985 0.14180000 239 239 239 1777.000000
-0.63639998 -4.95219994 0.14200000 215 215 215 1393.000000
-0.64789999 -4.94820023 0.14210001 212 212 212 1345.000000
-0.66020000 -4.95039988 0.14229999 240 240 240 1793.000000
-0.67299998 -4.94780016 0.14250000 201 201 201 1169.000000
-0.68570000 -4.95130014 0.14280000 206 206 206 1249.000000
-0.69809997 -4.95400000 0.14309999 228 228 228 1601.000000
-0.71149999 -4.95569992 0.14340000 216 216 216 1409.000000
-0.72420001 -4.96110010 0.14370000 224 224 224 1537.000000
-0.73780000 -4.96840000 0.14410000 205 205 205 1233.000000
-0.75300002 -4.98019981 0.14470001 186 186 186 929.000000
-0.76800001 -4.99879980 0.14550000 181 181 181 849.000000
-0.78430003 -5.02489996 0.14640000 162 162 162 545.000000
-0.80180001 -5.05380011 0.14749999 165 165 165 593.000000
-0.45350000 -5.09639978 0.13010000 206 206 206 1249.000000
-0.46390000 -5.07049990 0.12970001 233 233 233 1681.000000
-0.47350001 -5.04839993 0.12930000 199 199 199 1137.000000
-0.48440000 -5.03280020 0.12909999 201 201 201 1169.000000
-0.49599999 -5.01690006 0.12890001 174 174 174 737.000000
-0.50650001 -5.00419998 0.12880000 251 251 251 1969.000000
-0.51779997 -4.99440002 0.12870000 225 225 225 1553.000000
-0.53030002 -4.99009991 0.12880000 251 251 251 1969.000000
-0.54100001 -4.98110008 0.12880000 226 226 226 1569.000000
-0.55290002 -4.97669983 0.12890001 222 222 222 1505.000000
-0.56540000 -4.97270012 0.12899999 227 227 227 1585.000000
-0.57650000 -4.96859980 0.12909999 230 230 230 1633.000000
-0.58819997 -4.96519995 0.12920000 229 229 229 1617.000000
-0.60089999 -4.96490002 0.12940000 219 219 219 1457.000000
-0.61260003 -4.96059990 0.12950000 219 219 219 1457.000000
-0.62410003 -4.95580006 0.12960000 227 227 227 1585.000000
-0.63660002 -4.95270014 0.12970001 218 218 218 1441.000000
-0.64840001 -4.95009995 0.12989999 227 227 227 1585.000000
-0.66009998 -4.94829988 0.13000000 249 249 249 1937.000000
-0.67339998 -4.94899988 0.13030000 225 225 225 1553.000000
-0.68599999 -4.95209980 0.13060001 221 221 221 1489.000000
-0.69800001 -4.95219994 0.13079999 229 229 229 1617.000000
-0.71170002 -4.95569992 0.13110000 209 209 209 1297.000000
-0.72409999 -4.95940018 0.13140000 226 226 226 1569.000000
-0.73780000 -4.96710014 0.13180000 195 195 195 1073.000000
-0.75279999 -4.97830009 0.13230000 189 189 189 977.000000
-0.76740003 -4.99399996 0.13300000 210 210 210 1313.000000
-0.78430003 -5.02379990 0.13400000 164 164 164 577.000000
-0.80070001 -5.04589987 0.13480000 184 184 184 897.000000
-0.45410001 -5.10109997 0.11770000 223 223 223 1521.000000
-0.46390000 -5.06890011 0.11720000 217 217 217 1425.000000
-0.47380000 -5.04960012 0.11690000 199 199 199 1137.000000
-0.48469999 -5.03439999 0.11680000 207 207 207 1265.000000
-0.49640000 -5.01919985 0.11660000 191 191 191 1009.000000
-0.50680000 -5.00649977 0.11650000 255 255 255 2033.000000
-0.51779997 -4.99329996 0.11640000 222 222 222 1505.000000
-0.53030002 -4.98890018 0.11650000 255 255 255 2033.000000
-0.54100001 -4.97970009 0.11650000 232 232 232 1665.000000
-0.55309999 -4.97700024 0.11660000 239 239 239 1777.000000
-0.56540000 -4.97079992 0.11670000 224 224 224 1537.000000
-0.57679999 -4.96939993 0.11690000 249 249 249 1937.000000
-0.58850002 -4.96640015 0.11700000 229 229 229 1617.000000
-0.60079998 -4.96260023 0.11710000 219 219 219 1457.000000
-0.61269999 -4.95959997 0.11730000 230 230 230 1633.000000
-0.62440002 -4.95650005 0.11740000 223 223 223 1521.000000
-0.63660002 -4.95160007 0.11750000 230 230 230 1633.000000
-0.64829999 -4.94859982 0.11760000 219 219 219 1457.000000
-0.66009998 -4.94750023 0.11780000 238 238 238 1761.000000
-0.67320001 -4.94640017 0.11800000 241 241 241 1809.000000
-0.68559998 -4.94829988 0.11820000 212 212 212 1345.000000
-0.69809997 -4.95130014 0.11850000 219 219 219 1457.000000
-0.71170002 -4.95450020 0.11880000 217 217 217 1425.000000
-0.72390002 -4.95699978 0.11910000 220 220 220 1473.000000
-0.73729998 -4.96299982 0.11940000 204 204 204 1217.000000
-0.75290000 -4.97749996 0.12000000 194 194 194 1057.000000
-0.76749998 -4.99370003 0.12060000 202 202 202 1185.000000
-0.78380001 -5.01989985 0.12140000 172 172 172 705.000000
-0.80019999 -5.04169989 0.12220000 184 184 184 897.000000
-0.45440000 -5.10249996 0.10520000 210 210 210 1313.000000
-0.46430001 -5.07140017 0.10470000 234 234 234 1697.000000
-0.47360000 -5.04610014 0.10440000 193 193 193 1041.000000
-0.48449999 -5.03020000 0.10430000 210 210 210 1313.000000
-0.49649999 -5.01889992 0.10430000 197 197 197 1105.000000
-0.50690001 -5.00570011 0.10420000 255 255 255 2033.000000
-0.51810002 -4.99450016 0.10410000 225 225 225 1553.000000
-0.53049999 -4.98890018 0.10420000 255 255 255 2033.000000
-0.54119998 -4.97959995 0.10420000 235 235 235 1713.000000
-0.55330002 -4.97690010 0.10440000 233 233 233 1681.000000
-0.56569999 -4.97240019 0.10450000 222 222 222 1505.000000
-0.57690001 -4.96920013 0.10460000 246 246 246 1889.000000
-0.58829999 -4.96299982 0.10470000 227 227 227 1585.000000
-0.60079998 -4.96159983 0.10490000 221 221 221 1489.000000
-0.61280000 -4.95949984 0.10500000 229 229 229 1617.000000
-0.62449998 -4.95580006 0.10510000 232 232 232 1665.000000
-0.63660002 -4.95009995 0.10520000 235 235 235 1713.000000
-0.64840001 -4.94789982 0.10540000 235 235 235 1713.000000
-0.66020000 -4.94680023 0.10550000 255 255 255 2033.000000
-0.67309999 -4.94490004 0.10570000 235 235 235 1713.000000
-0.68559998 -4.94729996 0.10600000 214 214 214 1377.000000
-0.69819999 -4.95100021 0.10620000 255 255 255 2033.000000
-0.71170002 -4.95349979 0.10650000 205 205 205 1233.000000
-0.72409999 -4.95690012 0.10680000 235 235 235 1713.000000
-0.73750001 -4.96299982 0.10710000 197 197 197 1105.000000
-0.75269997 -4.97499990 0.10760000 190 190 190 993.000000
-0.76709998 -4.98990011 0.10810000 192 192 192 1025.000000
-0.78359997 -5.01709986 0.10890000 173 173 173 721.000000
-0.80010003 -5.04020023 0.10960000 194 194 194 1057.000000
-0.45480001 -5.10589981 0.09270000 227 227 227 1585.000000
-0.46470001 -5.07380009 0.09230000 243 243 243 1841.000000
-0.47430000 -5.05140018 0.09210000 201 201 201 1169.000000
-0.48500001 -5.03410006 0.09200000 241 241 241 1809.000000
-0.49669999 -5.01940012 0.09190000 198 198 198 1121.000000
-0.50700003 -5.00479984 0.09180000 255 255 255 2033.000000
-0.51800001 -4.99200010 0.09180000 221 221 221 1489.000000
-0.53030002 -4.98589993 0.09190000 255 255 255 2033.000000
-0.54140002 -4.98050022 0.09200000 221 221 221 1489.000000
-0.55339998 -4.97620010 0.09210000 223 223 223 1521.000000
-0.56580001 -4.97170019 0.09220000 231 231 231 1649.000000
-0.57690001 -4.96759987 0.09230000 233 233 233 1681.000000
-0.58859998 -4.96460009 0.09250000 223 223 223 1521.000000
-0.60089999 -4.96099997 0.09260000 223 223 223 1521.000000
-0.61260003 -4.95679998 0.09270000 228 228 228 1601.000000
-0.62459999 -4.95539999 0.09290000 228 228 228 1601.000000
-0.63690001 -4.95139980 0.09300000 224 224 224 1537.000000
-0.64829999 -4.94619989 0.09310000 230 230 230 1633.000000
-0.66009998 -4.94530010 0.09330000 234 234 234 1697.000000
-0.67330003 -4.94500017 0.09350000 240 240 240 1793.000000
-0.68589997 -4.94810009 0.09380000 210 210 210 1313.000000
-0.69800001 -4.94859982 0.09400000 255 255 255 2033.000000
-0.71149999 -4.95139980 0.09420000 206 206 206 1249.000000
-0.72420001 -4.95639992 0.09450000 240 240 240 1793.000000
-0.73710001 -4.95930004 0.09480000 191 191 191 1009.000000
-0.75250000 -4.97319984 0.09520000 180 180 180 833.000000
-0.76709998 -4.98890018 0.09570000 162 162 162 545.000000
-0.78320003 -5.01410007 0.09640000 175 175 175 753.000000
-0.79949999 -5.03499985 0.09700000 162 162 162 545.000000
-0.45530000 -5.10879993 0.08020000 227 227 227 1585.000000
-0.46480000 -5.07369995 0.07980000 229 229 229 1617.000000
-0.47440001 -5.05100012 0.07970000 204 204 204 1217.000000
-0.48510000 -5.03369999 0.07960000 230 230 230 1633.000000
-0.49700001 -5.02019978 0.07960000 202 202 202 1185.000000
-0.50720000 -5.00509977 0.07950000 254 254 254 2017.000000
-0.51849997 -4.99480009 0.07960000 220 220 220 1473.000000
-0.53070003 -4.98789978 0.07960000 255 255 255 2033.000000
-0.54149997 -4.97970009 0.07970000 236 236 236 1729.000000
-0.55330002 -4.97380018 0.07980000 218 218 218 1441.000000
-0.56580001 -4.96999979 0.07990000 235 235 235 1713.000000
-0.57709998 -4.96770000 0.08010000 220 220 220 1473.000000
-0.58870000 -4.96409988 0.08020000 255 255 255 2033.000000
-0.60100001 -4.96010017 0.08040000 205 205 205 1233.000000
-0.61309999 -4.95919991 0.08050000 227 227 227 1585.000000
-0.62459999 -4.95469999 0.08070000 220 220 220 1473.000000
-0.63679999 -4.94920015 0.08080000 219 219 219 1457.000000
-0.64859998 -4.94729996 0.08090000 230 230 230 1633.000000
-0.66020000 -4.94439983 0.08110000 226 226 226 1569.000000
-0.67320001 -4.94290018 0.08120000 224 224 224 1537.000000
-0.68570000 -4.94570017 0.08150000 212 212 212 1345.000000
-0.69819999 -4.94880009 0.08170000 249 249 249 1937.000000
-0.71149999 -4.95039988 0.08190000 200 200 200 1153.000000
-0.72390002 -4.95380020 0.08220000 255 255 255 2033.000000
-0.73699999 -4.95760012 0.08250000 197 197 197 1105.000000
-0.75220001 -4.97030020 0.08290000 173 173 173 721.000000
-0.76650000 -4.98439980 0.08330000 171 171 171 689.000000
-0.78289998 -5.01070023 0.08390000 169 169 169 657.000000
-0.79900002 -5.03109980 0.08450000 194 194 194 1057.000000
-0.45590001 -5.11420012 0.06770000 211 211 211 1329.000000
-0.46500000 -5.07329988 0.06740000 220 220 220 1473.000000
-0.47470000 -5.05189991 0.06730000 212 212 212 1345.000000
-0.48539999 -5.03429985 0.06720000 211 211 211 1329.000000
-0.49710000 -5.01980019 0.06720000 199 199 199 1137.000000
-0.50749999 -5.00619984 0.06720000 253 253 253 2001.000000
-0.51859999 -4.99440002 0.06730000 217 217 217 1425.000000
-0.53060001 -4.98589993 0.06730000 253 253 253 2001.000000
-0.54140002 -4.97770023 0.06740000 233 233 233 1681.000000
-0.55350000 -4.97459984 0.06760000 214 214 214 1377.000000
-0.56590003 -4.96999979 0.06770000 221 221 221 1489.000000
-0.57709998 -4.96610022 0.06780000 225 225 225 1553.000000
-0.58910000 -4.96540022 0.06800000 255 255 255 2033.000000
-0.60110003 -4.96010017 0.06810000 224 224 224 1537.000000
-0.61299998 -4.95739985 0.06830000 220 220 220 1473.000000
-0.62449998 -4.95219994 0.06840000 220 220 220 1473.000000
-0.63690001 -4.94880009 0.06850000 225 225 225 1553.000000
-0.64859998 -4.94600010 0.06870000 229 229 229 1617.000000
-0.66030002 -4.94390011 0.06880000 226 226 226 1569.000000
-0.67360002 -4.94490004 0.06910000 255 255 255 2033.000000
-0.68599999 -4.94630003 0.06930000 207 207 207 1265.000000
-0.69809997 -4.94719982 0.06950000 243 243 243 1841.000000
-0.71130002 -4.94780016 0.06970000 197 197 197 1105.000000
-0.72399998 -4.95289993 0.06990000 253 253 253 2001.000000
-0.73689997 -4.95599985 0.07020000 172 172 172 705.000000
-0.75190002 -4.96700001 0.07050000 190 190 190 993.000000
-0.76590002 -4.97910023 0.07090000 192 192 192 1025.000000
-0.78210002 -5.00460005 0.07140000 163 163 163 561.000000
-0.79900002 -5.02990007 0.07200000 189 189 189 977.000000
-0.45680001 -5.12179995 0.05520000 211 211 211 1329.000000
-0.46529999 -5.07490015 0.05490000 211 211 211 1329.000000
-0.47490001 -5.05289984 0.05480000 213 213 213 1361.000000
-0.48550001 -5.03439999 0.05480000 214 214 214 1377.000000
-0.49730000 -5.02019978 0.05490000 216 216 216 1409.000000
-0.50749999 -5.00439978 0.05490000 246 246 246 1889.000000
-0.51859999 -4.99340010 0.05490000 218 218 218 1441.000000
-0.53070003 -4.98490000 0.05510000 239 239 239 1777.000000
-0.54159999 -4.97749996 0.05510000 237 237 237 1745.000000
-0.55360001 -4.97419977 0.05530000 224 224 224 1537.000000
-0.56590003 -4.96869993 0.05540000 225 225 225 1553.000000
-0.57730001 -4.96649981 0.05560000 234 234 234 1697.000000
-0.58890003 -4.96250010 0.05570000 231 231 231 1649.000000
-0.60110003 -4.95870018 0.05590000 216 216 216 1409.000000
-0.61309999 -4.95650005 0.05600000 220 220 220 1473.000000
-0.62480003 -4.95370007 0.05620000 213 213 213 1361.000000
-0.63720000 -4.94960022 0.05630000 223 223 223 1521.000000
-0.64840001 -4.94360018 0.05640000 219 219 219 1457.000000
-0.66030002 -4.94290018 0.05660000 227 227 227 1585.000000
-0.67360002 -4.94420004 0.05680000 255 255 255 2033.000000
-0.68580002 -4.94369984 0.05700000 218 218 218 1441.000000
-0.69779998 -4.94390011 0.05720000 220 220 220 1473.000000
-0.71130002 -4.94689989 0.05740000 210 210 210 1313.000000
-0.72380000 -4.95060015 0.05760000 233 233 233 1681.000000
-0.73710001 -4.95639992 0.05790000 193 193 193 1041.000000
-0.75209999 -4.96710014 0.05820000 212 212 212 1345.000000
-0.76569998 -4.97690010 0.05850000 205 205 205 1233.000000
-0.78219998 -5.00449991 0.05900000 177 177 177 785.000000
-0.79860002 -5.02689981 0.05950000 189 189 189 977.000000
-0.45710000 -5.12349987 0.04260000 203 203 203 1201.000000
-0.46550000 -5.07530022 0.04240000 213 213 213 1361.000000
-0.47520000 -5.05410004 0.04240000 221 221 221 1489.000000
-0.48590001 -5.03620005 0.04250000 221 221 221 1489.000000
-0.49739999 -5.01919985 0.04250000 219 219 219 1457.000000
-0.50770003 -5.00500011 0.04260000 235 235 235 1713.000000
-0.51889998 -4.99380016 0.04270000 216 216 216 1409.000000
-0.53060001 -4.98260021 0.04280000 219 219 219 1457.000000
-0.54189998 -4.97900009 0.04290000 255 255 255 2033.000000
-0.55369997 -4.97319984 0.04300000 228 228 228 1601.000000
-0.56620002 -4.96980000 0.04320000 226 226 226 1569.000000
-0.57730001 -4.96560001 0.04330000 217 217 217 1425.000000
-0.58910000 -4.96309996 0.04350000 255 255 255 2033.000000
-0.60119998 -4.95790005 0.04360000 219 219 219 1457.000000
-0.61330003 -4.95720005 0.04380000 212 212 212 1345.000000
-0.62500000 -4.95349979 0.04400000 222 222 222 1505.000000
-0.63709998 -4.94820023 0.04410000 227 227 227 1585.000000
-0.64880002 -4.94490004 0.04420000 233 233 233 1681.000000
-0.66030002 -4.94210005 0.04440000 227 227 227 1585.000000
-0.67320001 -4.93959999 0.04460000 238 238 238 1761.000000
-0.68570000 -4.94250011 0.04480000 213 213 213 1361.000000
-0.69800001 -4.94399977 0.04500000 226 226 226 1569.000000
-0.71139997 -4.94619989 0.04520000 208 208 208 1281.000000
-0.72369999 -4.94920015 0.04540000 255 255 255 2033.000000
-0.73689997 -4.95389986 0.04560000 213 213 213 1361.000000
-0.75169998 -4.96390009 0.04590000 190 190 190 993.000000
-0.76569998 -4.97620010 0.04620000 225 225 225 1553.000000
-0.78170002 -5.00019979 0.04660000 174 174 174 737.000000
-0.79839998 -5.02440023 0.04700000 174 174 174 737.000000
-0.45840001 -5.13660002 0.03010000 162 162 162 545.000000
-0.46599999 -5.07919979 0.03000000 233 233 233 1681.000000
-0.47560000 -5.05609989 0.03000000 243 243 243 1841.000000
-0.48600000 -5.03579998 0.03010000 223 223 223 1521.000000
-0.49759999 -5.01989985 0.03020000 226 226 226 1569.000000
-0.50779998 -5.00419998 0.03020000 215 215 215 1393.000000
-0.51910001 -4.99429989 0.03040000 214 214 214 1377.000000
-0.53079998 -4.98229980 0.03050000 234 234 234 1697.000000
-0.54220003 -4.97989988 0.03060000 255 255 255 2033.000000
-0.55400002 -4.97440004 0.03080000 246 246 246 1889.000000
-0.56620002 -4.96799994 0.03090000 222 222 222 1505.000000
-0.57749999 -4.96610022 0.03110000 226 226 226 1569.000000
-0.58890003 -4.95970011 0.03120000 232 232 232 1665.000000
-0.60159999 -4.96010017 0.03140000 215 215 215 1393.000000
-0.61309999 -4.95450020 0.03160000 221 221 221 1489.000000
-0.62489998 -4.95139980 0.03170000 217 217 217 1425.000000
-0.63730001 -4.94850016 0.03190000 228 228 228 1601.000000
-0.64889997 -4.94490004 0.03200000 234 234 234 1697.000000
-0.66030002 -4.94110012 0.03220000 219 219 219 1457.000000
-0.67339998 -4.94000006 0.03240000 230 230 230 1633.000000
-0.68559998 -4.94010019 0.03250000 216 216 216 1409.000000
-0.69770002 -4.94119978 0.03270000 221 221 221 1489.000000
-0.71130002 -4.94469976 0.03290000 214 214 214 1377.000000
-0.72369999 -4.94799995 0.03310000 239 239 239 1777.000000
-0.73680001 -4.95249987 0.03330000 238 238 238 1761.000000
-0.75129998 -4.96019983 0.03360000 203 203 203 1201.000000
-0.76550001 -4.97389984 0.03380000 218 218 218 1441.000000
-0.78109998 -4.99529982 0.03410000 191 191 191 1009.000000
-0.79750001 -5.01800013 0.03450000 166 166 166 609.000000
-0.81500000 -5.04920006 0.03490000 136 136 136 129.000000
-0.81699997 -5.04510021 0.02350000 119 119 119 -143.000000
-0.45870000 -5.13749981 0.01750000 148 148 148 321.000000
-0.46610001 -5.07800007 0.01750000 227 227 227 1585.000000
-0.47569999 -5.05550003 0.01760000 226 226 226 1569.000000
-0.48629999 -5.03709984 0.01770000 219 219 219 1457.000000
-0.49800000 -5.02229977 0.01780000 216 216 216 1409.000000
-0.50830001 -5.00729990 0.01790000 246 246 246 1889.000000
-0.51899999 -4.99179983 0.01810000 232 232 232 1665.000000
-0.53109998 -4.98369980 0.01820000 231 231 231 1649.000000
-0.54200000 -4.97639990 0.01840000 221 221 221 1489.000000
-0.55379999 -4.97100019 0.01850000 230 230 230 1633.000000
-0.56599998 -4.96500015 0.01870000 224 224 224 1537.000000
-0.57720000 -4.96140003 0.01880000 235 235 235 1713.000000
-0.58890003 -4.95860004 0.01900000 233 233 233 1681.000000
-0.60119998 -4.95550013 0.01920000 231 231 231 1649.000000
-0.61269999 -4.94950008 0.01930000 231 231 231 1649.000000
-0.62459999 -4.94799995 0.01950000 244 244 244 1857.000000
-0.63690001 -4.94390011 0.01970000 249 249 249 1937.000000
-0.64850003 -4.94070005 0.01980000 246 246 246 1889.000000
-0.66020000 -4.93839979 0.02000000 255 255 255 2033.000000
-0.67309999 -4.93690014 0.02010000 255 255 255 2033.000000
-0.68510002 -4.93580008 0.02030000 242 242 242 1825.000000
-0.69749999 -4.93839979 0.02050000 219 219 219 1457.000000
-0.71090001 -4.94080019 0.02070000 224 224 224 1537.000000
-0.72329998 -4.94409990 0.02090000 219 219 219 1457.000000
-0.73650002 -4.94899988 0.02110000 209 209 209 1297.000000
-0.75129998 -4.95889997 0.02130000 193 193 193 1041.000000
-0.76470000 -4.96719980 0.02150000 181 181 181 849.000000
-0.77950001 -4.98460007 0.02170000 160 160 160 513.000000
-0.79640001 -5.00960016 0.02200000 152 152 152 385.000000
-0.81410003 -5.04239988 0.02230000 137 137 137 145.000000
-0.81699997 -5.04379988 0.01100000 178 178 178 801.000000
-0.46090001 -5.16050005 0.00490000 69 69 69 -943.000000
-0.46650001 -5.08090019 0.00500000 223 223 223 1521.000000
-0.47589999 -5.05639982 0.00510000 223 223 223 1521.000000
-0.48640001 -5.03620005 0.00530000 198 198 198 1121.000000
-0.49770001 -5.01719999 0.00550000 201 201 201 1169.000000
-0.50800002 -5.00320005 0.00560000 201 201 201 1169.000000
-0.51899999 -4.99020004 0.00580000 219 219 219 1457.000000
-0.53090000 -4.98080015 0.00600000 236 236 236 1729.000000
-0.54189998 -4.97480011 0.00610000 225 225 225 1553.000000
-0.55390000 -4.97060013 0.00630000 226 226 226 1569.000000
-0.56620002 -4.96540022 0.00650000 224 224 224 1537.000000
-0.57709998 -4.95979977 0.00660000 223 223 223 1521.000000
-0.58859998 -4.95499992 0.00680000 235 235 235 1713.000000
-0.60089999 -4.95179987 0.00690000 250 250 250 1953.000000
-0.61280000 -4.94929981 0.00710000 249 249 249 1937.000000
-0.62449998 -4.94610023 0.00730000 255 255 255 2033.000000
-0.63709998 -4.94399977 0.00740000 255 255 255 2033.000000
-0.64870000 -4.94049978 0.00760000 255 255 255 2033.000000
-0.66039997 -4.93889999 0.00780000 255 255 255 2033.000000
-0.67309999 -4.93569994 0.00790000 255 255 255 2033.000000
-0.68550003 -4.93739986 0.00810000 236 236 236 1729.000000
-0.69760001 -4.93830013 0.00830000 218 218 218 1441.000000
-0.71120000 -4.94159985 0.00850000 229 229 229 1617.000000
-0.72329998 -4.94320011 0.00860000 224 224 224 1537.000000
-0.73670000 -4.94969988 0.00880000 214 214 214 1377.000000
-0.75139999 -4.95839977 0.00900000 192 192 192 1025.000000
-0.76470000 -4.96659994 0.00920000 207 207 207 1265.000000
-0.78030002 -4.98820019 0.00940000 174 174 174 737.000000
-0.79720002 -5.01410007 0.00960000 170 170 170 673.000000
-0.81379998 -5.03929996 0.00980000 186 186 186 929.000000
-0.81629997 -5.03870010 -0.00160000 180 180 180 833.000000
-0.45670000 -5.11110020 -0.00770000 132 132 132 65.000000
-0.46599999 -5.07380009 -0.00750000 172 172 172 705.000000
-0.47560000 -5.05149984 -0.00730000 185 185 185 913.000000
-0.48649999 -5.03609991 -0.00710000 206 206 206 1249.000000
-0.49820000 -5.02120018 -0.00690000 219 219 219 1457.000000
-0.50840002 -5.00559998 -0.00670000 222 222 222 1505.000000
-0.51920003 -4.99109983 -0.00650000 226 226 226 1569.000000
-0.53140002 -4.98369980 -0.00630000 249 249 249 1937.000000
-0.54220003 -4.97590017 -0.00610000 219 219 219 1457.000000
-0.55440003 -4.97349977 -0.00600000 246 246 246 1889.000000
-0.56650001 -4.96670008 -0.00580000 220 220 220 1473.000000
-0.57770002 -4.96379995 -0.00560000 216 216 216 1409.000000
-0.58939999 -4.96019983 -0.00550000 228 228 228 1601.000000
-0.60159999 -4.95620012 -0.00530000 225 225 225 1553.000000
-0.61360002 -4.95450020 -0.00510000 221 221 221 1489.000000
-0.62510002 -4.94990015 -0.00490000 234 234 234 1697.000000
-0.63739997 -4.94579983 -0.00480000 216 216 216 1409.000000
-0.64920002 -4.94339991 -0.00460000 221 221 221 1489.000000
-0.66039997 -4.93809986 -0.00440000 217 217 217 1425.000000
-0.67350000 -4.93720007 -0.00430000 217 217 217 1425.000000
-0.68570000 -4.93769979 -0.00410000 221 221 221 1489.000000
-0.69790000 -4.93930006 -0.00390000 204 204 204 1217.000000
-0.71109998 -4.93959999 -0.00380000 255 255 255 2033.000000
-0.72350001 -4.94299984 -0.00360000 232 232 232 1665.000000
-0.73670000 -4.94880009 -0.00340000 200 200 200 1153.000000
-0.75099999 -4.95520020 -0.00330000 195 195 195 1073.000000
-0.76510000 -4.96820021 -0.00310000 239 239 239 1777.000000
-0.77920002 -4.98059988 -0.00300000 168 168 168 641.000000
-0.79699999 -5.01140022 -0.00280000 173 173 173 721.000000
-0.81330001 -5.03520012 -0.00270000 181 181 181 849.000000
-0.81550002 -5.03230000 -0.01410000 174 174 174 737.000000
-0.45890000 -5.13390017 -0.02040000 130 130 130 33.000000
-0.46720001 -5.08489990 -0.02000000 212 212 212 1345.000000
-0.47630000 -5.05660009 -0.01970000 211 211 211 1329.000000
-0.48690000 -5.03849983 -0.01950000 209 209 209 1297.000000
-0.49840000 -5.02089977 -0.01920000 216 216 216 1409.000000
-0.50880003 -5.00750017 -0.01900000 219 219 219 1457.000000
-0.51950002 -4.99240017 -0.01880000 217 217 217 1425.000000
-0.53160000 -4.98449993 -0.01860000 247 247 247 1905.000000
-0.54229999 -4.97529984 -0.01840000 215 215 215 1393.000000
-0.55430001 -4.97179985 -0.01820000 236 236 236 1729.000000
-0.56680000 -4.96750021 -0.01800000 225 225 225 1553.000000
-0.57770002 -4.96180010 -0.01780000 209 209 209 1297.000000
-0.58950001 -4.95940018 -0.01770000 224 224 224 1537.000000
-0.60170001 -4.95599985 -0.01750000 213 213 213 1361.000000
-0.61360002 -4.95289993 -0.01730000 215 215 215 1393.000000
-0.62529999 -4.95009995 -0.01720000 235 235 235 1713.000000
-0.63739997 -4.94449997 -0.01700000 215 215 215 1393.000000
-0.64889997 -4.93970013 -0.01680000 208 208 208 1281.000000
-0.66070002 -4.93879986 -0.01660000 218 218 218 1441.000000
-0.67309999 -4.93370008 -0.01640000 217 217 217 1425.000000
-0.68559998 -4.93580008 -0.01630000 249 249 249 1937.000000
-0.69779998 -4.93739986 -0.01610000 210 210 210 1313.000000
-0.71100003 -4.93800020 -0.01600000 217 217 217 1425.000000
-0.72320002 -4.94049978 -0.01580000 219 219 219 1457.000000
-0.73650002 -4.94600010 -0.01570000 185 185 185 913.000000
-0.75110000 -4.95489979 -0.01550000 238 238 238 1761.000000
-0.76459998 -4.96350002 -0.01540000 218 218 218 1441.000000
-0.77920002 -4.97949982 -0.01530000 187 187 187 945.000000
-0.79670000 -5.00909996 -0.01520000 184 184 184 897.000000
-0.81269997 -5.03079987 -0.01520000 176 176 176 769.000000
-0.81519997 -5.02930021 -0.02670000 185 185 185 913.000000
-0.46250001 -5.17250013 -0.03320000 208 208 208 1281.000000
-0.46740001 -5.08519983 -0.03250000 208 208 208 1281.000000
-0.47670001 -5.05940008 -0.03220000 223 223 223 1521.000000
-0.48710001 -5.03870010 -0.03190000 205 205 205 1233.000000
-0.49860001 -5.02159977 -0.03160000 217 217 217 1425.000000
-0.50910002 -5.00899982 -0.03140000 224 224 224 1537.000000
-0.51969999 -4.99200010 -0.03110000 207 207 207 1265.000000
-0.53149998 -4.98190022 -0.03080000 243 243 243 1841.000000
-0.54240000 -4.97469997 -0.03060000 214 214 214 1377.000000
-0.55449998 -4.97209978 -0.03050000 255 255 255 2033.000000
-0.56690001 -4.96710014 -0.03030000 216 216 216 1409.000000
-0.57779998 -4.96129990 -0.03010000 210 210 210 1313.000000
-0.58939999 -4.95720005 -0.02990000 217 217 217 1425.000000
-0.60200000 -4.95669985 -0.02970000 215 215 215 1393.000000
-0.61390001 -4.95400000 -0.02950000 211 211 211 1329.000000
-0.62540001 -4.94950008 -0.02940000 226 226 226 1569.000000
-0.63770002 -4.94509983 -0.02920000 220 220 220 1473.000000
-0.64910001 -4.94000006 -0.02900000 226 226 226 1569.000000
-0.66070002 -4.93760014 -0.02880000 231 231 231 1649.000000
-0.67330003 -4.93359995 -0.02860000 216 216 216 1409.000000
-0.68550003 -4.93410015 -0.02850000 232 232 232 1665.000000
-0.69760001 -4.93499994 -0.02830000 214 214 214 1377.000000
-0.71069998 -4.93510008 -0.02820000 216 216 216 1409.000000
-0.72299999 -4.93760014 -0.02800000 201 201 201 1169.000000
-0.73640001 -4.94430017 -0.02790000 203 203 203 1201.000000
-0.75089997 -4.95240021 -0.02780000 230 230 230 1633.000000
-0.76410002 -4.95970011 -0.02770000 188 188 188 961.000000
-0.77929997 -4.97900009 -0.02770000 218 218 218 1441.000000
-0.79659998 -5.00759983 -0.02770000 184 184 184 897.000000
-0.81220001 -5.02670002 -0.02760000 199 199 199 1137.000000
-0.81480002 -5.02589989 -0.03920000 184 184 184 897.000000
-0.46779999 -5.08760023 -0.04500000 215 215 215 1393.000000
-0.47700000 -5.06080008 -0.04460000 211 211 211 1329.000000
-0.48740000 -5.03980017 -0.04430000 223 223 223 1521.000000
-0.49890000 -5.02250004 -0.04400000 216 216 216 1409.000000
-0.50929999 -5.00920010 -0.04370000 215 215 215 1393.000000
-0.51980001 -4.99149990 -0.04340000 213 213 213 1361.000000
-0.53149998 -4.98000002 -0.04310000 232 232 232 1665.000000
-0.54259998 -4.97469997 -0.04290000 220 220 220 1473.000000
-0.55470002 -4.97189999 -0.04270000 245 245 245 1873.000000
-0.56690001 -4.96579981 -0.04250000 223 223 223 1521.000000
-0.57789999 -4.96080017 -0.04230000 211 211 211 1329.000000
-0.58950001 -4.95720005 -0.04210000 221 221 221 1489.000000
-0.60200000 -4.95559978 -0.04190000 223 223 223 1521.000000
-0.61369997 -4.95160007 -0.04180000 227 227 227 1585.000000
-0.62559998 -4.94950008 -0.04160000 218 218 218 1441.000000
-0.63770002 -4.94439983 -0.04140000 217 217 217 1425.000000
-0.64929998 -4.94059992 -0.04120000 220 220 220 1473.000000
-0.66090000 -4.93800020 -0.04100000 255 255 255 2033.000000
-0.67350000 -4.93380022 -0.04080000 232 232 232 1665.000000
-0.68529999 -4.93120003 -0.04070000 220 220 220 1473.000000
-0.69749999 -4.93319988 -0.04050000 208 208 208 1281.000000
-0.71100003 -4.93620014 -0.04040000 212 212 212 1345.000000
-0.72310001 -4.93760014 -0.04030000 209 209 209 1297.000000
-0.73640001 -4.94320011 -0.04020000 237 237 237 1745.000000
-0.75099999 -4.95200014 -0.04010000 227 227 227 1585.000000
-0.76400000 -4.95809984 -0.04000000 189 189 189 977.000000
-0.77920002 -4.97720003 -0.04000000 207 207 207 1265.000000
-0.79640001 -5.00519991 -0.04010000 168 168 168 641.000000
-0.81169999 -5.02309990 -0.04000000 191 191 191 1009.000000
-0.81449997 -5.02299976 -0.05170000 193 193 193 1041.000000
-0.46860000 -5.09399986 -0.05760000 208 208 208 1281.000000
-0.47710001 -5.05980015 -0.05710000 220 220 220 1473.000000
-0.48760000 -5.04050016 -0.05670000 221 221 221 1489.000000
-0.49890000 -5.02129984 -0.05630000 223 223 223 1521.000000
-0.50940001 -5.00909996 -0.05600000 214 214 214 1377.000000
-0.51990002 -4.99130011 -0.05570000 201 201 201 1169.000000
-0.53179997 -4.98180008 -0.05540000 241 241 241 1809.000000
-0.54259998 -4.97319984 -0.05510000 218 218 218 1441.000000
-0.55460000 -4.96990013 -0.05490000 254 254 254 2017.000000
-0.56690001 -4.96430016 -0.05470000 219 219 219 1457.000000
-0.57800001 -4.96040010 -0.05450000 228 228 228 1601.000000
-0.58980000 -4.95819998 -0.05430000 237 237 237 1745.000000
-0.60219997 -4.95559978 -0.05420000 230 230 230 1633.000000
-0.61390001 -4.95160007 -0.05400000 233 233 233 1681.000000
-0.62559998 -4.94859982 -0.05380000 225 225 225 1553.000000
-0.63789999 -4.94479990 -0.05360000 216 216 216 1409.000000
-0.64950001 -4.94089985 -0.05340000 210 210 210 1313.000000
-0.66070002 -4.93569994 -0.05320000 255 255 255 2033.000000
-0.67339998 -4.93240023 -0.05300000 228 228 228 1601.000000
-0.68540001 -4.93079996 -0.05280000 235 235 235 1713.000000
-0.69749999 -4.93170023 -0.05270000 219 219 219 1457.000000
-0.71060002 -4.93200016 -0.05260000 230 230 230 1633.000000
-0.72329998 -4.93779993 -0.05250000 194 194 194 1057.000000
-0.73619998 -4.94110012 -0.05240000 215 215 215 1393.000000
-0.75099999 -4.95090008 -0.05230000 209 209 209 1297.000000
-0.76400000 -4.95669985 -0.05220000 210 210 210 1313.000000
-0.77869999 -4.97329998 -0.05230000 208 208 208 1281.000000
-0.79610002 -5.00199986 -0.05240000 168 168 168 641.000000
-0.81150001 -5.02069998 -0.05250000 201 201 201 1169.000000
-0.81410003 -5.01940012 -0.06410000 213 213 213 1361.000000
-0.46880001 -5.09460020 -0.07010000 216 216 216 1409.000000
-0.47740000 -5.06190014 -0.06950000 227 227 227 1585.000000
-0.48780000 -5.04020023 -0.06910000 210 210 210 1313.000000
-0.49910000 -5.02129984 -0.06870000 237 237 237 1745.000000
-0.50970000 -5.01000023 -0.06840000 213 213 213 1361.000000
-0.51999998 -4.99109983 -0.06790000 233 233 233 1681.000000
-0.53170002 -4.97919989 -0.06760000 236 236 236 1729.000000
-0.54290003 -4.97440004 -0.06740000 220 220 220 1473.000000
-0.55510002 -4.97259998 -0.06720000 255 255 255 2033.000000
-0.56680000 -4.96220016 -0.06690000 225 225 225 1553.000000
-0.57800001 -4.95940018 -0.06670000 221 221 221 1489.000000
-0.58960003 -4.95539999 -0.06650000 223 223 223 1521.000000
-0.60219997 -4.95480013 -0.06640000 228 228 228 1601.000000
-0.61409998 -4.95190001 -0.06620000 217 217 217 1425.000000
-0.62559998 -4.94729996 -0.06600000 230 230 230 1633.000000
-0.63800001 -4.94379997 -0.06580000 230 230 230 1633.000000
-0.64950001 -4.93989992 -0.06560000 213 213 213 1361.000000
-0.66070002 -4.93419981 -0.06540000 212 212 212 1345.000000
-0.67339998 -4.93069983 -0.06520000 210 210 210 1313.000000
-0.68559998 -4.93139982 -0.06500000 217 217 217 1425.000000
-0.69779998 -4.93260002 -0.06490000 221 221 221 1489.000000
-0.71069998 -4.93179989 -0.06480000 235 235 235 1713.000000
-0.72340000 -4.93769979 -0.06470000 192 192 192 1025.000000
-0.73619998 -4.93989992 -0.06460000 255 255 255 2033.000000
-0.75070000 -4.94810009 -0.06450000 198 198 198 1121.000000
-0.76370001 -4.95419979 -0.06450000 192 192 192 1025.000000
-0.77859998 -4.97170019 -0.06460000 224 224 224 1537.000000
-0.79490000 -4.99370003 -0.06470000 164 164 164 577.000000
-0.81120002 -5.01749992 -0.06490000 205 205 205 1233.000000
-0.81379998 -5.01620007 -0.07660000 185 185 185 913.000000
-0.46890000 -5.09450006 -0.08270000 234 234 234 1697.000000
-0.47780001 -5.06440020 -0.08200000 228 228 228 1601.000000
-0.48789999 -5.03999996 -0.08150000 212 212 212 1345.000000
-0.49939999 -5.02299976 -0.08100000 243 243 243 1841.000000
-0.50980002 -5.00920010 -0.08070000 208 208 208 1281.000000
-0.52050000 -4.99399996 -0.08030000 228 228 228 1601.000000
-0.53179997 -4.97840023 -0.07990000 229 229 229 1617.000000
-0.54299998 -4.97419977 -0.07970000 222 222 222 1505.000000
-0.55489999 -4.96999979 -0.07940000 255 255 255 2033.000000
-0.56699997 -4.96250010 -0.07920000 236 236 236 1729.000000
-0.57840002 -4.96140003 -0.07900000 227 227 227 1585.000000
-0.58990002 -4.95679998 -0.07880000 219 219 219 1457.000000
-0.60219997 -4.95300007 -0.07860000 234 234 234 1697.000000
-0.61390001 -4.94880009 -0.07840000 225 225 225 1553.000000
-0.62559998 -4.94630003 -0.07820000 222 222 222 1505.000000
-0.63789999 -4.94189978 -0.07800000 220 220 220 1473.000000
-0.64929998 -4.93709993 -0.07770000 219 219 219 1457.000000
-0.66090000 -4.93480015 -0.07760000 226 226 226 1569.000000
-0.67369998 -4.93190002 -0.07740000 221 221 221 1489.000000
-0.68540001 -4.92869997 -0.07720000 224 224 224 1537.000000
-0.69749999 -4.92939997 -0.07710000 218 218 218 1441.000000
-0.71060002 -4.93009996 -0.07690000 240 240 240 1793.000000
-0.72320002 -4.93480015 -0.07690000 193 193 193 1041.000000
-0.73600000 -4.93769979 -0.07680000 219 219 219 1457.000000
-0.75019997 -4.94360018 -0.07670000 215 215 215 1393.000000
-0.76349998 -4.95200014 -0.07670000 219 219 219 1457.000000
-0.77800000 -4.96689987 -0.07680000 219 219 219 1457.000000
-0.79409999 -4.98769999 -0.07700000 181 181 181 849.000000
-0.81070000 -5.01389980 -0.07730000 177 177 177 785.000000
-0.81379998 -5.01520014 -0.08910000 186 186 186 929.000000
-0.46900001 -5.09340000 -0.09520000 229 229 229 1617.000000
-0.47810000 -5.06519985 -0.09450000 236 236 236 1729.000000
-0.48830000 -5.04190016 -0.09390000 219 219 219 1457.000000
-0.49959999 -5.02330017 -0.09340000 231 231 231 1649.000000
-0.51020002 -5.01160002 -0.09300000 205 205 205 1233.000000
