-1.29809999 7.00000000 1.78460002 255 255 255 1649.000000
-1.29849994 7.01389980 1.78439999 255 255 255 1521.000000
-1.30040002 7.02740002 1.78470004 255 255 255 1697.000000
-1.31200004 7.03929996 1.78840005 255 255 255 2033.000000
-1.31579995 7.05310011 1.78929996 255 255 255 1521.000000
-1.32659996 7.06610012 1.79270005 255 255 255 961.000000
-1.33729994 7.07830000 1.79600000 255 255 255 1393.000000
-1.35590005 7.09079981 1.80200005 255 255 255 849.000000
-1.37189996 7.10370016 1.80719995 255 255 255 2033.000000
-1.40190005 7.11469984 1.81700003 255 255 255 897.000000
-1.43659997 7.12659979 1.82850003 255 255 255 1057.000000
-1.42320001 6.85020018 1.81540000 255 255 255 1441.000000
-1.37559998 6.86910009 1.79900002 255 255 255 1681.000000
-1.34990001 6.88630009 1.78989995 255 255 255 1393.000000
-1.33659995 6.90159988 1.78499997 255 255 255 657.000000
-1.33029997 6.91529989 1.78250003 255 255 255 2033.000000
-1.31659997 6.93079996 1.77750003 255 255 255 657.000000
-1.30949998 6.94519997 1.77479994 255 255 255 2033.000000
-1.30209994 6.95889997 1.77190006 255 255 255 1697.000000
-1.30190003 6.97270012 1.77149999 255 255 255 2033.000000
-1.29999995 6.98680019 1.77049994 255 255 255 2033.000000
-1.29770005 7.00019979 1.76940000 255 255 255 1665.000000
-1.29840004 7.01399994 1.76929998 255 255 255 1473.000000
-1.30170000 7.02740002 1.77010000 255 255 255 1569.000000
-1.31130004 7.03950024 1.77300000 255 255 255 2033.000000
-1.31330001 7.05340004 1.77339995 255 255 255 1793.000000
-1.32509995 7.06629992 1.77699995 255 255 255 1601.000000
-1.33620000 7.07849979 1.78050005 255 255 255 1169.000000
-1.35290003 7.09119987 1.78579998 255 255 255 1041.000000
-1.36849999 7.10400009 1.79069996 255 255 255 1473.000000
-1.39900005 7.11509991 1.80069995 255 255 255 689.000000
-1.43509996 7.12680006 1.81260002 255 255 255 1265.000000
-1.42900002 6.84959984 1.80190003 255 255 255 1089.000000
-1.37489998 6.86929989 1.78340006 255 255 255 1617.000000
-1.34909999 6.88649988 1.77440000 255 255 255 1825.000000
-1.33889997 6.90140009 1.77059996 255 255 255 657.000000
-1.33010006 6.91550016 1.76730001 255 255 255 2033.000000
-1.31540000 6.93109989 1.76199996 255 255 255 865.000000
-1.31029999 6.94519997 1.75989997 255 255 255 2033.000000
-1.30260003 6.95900011 1.75699997 255 255 255 1025.000000
-1.30200005 6.97279978 1.75639999 255 255 255 1841.000000
-1.29770005 6.98710012 1.75469995 255 255 255 1857.000000
-1.29789996 7.00029993 1.75440001 255 255 255 1537.000000
-1.29849994 7.01410007 1.75430000 255 255 255 1649.000000
-1.30060005 7.02769995 1.75460005 255 255 255 1825.000000
-1.31099999 7.03959990 1.75779998 255 255 255 2033.000000
-1.31500006 7.05329990 1.75880003 255 255 255 1809.000000
-1.32299995 7.06659985 1.76119995 255 255 255 1473.000000
-1.33550000 7.07870007 1.76510000 255 255 255 1249.000000
-1.35090005 7.09140015 1.76989996 255 255 255 1313.000000
-1.36769998 7.10419989 1.77530003 255 255 255 1377.000000
-1.39760005 7.11530018 1.78489995 255 255 255 769.000000
-1.43420005 7.12690020 1.79680002 255 255 255 1249.000000
-1.42670000 6.84999990 1.78559995 255 255 255 1297.000000
-1.37520003 6.86940002 1.76820004 255 255 255 1745.000000
-1.34979999 6.88649988 1.75940001 255 255 255 1841.000000
-1.33720005 6.90170002 1.75479996 255 255 255 817.000000
-1.32690001 6.91590023 1.75109994 255 255 255 1985.000000
-1.31439996 6.93130016 1.74660003 255 255 255 1185.000000
-1.31099999 6.94530010 1.74510002 255 255 255 2033.000000
-1.30170000 6.95919991 1.74160004 255 255 255 993.000000
-1.29869998 6.97319984 1.74030006 255 255 255 1217.000000
-1.29519999 6.98750019 1.73880005 255 255 255 1649.000000
-1.29779994 7.00040007 1.73930001 255 255 255 1857.000000
-1.29840004 7.01420021 1.73920000 255 255 255 1521.000000
-1.30079997 7.02769995 1.73969996 255 255 255 1793.000000
-1.31009996 7.03980017 1.74249995 255 255 255 2033.000000
-1.31379998 7.05359983 1.74339998 255 255 255 1825.000000
-1.32270002 7.06669998 1.74600005 255 255 255 1633.000000
-1.33560002 7.07880020 1.75000000 255 255 255 1297.000000
-1.34920001 7.09170008 1.75419998 255 255 255 1553.000000
-1.36559999 7.10449982 1.75940001 255 255 255 1761.000000
-1.39189994 7.11579990 1.76779997 255 255 255 897.000000
-1.43089998 7.12729979 1.78040004 255 255 255 1137.000000
-1.42900002 6.84980011 1.77100003 255 255 255 433.000000
-1.37919998 6.86899996 1.75430000 255 255 255 1585.000000
-1.35179996 6.88640022 1.74489999 255 255 255 1713.000000
-1.33710003 6.90180016 1.73969996 255 255 255 561.000000
-1.32470000 6.91629982 1.73520005 255 255 255 1985.000000
-1.31659997 6.93120003 1.73220003 255 255 255 1185.000000
-1.31219995 6.94519997 1.73039997 255 255 255 2033.000000
-1.30110002 6.95930004 1.72640002 255 255 255 1729.000000
-1.29869998 6.97329998 1.72529995 255 255 255 1729.000000
-1.29680002 6.98740005 1.72430003 255 255 255 1601.000000
-1.29849994 7.00040007 1.72449994 255 255 255 2017.000000
-1.29900002 7.01429987 1.72440004 255 255 255 1617.000000
-1.29910004 7.02799988 1.72409999 255 255 255 1697.000000
-1.30770004 7.04010010 1.72660005 255 255 255 2033.000000
-1.31159997 7.05389977 1.72759998 255 255 255 1697.000000
-1.32560003 7.06659985 1.73189998 255 255 255 1809.000000
-1.33500004 7.07900000 1.73469996 255 255 255 1329.000000
-1.34819996 7.09189987 1.73870003 255 255 255 1377.000000
-1.36609995 7.10449982 1.74430001 255 255 255 2017.000000
-1.39020002 7.11600018 1.75199997 255 255 255 929.000000
-1.42690003 7.12769985 1.76370001 255 255 255 1553.000000
-1.42970002 6.84980011 1.75580001 255 255 255 465.000000
-1.38230002 6.86880016 1.74000001 255 255 255 1137.000000
-1.35140002 6.88660002 1.72959995 255 255 255 1361.000000
-1.33580005 6.90210009 1.72409999 255 255 255 673.000000
-1.32459998 6.91639996 1.72010005 255 255 255 2017.000000
-1.31500006 6.93149996 1.71659994 255 255 255 1233.000000
-1.31019998 6.94560003 1.71469998 255 255 255 2033.000000
-1.30190003 6.95940018 1.71159995 255 255 255 1345.000000
-1.29920006 6.97340012 1.71039999 255 255 255 1537.000000
-1.29550004 6.98759985 1.70889997 255 255 255 1681.000000
-1.29620004 7.00070000 1.70879996 255 255 255 1761.000000
-1.29709995 7.01450014 1.70879996 255 255 255 1969.000000
-1.29970002 7.02810001 1.70930004 255 255 255 1633.000000
-1.30820000 7.04020023 1.71179998 255 255 255 2033.000000
-1.31110001 7.05399990 1.71239996 255 255 255 1473.000000
-1.32490003 7.06680012 1.71659994 255 255 255 1809.000000
-1.33369994 7.07919979 1.71920002 255 255 255 1473.000000
-1.34770000 7.09200001 1.72350001 255 255 255 1313.000000
-1.36310005 7.10489988 1.72819996 255 255 255 1969.000000
-1.38820004 7.11630011 1.73609996 255 255 255 897.000000
-1.42349994 7.12799978 1.74730003 255 255 255 1489.000000
-1.41090000 6.85220003 1.73440003 255 255 255 -287.000000
-1.38540006 6.86850023 1.72580004 255 255 255 673.000000
-1.35200000 6.88660002 1.71459997 255 255 255 1009.000000
-1.33710003 6.90210009 1.70940006 255 255 255 401.000000
-1.32599998 6.91639996 1.70550001 255 255 255 1889.000000
-1.31540000 6.93149996 1.70169997 255 255 255 1297.000000
-1.30910003 6.94579983 1.69930005 255 255 255 2033.000000
-1.30219996 6.95940018 1.69679999 255 255 255 1505.000000
-1.29970002 6.97349977 1.69560003 255 255 255 1841.000000
-1.29519999 6.98780012 1.69379997 255 255 255 1697.000000
-1.29670000 7.00080013 1.69400001 255 255 255 1681.000000
-1.29869998 7.01450014 1.69430006 255 255 255 2033.000000
-1.29869998 7.02829981 1.69400001 255 255 255 1473.000000
-1.30729997 7.04040003 1.69649994 255 255 255 2033.000000
-1.31040001 7.05420017 1.69719994 255 255 255 1473.000000
-1.32369995 7.06699991 1.70120001 255 255 255 1793.000000
-1.33190000 7.07940006 1.70360005 255 255 255 1153.000000
-1.34379995 7.09240007 1.70710003 255 255 255 1329.000000
-1.36210001 7.10510015 1.71280003 255 255 255 1377.000000
-1.38580000 7.11660004 1.72019994 255 255 255 897.000000
-1.42120004 7.12830019 1.73130000 255 255 255 1345.000000
-1.44739997 6.84789991 1.73080003 255 255 255 -1071.000000
-1.38769996 6.86840010 1.71130002 255 255 255 609.000000
-1.35490000 6.88640022 1.70039999 255 255 255 465.000000
-1.33759999 6.90210009 1.69449997 255 255 255 609.000000
-1.32809997 6.91620016 1.69110000 255 255 255 2033.000000
-1.31369996 6.93179989 1.68610001 255 255 255 1265.000000
-1.30560005 6.94630003 1.68320000 255 255 255 1937.000000
-1.30260003 6.95949984 1.68190002 255 255 255 1681.000000
-1.30060005 6.97349977 1.68089998 255 255 255 1809.000000
-1.29589999 6.98780012 1.67910004 255 255 255 1921.000000
-1.29680002 7.00089979 1.67910004 255 255 255 1329.000000
-1.29960001 7.01450014 1.67970002 255 255 255 2033.000000
-1.29879999 7.02839994 1.67910004 255 255 255 1425.000000
-1.30630004 7.04059982 1.68120003 255 255 255 2033.000000
-1.30929995 7.05439997 1.68190002 255 255 255 1537.000000
-1.32319999 7.06710005 1.68610001 255 255 255 1873.000000
-1.32980001 7.07969999 1.68789995 255 255 255 1585.000000
-1.34350002 7.09259987 1.69200003 255 255 255 913.000000
-1.36029994 7.10529995 1.69710004 255 255 255 1025.000000
-1.38409996 7.11679983 1.70449996 255 255 255 705.000000
-1.41639996 7.12879992 1.71449995 255 255 255 1089.000000
-1.38950002 6.86829996 1.69669998 255 255 255 241.000000
-1.35710001 6.88619995 1.68599999 255 255 255 769.000000
-1.33829999 6.90210009 1.67970002 255 255 255 657.000000
-1.32900000 6.91629982 1.67639995 255 255 255 2033.000000
-1.31599998 6.93170023 1.67190003 255 255 255 961.000000
-1.30519998 6.94640017 1.66810000 255 255 255 1969.000000
-1.30439997 6.95940018 1.66750002 255 255 255 1777.000000
-1.30019999 6.97359991 1.66589999 255 255 255 1777.000000
-1.29569995 6.98799992 1.66410005 255 255 255 2033.000000
-1.29579997 7.00110006 1.66380000 255 255 255 1409.000000
-1.29869998 7.01469994 1.66450000 255 255 255 2001.000000
-1.29900002 7.02850008 1.66429996 255 255 255 1441.000000
-1.30530000 7.04080009 1.66600001 255 255 255 2033.000000
-1.30809999 7.05459976 1.66659999 255 255 255 1329.000000
-1.32340002 7.06720018 1.67110002 255 255 255 2033.000000
-1.32799995 7.07999992 1.67229998 255 255 255 1745.000000
-1.34060001 7.09289980 1.67610002 255 255 255 1329.000000
-1.35599995 7.10580015 1.68069994 255 255 255 769.000000
-1.37870002 7.11730003 1.68760002 255 255 255 625.000000
-1.41550004 7.12890005 1.69900000 255 255 255 961.000000
-1.39139998 6.86810017 1.68210006 255 255 255 1361.000000
-1.35539997 6.88660002 1.67040002 255 255 255 1057.000000
-1.34010005 6.90199995 1.66520000 255 255 255 657.000000
-1.32669997 6.91660023 1.66069996 255 255 255 1841.000000
-1.31640005 6.93170023 1.65709996 255 255 255 1009.000000
-1.30739999 6.94630003 1.65390003 255 255 255 2033.000000
-1.30330002 6.95970011 1.65230000 255 255 255 1297.000000
-1.29890001 6.97389984 1.65050006 255 255 255 1441.000000
-1.29439998 6.98820019 1.64880002 255 255 255 1729.000000
-1.29519999 7.00129986 1.64880002 255 255 255 1377.000000
-1.29840004 7.01490021 1.64950001 255 255 255 2033.000000
-1.29809999 7.02860022 1.64909995 255 255 255 1601.000000
-1.30519998 7.04090023 1.65100002 255 255 255 2033.000000
-1.30840003 7.05469990 1.65180004 255 255 255 977.000000
-1.32400000 7.06729984 1.65639997 255 255 255 2033.000000
-1.32830000 7.08010006 1.65750003 255 255 255 1569.000000
-1.34179997 7.09289980 1.66149998 255 255 255 1681.000000
-1.35609996 7.10589981 1.66569996 255 255 255 945.000000
-1.37450004 7.11770010 1.67120004 255 255 255 1201.000000
-1.41129994 7.12939978 1.68250000 255 255 255 865.000000
-1.39170003 6.86819983 1.66700006 255 255 255 1377.000000
-1.35699999 6.88649988 1.65579998 255 255 255 1249.000000
-1.34169996 6.90199995 1.65069997 255 255 255 481.000000
-1.32650006 6.91680002 1.64559996 255 255 255 1457.000000
-1.31550002 6.93190002 1.64180005 255 255 255 1617.000000
-1.30620003 6.94649982 1.63859999 255 255 255 1841.000000
-1.30250001 6.95989990 1.63709998 255 255 255 1121.000000
-1.29849994 6.97399998 1.63549995 255 255 255 1553.000000
-1.29579997 6.98820019 1.63440001 255 255 255 1585.000000
-1.29480004 7.00139999 1.63380003 255 255 255 1073.000000
-1.29719996 7.01510000 1.63419998 255 255 255 2033.000000
-1.29639995 7.02890015 1.63370001 255 255 255 1457.000000
-1.30309999 7.04120016 1.63549995 255 255 255 2033.000000
-1.30750000 7.05490017 1.63660002 255 255 255 1185.000000
-1.32280004 7.06750011 1.64110005 255 255 255 2033.000000
-1.32729995 7.08020020 1.64219999 255 255 255 1473.000000
-1.34010005 7.09320021 1.64600003 255 255 255 1553.000000
-1.35339999 7.10620022 1.64979994 255 255 255 1441.000000
-1.37339997 7.11789989 1.65579998 255 255 255 1057.000000
-1.40629995 7.12979984 1.66579998 255 255 255 1281.000000
-1.39300001 6.86819983 1.65230000 255 255 255 1793.000000
-1.35829997 6.88640022 1.64119995 255 255 255 561.000000
-1.34379995 6.90180016 1.63639998 255 255 255 81.000000
-1.32609999 6.91690016 1.63059998 255 255 255 1057.000000
-1.31669998 6.93190002 1.62730002 255 255 255 2017.000000
-1.30630004 6.94659996 1.62370002 255 255 255 1233.000000
-1.30190003 6.96000004 1.62210000 255 255 255 1697.000000
-1.29939997 6.97399998 1.62100005 255 255 255 1937.000000
-1.29390001 7.00159979 1.61870003 255 255 255 1201.000000
-1.29659998 7.01520014 1.61919999 255 255 255 2033.000000
-1.29670000 7.02899981 1.61889994 255 255 255 1473.000000
-1.30149996 7.04139996 1.62010002 255 255 255 2033.000000
-1.30719995 7.05499983 1.62160003 255 255 255 1153.000000
-1.32210004 7.06769991 1.62600005 255 255 255 2001.000000
-1.32630002 7.08039999 1.62699997 255 255 255 1377.000000
-1.34010005 7.09329987 1.63100004 255 255 255 1697.000000
-1.35319996 7.10629988 1.63479996 255 255 255 1169.000000
-1.37230003 7.11810017 1.64049995 255 255 255 1361.000000
-1.40390003 7.13009977 1.64989996 255 255 255 1489.000000
-1.45720005 7.14039993 1.66610003 255 255 255 961.000000
-1.39520001 6.86800003 1.63789999 255 255 255 1137.000000
-1.35850000 6.88649988 1.62619996 255 255 255 849.000000
-1.34259999 6.90210009 1.62100005 255 255 255 721.000000
-1.32910001 6.91669989 1.61650002 255 255 255 1345.000000
-1.31770003 6.93190002 1.61269999 255 255 255 1857.000000
-1.30690002 6.94670010 1.60909998 255 255 255 577.000000
-1.30369997 6.95989990 1.60780001 255 255 255 2033.000000
-1.29990005 6.97410011 1.60630000 255 255 255 2033.000000
-1.29349995 7.00180006 1.60370004 255 255 255 1425.000000
-1.29789996 7.01520014 1.60469997 255 255 255 2033.000000
-1.29499996 7.02930021 1.60360003 255 255 255 1521.000000
-1.30060005 7.04160023 1.60500002 255 255 255 2033.000000
-1.30350006 7.05539989 1.60570002 255 255 255 1633.000000
-1.32029998 7.06790018 1.61049998 255 255 255 1809.000000
-1.32309997 7.08080006 1.61109996 255 255 255 1297.000000
-1.33889997 7.09350014 1.61570001 255 255 255 1729.000000
-1.35130000 7.10659981 1.61930001 255 255 255 1105.000000
-1.37339997 7.11819983 1.62580001 255 255 255 1553.000000
-1.40129995 7.13040018 1.63409996 255 255 255 1425.000000
-1.45179999 7.14090014 1.64929998 255 255 255 1121.000000
-1.39890003 6.86770010 1.62390006 255 255 255 737.000000
-1.35819995 6.88670015 1.61109996 255 255 255 545.000000
-1.34089994 6.90240002 1.60549998 255 255 255 1569.000000
-1.32780004 6.91690016 1.60119998 255 255 255 1233.000000
-1.32060003 6.93170023 1.59870005 255 255 255 2001.000000
-1.30750000 6.94670010 1.59440005 255 255 255 817.000000
-1.30170000 6.96029997 1.59230006 255 255 255 2033.000000
-1.29560006 6.98850012 1.58980000 255 255 255 1185.000000
-1.29410005 7.00180006 1.58910000 255 255 255 1249.000000
-1.29729998 7.01539993 1.58980000 255 255 255 2033.000000
-1.29439998 7.02939987 1.58860004 255 255 255 1425.000000
-1.29949999 7.04180002 1.58990002 255 255 255 2033.000000
-1.30030000 7.05579996 1.58990002 255 255 255 1409.000000
-1.32089996 7.06799984 1.59590006 255 255 255 1985.000000
-1.32449996 7.08080006 1.59669995 255 255 255 1345.000000
-1.33729994 7.09369993 1.60029995 255 255 255 1633.000000
-1.34720004 7.10699987 1.60309994 255 255 255 1665.000000
-1.37150002 7.11840010 1.61020005 255 255 255 1745.000000
-1.39839995 7.13070011 1.61810005 255 255 255 1569.000000
-1.44540000 7.14150000 1.63209999 255 255 255 1409.000000
-1.40439999 6.86719990 1.61039996 255 255 255 817.000000
-1.36070001 6.88649988 1.59689999 255 255 255 1137.000000
-1.34800005 6.90170002 1.59270000 255 255 255 2017.000000
-1.32790005 6.91699982 1.58640003 255 255 255 1233.000000
-1.32410002 6.93149996 1.58490002 255 255 255 2033.000000
-1.30579996 6.94700003 1.57910001 255 255 255 1313.000000
-1.30569994 6.96000004 1.57869995 255 255 255 2033.000000
-1.30270004 6.97399998 1.57749999 255 255 255 1329.000000
-1.29349995 6.98880005 1.57439995 255 255 255 1393.000000
-1.29240000 7.00209999 1.57379997 255 255 255 1793.000000
-1.29289997 7.01590014 1.57369995 255 255 255 1985.000000
-1.29670000 7.02930021 1.57449996 255 255 255 1313.000000
-1.29799998 7.04209995 1.57470000 255 255 255 1825.000000
-1.30139995 7.05579996 1.57539999 255 255 255 1457.000000
-1.31169999 7.06890011 1.57830000 255 255 255 1697.000000
-1.32400000 7.08090019 1.58169997 255 255 255 1409.000000
-1.33469999 7.09399986 1.58469999 255 255 255 1745.000000
-1.34809995 7.10699987 1.58850002 255 255 255 1425.000000
-1.37049997 7.11859989 1.59500003 255 255 255 1729.000000
-1.39489996 7.13110018 1.60210001 255 255 255 1457.000000
-1.43920004 7.14200020 1.61510003 255 255 255 1425.000000
-1.40569997 6.86709976 1.59570003 255 255 255 1153.000000
-1.36339998 6.88630009 1.58280003 255 255 255 881.000000
-1.34930003 6.90170002 1.57819998 255 255 255 2033.000000
-1.33179998 6.91669989 1.57260001 255 255 255 1121.000000
-1.32280004 6.93170023 1.56959999 255 255 255 1873.000000
-1.30639994 6.94700003 1.56439996 255 255 255 1249.000000
-1.29949999 6.97450018 1.56180000 255 255 255 625.000000
-1.29540002 6.98869991 1.56019998 255 255 255 1665.000000
-1.29320002 7.00209999 1.55929995 255 255 255 1457.000000
-1.29159999 7.01609993 1.55850005 255 255 255 1761.000000
-1.29449999 7.02960014 1.55910003 255 255 255 1633.000000
-1.29729998 7.04220009 1.55970001 255 255 255 1841.000000
-1.30190003 7.05590010 1.56079996 255 255 255 1777.000000
-1.30960000 7.06920004 1.56289995 255 255 255 1777.000000
-1.32159996 7.08120012 1.56620002 255 255 255 1585.000000
-1.33379996 7.09420013 1.56959999 255 255 255 1921.000000
-1.34679997 7.10720015 1.57319999 255 255 255 1425.000000
-1.36399996 7.11920023 1.57809997 255 255 255 1473.000000
-1.39510000 7.13119984 1.58720005 255 255 255 1281.000000
-1.42750001 7.14289999 1.59660006 255 255 255 1313.000000
-1.41900003 6.86569977 1.58459997 255 255 255 1281.000000
-1.36389995 6.88630009 1.56799996 255 255 255 673.000000
-1.34619999 6.90210009 1.56239998 255 255 255 1793.000000
-1.33080006 6.91690016 1.55750000 255 255 255 1233.000000
-1.32659996 6.93139982 1.55589998 255 255 255 1873.000000
-1.30429995 6.96029997 1.54869998 255 255 255 1777.000000
-1.29709995 6.97480011 1.54630005 255 255 255 1073.000000
-1.29509997 6.98890018 1.54540002 255 255 255 1473.000000
-1.29139996 7.00239992 1.54400003 255 255 255 1505.000000
-1.29419994 7.01599979 1.54460001 255 255 255 2033.000000
-1.29369998 7.02979994 1.54419994 255 255 255 1521.000000
-1.30019999 7.04209995 1.54579997 255 255 255 2033.000000
-1.30229998 7.05600023 1.54620004 255 255 255 1169.000000
-1.31500006 7.06879997 1.54970002 255 255 255 2033.000000
-1.32050002 7.08139992 1.55110002 255 255 255 1601.000000
-1.33210003 7.09439993 1.55429995 255 255 255 1601.000000
-1.34480000 7.10750008 1.55780005 255 255 255 1281.000000
-1.36029994 7.11959982 1.56210005 255 255 255 1089.000000
-1.39400005 7.13140011 1.57190001 255 255 255 1649.000000
-1.42789996 7.14300013 1.58159995 255 255 255 1121.000000
-1.42980003 6.86450005 1.57270002 255 255 255 1329.000000
-1.36619997 6.88619995 1.55369997 255 255 255 673.000000
-1.35160005 6.90159988 1.54910004 255 255 255 2033.000000
-1.33630002 6.91639996 1.54429996 255 255 255 289.000000
-1.31200004 6.94670010 1.53649998 255 255 255 1617.000000
-1.30379999 6.96049976 1.53380001 255 255 255 1457.000000
-1.29869998 6.97480011 1.53199995 255 255 255 1473.000000
-1.29480004 6.98899984 1.53059995 255 255 255 1889.000000
-1.29149997 7.00250006 1.52939999 255 255 255 1601.000000
-1.29419994 7.01609993 1.52989995 255 255 255 2033.000000
-1.29340005 7.02990007 1.52939999 255 255 255 1665.000000
-1.29760003 7.04239988 1.53040004 255 255 255 1953.000000
-1.30120003 7.05620003 1.53120005 255 255 255 1265.000000
-1.31229997 7.06909990 1.53419995 255 255 255 1857.000000
-1.31930006 7.08160019 1.53600001 255 255 255 1473.000000
-1.32850003 7.09480000 1.53840005 255 255 255 1425.000000
-1.34179997 7.10780001 1.54209995 255 255 255 1217.000000
-1.36109996 7.11959982 1.54750001 255 255 255 1425.000000
-1.38610005 7.13199997 1.55460000 255 255 255 1281.000000
-1.42190003 7.14349985 1.56480002 255 255 255 1217.000000
-1.42460001 6.86520004 1.55599999 255 255 255 1537.000000
-1.37100005 6.88570023 1.54020000 255 255 255 753.000000
-1.35280001 6.90159988 1.53450000 255 255 255 1985.000000
-1.32579994 6.93170023 1.52610004 255 255 255 1649.000000
-1.31410003 6.94659996 1.52240002 255 255 255 2033.000000
-1.30350006 6.96059990 1.51900005 255 255 255 1601.000000
-1.29859996 6.97489977 1.51730001 255 255 255 1937.000000
-1.29509997 6.98909998 1.51600003 255 255 255 2033.000000
-1.29270005 7.00250006 1.51499999 255 255 255 1425.000000
-1.29519999 7.01609993 1.51549995 255 255 255 2033.000000
-1.29369998 7.03000021 1.51479995 255 255 255 1825.000000
-1.29449999 7.04279995 1.51479995 255 255 255 1889.000000
-1.29970002 7.05639982 1.51600003 255 255 255 1441.000000
-1.31089997 7.06939983 1.51900005 255 255 255 1937.000000
-1.31990004 7.08169985 1.52139997 255 255 255 1489.000000
-1.32959998 7.09490013 1.52400005 255 255 255 1665.000000
-1.34329998 7.10780001 1.52769995 255 255 255 993.000000
-1.35870004 7.11990023 1.53199995 255 255 255 1521.000000
-1.38160002 7.13250017 1.53840005 255 255 255 1361.000000
-1.41999996 7.14370012 1.54929996 255 255 255 1153.000000
-1.44159997 6.86329985 1.54589999 255 255 255 705.000000
-1.38329995 6.88439989 1.52880001 255 255 255 1153.000000
-1.33809996 6.91650009 1.51520002 255 255 255 785.000000
-1.32550001 6.93190002 1.51119995 255 255 255 1745.000000
-1.31320000 6.94680023 1.50740004 255 255 255 1745.000000
-1.30309999 6.96080017 1.50419998 255 255 255 1777.000000
-1.29849994 6.97499990 1.50259995 255 255 255 1953.000000
-1.29750001 6.98899984 1.50199997 255 255 255 2033.000000
-1.29289997 7.00260019 1.50039995 255 255 255 1409.000000
-1.29279995 7.01650000 1.50010002 255 255 255 1985.000000
-1.29519999 7.03000021 1.50059998 255 255 255 2033.000000
-1.29540002 7.04279995 1.50039995 255 255 255 2017.000000
-1.30110002 7.05639982 1.50170004 255 255 255 1697.000000
-1.30830002 7.06969976 1.50360000 255 255 255 2017.000000
-1.31840003 7.08190012 1.50629997 255 255 255 1409.000000
-1.32729995 7.09509993 1.50860000 255 255 255 1681.000000
-1.33980000 7.10820007 1.51189995 255 255 255 865.000000
-1.35669994 7.12020016 1.51660001 255 255 255 1793.000000
-1.38080001 7.13259983 1.52330005 255 255 255 1601.000000
-1.41779995 7.14400005 1.53369999 255 255 255 977.000000
-1.38370001 6.88450003 1.51400006 255 255 255 1361.000000
-1.35409999 6.90170002 1.50520003 255 255 255 1297.000000
-1.33940005 6.91639996 1.50080001 255 255 255 1361.000000
-1.32519996 6.93200016 1.49640000 255 255 255 1937.000000
-1.31369996 6.94680023 1.49280000 255 255 255 2033.000000
-1.30359995 6.96080017 1.48969996 255 255 255 1713.000000
-1.29750001 6.97520018 1.48759997 255 255 255 1121.000000
-1.29779994 6.98909998 1.48740005 255 255 255 2033.000000
-1.29170001 7.00279999 1.48539996 255 255 255 1265.000000
-1.29120004 7.01669979 1.48500001 255 255 255 1521.000000
-1.29750001 7.02990007 1.48650002 255 255 255 2033.000000
-1.29519999 7.04300022 1.48570001 255 255 255 1729.000000
-1.30340004 7.05630016 1.48769999 255 255 255 2033.000000
-1.30890000 7.06979990 1.48909998 255 255 255 1841.000000
-1.31760001 7.08209991 1.49129999 255 255 255 1633.000000
-1.32790005 7.09520006 1.49399996 255 255 255 1361.000000
-1.33910000 7.10830021 1.49699998 255 255 255 961.000000
-1.35510004 7.12039995 1.50129998 255 255 255 1793.000000
-1.37759995 7.13290024 1.50750005 255 255 255 1633.000000
-1.41180003 7.14449978 1.51699996 255 255 255 1057.000000
-1.37609994 6.88549995 1.49699998 255 255 255 1505.000000
-1.35339999 6.90189981 1.49020004 255 255 255 865.000000
-1.33889997 6.91660023 1.48580003 255 255 255 1601.000000
-1.32669997 6.93190002 1.48210001 255 255 255 1761.000000
-1.31270003 6.94700003 1.47780001 255 255 255 1953.000000
-1.30540001 6.96070004 1.47549999 255 255 255 1825.000000
-1.29709995 6.97529984 1.47290003 255 255 255 1121.000000
-1.29869998 6.98909998 1.47300005 255 255 255 2033.000000
-1.29310000 7.00279999 1.47119999 255 255 255 1217.000000
-1.29340005 7.01660013 1.47099996 255 255 255 1105.000000
-1.29680002 7.03009987 1.47169995 255 255 255 2033.000000
-1.29600000 7.04300022 1.47130001 255 255 255 1425.000000
-1.30180001 7.05660009 1.47270000 255 255 255 2001.000000
-1.30770004 7.07000017 1.47409999 255 255 255 1697.000000
-1.31680000 7.08230019 1.47640002 255 255 255 1537.000000
-1.32669997 7.09539986 1.47899997 255 255 255 1089.000000
-1.33519995 7.10879993 1.48119998 255 255 255 1137.000000
-1.34879994 7.12090015 1.48479998 255 255 255 1521.000000
-1.37650001 7.13310003 1.49240005 255 255 255 1633.000000
-1.40900004 7.14480019 1.50139999 255 255 255 1009.000000
-1.44850004 7.15539980 1.51230001 255 255 255 145.000000
-1.38069999 6.88509989 1.48339999 255 255 255 993.000000
-1.35590005 6.90170002 1.47609997 255 255 255 545.000000
-1.34029996 6.91650009 1.47150004 255 255 255 1873.000000
-1.32439995 6.93230009 1.46669996 255 255 255 1585.000000
-1.31519997 6.94689989 1.46389997 255 255 255 1985.000000
-1.30260003 6.96110010 1.46010005 255 255 255 1233.000000
-1.29680002 6.97550011 1.45819998 255 255 255 1601.000000
-1.29690003 6.98939991 1.45790005 255 255 255 2033.000000
-1.29349995 7.00279999 1.45669997 255 255 255 1633.000000
-1.29009998 7.01700020 1.45550001 255 255 255 1649.000000
-1.29550004 7.03030014 1.45679998 255 255 255 2033.000000
-1.29680002 7.04300022 1.45690000 255 255 255 1745.000000
-1.29939997 7.05690002 1.45739996 255 255 255 1841.000000
-1.30630004 7.07019997 1.45910001 255 255 255 1633.000000
-1.31869996 7.08220005 1.46229994 255 255 255 1841.000000
-1.32379997 7.09569979 1.46350002 255 255 255 1265.000000
-1.33290005 7.10900021 1.46589994 255 255 255 1473.000000
-1.34949994 7.12099981 1.47029996 255 255 255 1265.000000
-1.37320006 7.13350010 1.47669995 255 255 255 1265.000000
-1.40670002 7.14510012 1.48580003 255 255 255 929.000000
-1.46229994 7.15460014 1.50109994 255 255 255 -191.000000
-1.38269997 6.88490009 1.46910000 255 255 255 1297.000000
-1.35469997 6.90189981 1.46099997 255 255 255 497.000000
-1.34300005 6.91629982 1.45749998 255 255 255 1921.000000
-1.32389998 6.93249989 1.45190001 255 255 255 1185.000000
-1.31579995 6.94689989 1.44939995 255 255 255 1985.000000
-1.30490005 6.96099997 1.44610000 255 255 255 1681.000000
-1.29840004 6.97539997 1.44400001 255 255 255 1617.000000
-1.29610002 6.98950005 1.44309998 255 255 255 2033.000000
-1.29089999 7.00320005 1.44140005 255 255 255 1937.000000
-1.29059994 7.01709986 1.44110000 255 255 255 1617.000000
-1.29639995 7.03030014 1.44239998 255 255 255 2033.000000
-1.29779994 7.04309988 1.44260001 255 255 255 1921.000000
-1.30009997 7.05690002 1.44299996 255 255 255 2033.000000
-1.30729997 7.07019997 1.44470000 255 255 255 1777.000000
-1.31770003 7.08239985 1.44739997 255 255 255 1937.000000
-1.32299995 7.09590006 1.44869995 255 255 255 1601.000000
-1.33179998 7.10920000 1.45089996 255 255 255 1489.000000
-1.34549999 7.12139988 1.45449996 255 255 255 1393.000000
-1.37129998 7.13369989 1.46140003 255 255 255 1425.000000
-1.40369999 7.14540005 1.47010005 255 255 255 1233.000000
-1.45200002 7.15539980 1.48329997 255 255 255 769.000000
-1.38549995 6.88469982 1.45500004 255 255 255 1345.000000
-1.35490000 6.90199995 1.44630003 255 255 255 1329.000000
-1.34440005 6.91629982 1.44309998 255 255 255 1617.000000
-1.32519996 6.93240023 1.43760002 255 255 255 1425.000000
-1.31690001 6.94689989 1.43499994 255 255 255 1969.000000
-1.30610001 6.96099997 1.43180001 255 255 255 1985.000000
-1.29929996 6.97539997 1.42970002 255 255 255 1377.000000
-1.29649997 6.98960018 1.42859995 255 255 255 2033.000000
-1.29200006 7.00320005 1.42719996 255 255 255 1313.000000
-1.29120004 7.01709986 1.42670000 255 255 255 1409.000000
-1.29690003 7.03039980 1.42799997 255 255 255 2033.000000
-1.29770005 7.04320002 1.42799997 255 255 255 2033.000000
-1.29879999 7.05709982 1.42809999 255 255 255 1937.000000
-1.30820000 7.07019997 1.43040001 255 255 255 1569.000000
-1.31700003 7.08260012 1.43260002 255 255 255 1745.000000
-1.32299995 7.09600019 1.43400002 255 255 255 1473.000000
-1.33229995 7.10930014 1.43640006 255 255 255 1009.000000
-1.34350002 7.12169981 1.43920004 255 255 255 1649.000000
-1.37039995 7.13390017 1.44640005 255 255 255 1409.000000
-1.39909995 7.14580011 1.45410001 255 255 255 1457.000000
-1.44529998 7.15600014 1.46650004 255 255 255 1457.000000
-1.38619995 6.88479996 1.44040000 255 255 255 1105.000000
-1.35819995 6.90180016 1.43250000 255 255 255 1009.000000
-1.34529996 6.91629982 1.42869997 255 255 255 2033.000000
-1.32700002 6.93230009 1.42340004 255 255 255 1441.000000
-1.31610000 6.94710016 1.42019999 255 255 255 2033.000000
-1.30700004 6.96099997 1.41750002 255 255 255 1793.000000
-1.30159998 6.97529984 1.41569996 255 255 255 1409.000000
-1.29509997 6.98990011 1.41369998 255 255 255 2033.000000
-1.29299998 7.00320005 1.41289997 255 255 255 1841.000000
-1.29289997 7.01709986 1.41260004 255 255 255 1809.000000
-1.29530001 7.03060007 1.41299999 255 255 255 2033.000000
-1.29560006 7.04349995 1.41289997 255 255 255 1857.000000
-1.29849994 7.05730009 1.41340005 255 255 255 2033.000000
-1.30669999 7.07049990 1.41540003 255 255 255 1121.000000
-1.31750000 7.08269978 1.41820002 255 255 255 1937.000000
-1.32009995 7.09639978 1.41869998 255 255 255 1617.000000
-1.33169997 7.10949993 1.42159998 255 255 255 1057.000000
-1.34249997 7.12179995 1.42429996 255 255 255 1233.000000
-1.36489999 7.13439989 1.43019998 255 255 255 785.000000
-1.39800000 7.14599991 1.43900001 255 255 255 1521.000000
-1.44250000 7.15630007 1.45079994 255 255 255 1393.000000
-1.39569998 6.88380003 1.42809999 255 255 255 817.000000
-1.35889995 6.90180016 1.41799998 255 255 255 961.000000
-1.35130000 6.91580009 1.41559994 255 255 255 2033.000000
-1.32910001 6.93219995 1.40939999 255 255 255 2033.000000
-1.31640005 6.94719982 1.40569997 255 255 255 2033.000000
-1.30809999 6.96099997 1.40320003 255 255 255 1777.000000
-1.30149996 6.97539997 1.40110004 255 255 255 1217.000000
-1.29579997 6.98990011 1.39929998 255 255 255 1649.000000
-1.29380000 7.00320005 1.39859998 255 255 255 2033.000000
-1.29260004 7.01719999 1.39800000 255 255 255 1537.000000
-1.29250002 7.03100014 1.39769995 255 255 255 1793.000000
-1.29400003 7.04370022 1.39789999 255 255 255 1713.000000
-1.29760003 7.05749989 1.39870000 255 255 255 1537.000000
-1.30579996 7.07070017 1.40059996 255 255 255 1601.000000
-1.31470001 7.08300018 1.40279996 255 255 255 1857.000000
-1.31959999 7.09649992 1.40390003 255 255 255 1265.000000
-1.33070004 7.10960007 1.40670002 255 255 255 1105.000000
-1.34089994 7.12209988 1.40929997 255 255 255 1249.000000
-1.36189997 7.13469982 1.41470003 255 255 255 1201.000000
-1.38929999 7.14669991 1.42190003 255 255 255 1057.000000
-1.43990004 7.15649986 1.43519998 255 255 255 977.000000
-1.40730000 6.88259983 1.41639996 255 255 255 785.000000
-1.36329997 6.90140009 1.40439999 255 255 255 913.000000
-1.35259998 6.91569996 1.40129995 255 255 255 2033.000000
-1.32659996 6.93260002 1.39409995 255 255 255 1585.000000
-1.31550002 6.94740009 1.39090002 255 255 255 1985.000000
-1.30869997 6.96110010 1.38880002 255 255 255 2017.000000
-1.30270004 6.97539997 1.38689995 255 255 255 1425.000000
-1.29740000 6.98979998 1.38530004 255 255 255 993.000000
-1.29639995 7.00309992 1.38479996 255 255 255 2033.000000
-1.29270005 7.01730013 1.38349998 255 255 255 1489.000000
-1.29589999 7.03079987 1.38409996 255 255 255 2033.000000
-1.29219997 7.04400015 1.38290000 255 255 255 1697.000000
-1.29809999 7.05749989 1.38429999 255 255 255 1233.000000
-1.30420005 7.07089996 1.38569999 255 255 255 1585.000000
-1.31550002 7.08300018 1.38849998 255 255 255 1841.000000
-1.32000005 7.09660006 1.38950002 255 255 255 1521.000000
-1.32780004 7.11000013 1.39139998 255 255 255 1345.000000
-1.33679998 7.12249994 1.39359999 255 255 255 1601.000000
-1.35990000 7.13500023 1.39950001 255 255 255 1537.000000
-1.39030004 7.14669991 1.40740001 255 255 255 1713.000000
-1.43169999 7.15719986 1.41820002 255 255 255 1153.000000
-1.41600001 6.88170004 1.40390003 255 255 255 929.000000
-1.36720002 6.90110016 1.39069998 255 255 255 913.000000
-1.35169995 6.91590023 1.38639998 255 255 255 2033.000000
-1.33410001 6.93190002 1.38139999 255 255 255 1793.000000
-1.31819999 6.94719982 1.37699997 255 255 255 641.000000
-1.30960000 6.96110010 1.37450004 255 255 255 2033.000000
-1.30200005 6.97559977 1.37220001 255 255 255 1505.000000
-1.29630005 6.99009991 1.37039995 255 255 255 1105.000000
-1.29770005 7.00309992 1.37059999 255 255 255 2033.000000
-1.29139996 7.01760006 1.36870003 255 255 255 1569.000000
-1.29550004 7.03090000 1.36950004 255 255 255 2033.000000
-1.29390001 7.04390001 1.36889994 255 255 255 1873.000000
-1.29659998 7.05779982 1.36940002 255 255 255 1425.000000
-1.30309999 7.07110023 1.37090003 255 255 255 1649.000000
-1.31500006 7.08319998 1.37380004 255 255 255 1793.000000
-1.31860006 7.09679985 1.37460005 255 255 255 1617.000000
-1.32579994 7.11019993 1.37629998 255 255 255 1297.000000
-1.33690000 7.12260008 1.37899995 255 255 255 1681.000000
-1.36129999 7.13500023 1.38530004 255 255 255 1937.000000
-1.38689995 7.14709997 1.39180005 255 255 255 1265.000000
-1.43009996 7.15740013 1.40300000 255 255 255 1377.000000
-1.41649997 6.88170004 1.38919997 255 255 255 1233.000000
-1.36749995 6.90110016 1.37609994 255 255 255 849.000000
-1.34969997 6.91629982 1.37119997 255 255 255 1857.000000
-1.33319998 6.93209982 1.36660004 255 255 255 1409.000000
-1.31680000 6.94750023 1.36210001 255 255 255 1041.000000
-1.31050003 6.96110010 1.36020005 255 255 255 2033.000000
-1.30100000 6.97580004 1.35749996 255 255 255 1713.000000
-1.29589999 6.99020004 1.35590005 255 255 255 1425.000000
-1.29840004 7.00309992 1.35630000 255 255 255 2033.000000
-1.29120004 7.01770020 1.35420001 255 255 255 2033.000000
-1.29550004 7.03100014 1.35510004 255 255 255 1921.000000
-1.29240000 7.04419994 1.35399997 255 255 255 1793.000000
-1.29630005 7.05789995 1.35490000 255 255 255 1553.000000
-1.30110002 7.07140017 1.35590005 255 255 255 1793.000000
-1.31410003 7.08339977 1.35909998 255 255 255 1873.000000
-1.31939995 7.09679985 1.36029994 255 255 255 1665.000000
-1.32640004 7.11030006 1.36189997 255 255 255 1217.000000
-1.33630002 7.12270021 1.36430001 255 255 255 1617.000000
-1.35710001 7.13539982 1.36950004 255 255 255 1729.000000
-1.38440001 7.14739990 1.37650001 255 255 255 977.000000
-1.42379999 7.15789986 1.38650000 255 255 255 1169.000000
-1.42159998 6.88119984 1.37570000 255 255 255 1281.000000
-1.36650002 6.90129995 1.36119998 255 255 255 1121.000000
-1.35039997 6.91629982 1.35679996 255 255 255 1761.000000
-1.33780003 6.93170023 1.35319996 255 255 255 1601.000000
-1.31729996 6.94750023 1.34770000 255 255 255 1281.000000
-1.30929995 6.96129990 1.34539998 255 255 255 2033.000000
-1.30190003 6.97580004 1.34319997 255 255 255 1761.000000
-1.29799998 6.99009991 1.34200001 255 255 255 737.000000
-1.29740000 7.00330019 1.34150004 255 255 255 2033.000000
-1.29190004 7.01770020 1.33990002 255 255 255 1569.000000
-1.29159999 7.03149986 1.33959997 255 255 255 1713.000000
-1.29700005 7.04390001 1.34080005 255 255 255 2033.000000
-1.29659998 7.05800009 1.34050000 255 255 255 1281.000000
-1.30499995 7.07119989 1.34239995 255 255 255 1841.000000
-1.31130004 7.08370018 1.34389997 255 255 255 1985.000000
-1.31990004 7.09689999 1.34590006 255 255 255 1681.000000
-1.32539999 7.11049986 1.34710002 255 255 255 1521.000000
-1.33609998 7.12279987 1.34969997 255 255 255 1793.000000
-1.35790002 7.13539982 1.35520005 255 255 255 1713.000000
-1.38020003 7.14779997 1.36070001 255 255 255 1121.000000
-1.41970003 7.15829992 1.37070000 255 255 255 1073.000000
-1.41880000 6.88170004 1.36010003 255 255 255 1281.000000
-1.37269998 6.90080023 1.34809995 255 255 255 1185.000000
-1.35350001 6.91610003 1.34290004 255 255 255 2033.000000
-1.33150005 6.93249989 1.33700001 255 255 255 1425.000000
-1.31889999 6.94750023 1.33360004 255 255 255 993.000000
-1.30799997 6.96159983 1.33050001 255 255 255 1361.000000
-1.30330002 6.97580004 1.32910001 255 255 255 1761.000000
-1.29949999 6.99009991 1.32790005 255 255 255 849.000000
-1.29499996 7.00369978 1.32650006 255 255 255 2033.000000
-1.29050004 7.01800013 1.32509995 255 255 255 2001.000000
-1.29209995 7.03160000 1.32529998 255 255 255 1729.000000
-1.29690003 7.04400015 1.32630002 255 255 255 2033.000000
-1.29480004 7.05819988 1.32560003 255 255 255 1505.000000
-1.30299997 7.07140017 1.32749999 255 255 255 1649.000000
-1.30970001 7.08389997 1.32900000 255 255 255 1537.000000
-1.31840003 7.09709978 1.33099997 255 255 255 1649.000000
-1.32459998 7.11059999 1.33239996 255 255 255 1665.000000
-1.33870006 7.12279987 1.33589995 255 255 255 2033.000000
-1.35539997 7.13570023 1.33990002 255 255 255 1745.000000
-1.37639999 7.14809990 1.34510005 255 255 255 1249.000000
-1.41840005 7.15850019 1.35570002 255 255 255 1265.000000
-1.42589998 6.88100004 1.34720004 255 255 255 1137.000000
-1.38119996 6.89989996 1.33560002 255 255 255 1569.000000
-1.35329998 6.91620016 1.32830000 255 255 255 1841.000000
-1.33070004 6.93270016 1.32229996 255 255 255 1249.000000
-1.31970000 6.94750023 1.31930006 255 255 255 2033.000000
-1.31089997 6.96140003 1.31680000 255 255 255 1057.000000
-1.30299997 6.97590017 1.31459999 255 255 255 1729.000000
-1.29830003 6.99030018 1.31309998 255 255 255 545.000000
-1.29429996 7.00379992 1.31190002 255 255 255 2033.000000
-1.28939998 7.01819992 1.31050003 255 255 255 1649.000000
-1.29190004 7.03170013 1.31089997 255 255 255 1841.000000
-1.29489994 7.04430008 1.31140006 255 255 255 2033.000000
-1.29659998 7.05819988 1.31159997 255 255 255 1233.000000
-1.30229998 7.07159996 1.31289995 255 255 255 1697.000000
-1.31149995 7.08389997 1.31500006 255 255 255 1585.000000
-1.31990004 7.09709978 1.31690001 255 255 255 1857.000000
-1.32439995 7.11079979 1.31789994 255 255 255 1521.000000
-1.33840001 7.12290001 1.32130003 255 255 255 2033.000000
-1.35270000 7.13600016 1.32470000 255 255 255 1665.000000
-1.37740004 7.14820004 1.33080006 255 255 255 1137.000000
-1.41789997 7.15859985 1.34080005 255 255 255 833.000000
-1.42700005 6.88100004 1.33270001 255 255 255 1377.000000
-1.37940001 6.90019989 1.32050002 255 255 255 1457.000000
-1.35220003 6.91639996 1.31340003 255 255 255 1649.000000
-1.33459997 6.93240023 1.30879998 255 255 255 1137.000000
-1.32420003 6.94710016 1.30589998 255 255 255 2033.000000
-1.31149995 6.96140003 1.30250001 255 255 255 929.000000
-1.30460000 6.97590017 1.30050004 255 255 255 1777.000000
-1.29890001 6.99030018 1.29890001 255 255 255 913.000000
-1.29200006 7.00419998 1.29690003 255 255 255 1953.000000
-1.28960001 7.01819992 1.29610002 255 255 255 1793.000000
-1.29050004 7.03189993 1.29610002 255 255 255 1729.000000
-1.29639995 7.04430008 1.29740000 255 255 255 2033.000000
-1.29579997 7.05830002 1.29709995 255 255 255 1473.000000
-1.30149996 7.07180023 1.29830003 255 255 255 1585.000000
-1.31089997 7.08400011 1.30040002 255 255 255 1681.000000
-1.31980002 7.09719992 1.30250001 255 255 255 1841.000000
-1.32439995 7.11089993 1.30340004 255 255 255 1425.000000
-1.33840001 7.12300014 1.30680001 255 255 255 2033.000000
-1.35049999 7.13630009 1.30960000 255 255 255 1473.000000
-1.37619996 7.14830017 1.31589997 255 255 255 1297.000000
-1.41349995 7.15899992 1.32500005 255 255 255 1025.000000
-1.43550003 6.88009977 1.32000005 255 255 255 1041.000000
-1.38010001 6.90030003 1.30599999 255 255 255 1569.000000
-1.35679996 6.91599989 1.29999995 255 255 255 1873.000000
-1.33529997 6.93240023 1.29439998 255 255 255 1217.000000
-1.32270002 6.94740009 1.29110003 255 255 255 2033.000000
-1.31280005 6.96140003 1.28840005 255 255 255 929.000000
-1.30519998 6.97590017 1.28629994 255 255 255 1713.000000
-1.29859996 6.99049997 1.28439999 255 255 255 817.000000
-1.29089999 7.00439978 1.28230000 255 255 255 1281.000000
-1.28999996 7.01830006 1.28180003 255 255 255 1201.000000
-1.29240000 7.03179979 1.28219998 255 255 255 2033.000000
-1.29600000 7.04440022 1.28289998 255 255 255 2033.000000
-1.29579997 7.05849981 1.28269994 255 255 255 1345.000000
-1.30219996 7.07180023 1.28400004 255 255 255 1729.000000
-1.30890000 7.08430004 1.28550005 255 255 255 1681.000000
-1.31470001 7.09770012 1.28680003 255 255 255 1841.000000
-1.32369995 7.11100006 1.28880000 255 255 255 1489.000000
-1.33179998 7.12360001 1.29069996 255 255 255 1569.000000
-1.35010004 7.13640022 1.29499996 255 255 255 1729.000000
-1.37220001 7.14870024 1.30030000 255 255 255 1473.000000
-1.41330004 7.15910006 1.31029999 255 255 255 865.000000
-1.44500005 6.87909985 1.30750000 255 255 255 1121.000000
-1.37979996 6.90040016 1.29130006 255 255 255 1521.000000
-1.35749996 6.91599989 1.28559995 255 255 255 1873.000000
-1.33599997 6.93240023 1.28009999 255 255 255 1041.000000
-1.32389998 6.94740009 1.27690005 255 255 255 2033.000000
-1.31190002 6.96159983 1.27370000 255 255 255 929.000000
-1.30480003 6.97609997 1.27180004 255 255 255 1793.000000
-1.29509997 6.99090004 1.26919997 255 255 255 1569.000000
-1.29180002 7.00439978 1.26810002 255 255 255 1569.000000
-1.28980005 7.01840019 1.26740003 255 255 255 1361.000000
-1.29470003 7.03170013 1.26839995 255 255 255 2033.000000
-1.29059994 7.04500008 1.26719999 255 255 255 1761.000000
-1.29489994 7.05859995 1.26810002 255 255 255 1537.000000
-1.30050004 7.07210016 1.26929998 255 255 255 1777.000000
-1.30690002 7.08459997 1.27069998 255 255 255 1585.000000
-1.31589997 7.09779978 1.27269995 255 255 255 1569.000000
-1.32570004 7.11100006 1.27489996 255 255 255 1601.000000
-1.33340001 7.12360001 1.27660000 255 255 255 1345.000000
-1.35099995 7.13640022 1.28079998 255 255 255 2033.000000
-1.37059999 7.14890003 1.28540003 255 255 255 1313.000000
-1.41159999 7.15939999 1.29530001 255 255 255 961.000000
-1.38209999 6.90019989 1.27730000 255 255 255 1553.000000
-1.35899997 6.91599989 1.27149999 255 255 255 2033.000000
-1.33679998 6.93249989 1.26580000 255 255 255 1233.000000
-1.32270002 6.94759989 1.26220000 255 255 255 2001.000000
-1.31060004 6.96180010 1.25899994 255 255 255 881.000000
-1.30519998 6.97609997 1.25750005 255 255 255 1889.000000
-1.29550004 6.99100018 1.25489998 255 255 255 1777.000000
-1.29059994 7.00460005 1.25349998 255 255 255 1649.000000
-1.28989995 7.01849985 1.25310004 255 255 255 1409.000000
-1.29359996 7.03200006 1.25380003 255 255 255 2033.000000
-1.28970003 7.04519987 1.25269997 255 255 255 1729.000000
-1.29900002 7.05840015 1.25469995 255 255 255 2033.000000
-1.29920006 7.07229996 1.25460005 255 255 255 1601.000000
-1.30780005 7.08459997 1.25650001 255 255 255 1617.000000
-1.31439996 7.09800005 1.25790000 255 255 255 1729.000000
-1.32509995 7.11110020 1.26030004 255 255 255 1521.000000
-1.33179998 7.12379980 1.26180005 255 255 255 1057.000000
-1.35249996 7.13649988 1.26670003 255 255 255 2033.000000
-1.37039995 7.14909983 1.27079999 255 255 255 1377.000000
-1.40699995 7.15980005 1.27960002 255 255 255 1089.000000
-1.44400001 7.17180014 1.28830004 255 255 255 -383.000000
-1.38199997 6.90040016 1.26269996 255 255 255 1265.000000
-1.35909998 6.91610003 1.25699997 255 255 255 1905.000000
-1.33459997 6.93279982 1.25080001 255 255 255 1009.000000
-1.32309997 6.94770002 1.24779999 255 255 255 1745.000000
-1.30920005 6.96210003 1.24430001 255 255 255 1201.000000
-1.30390000 6.97639990 1.24280000 255 255 255 1905.000000
-1.29540002 6.99109983 1.24059999 255 255 255 1361.000000
-1.29159999 7.00460005 1.23940003 255 255 255 1857.000000
-1.29069996 7.01859999 1.23899996 255 255 255 1793.000000
-1.29120004 7.03230000 1.23889995 255 255 255 1905.000000
-1.29359996 7.04489994 1.23930001 255 255 255 1809.000000
-1.29879999 7.05849981 1.24039996 255 255 255 2033.000000
-1.29920006 7.07240009 1.24030006 255 255 255 1745.000000
-1.30540001 7.08489990 1.24160004 255 255 255 1601.000000
-1.31260002 7.09819984 1.24310005 255 255 255 1697.000000
-1.32599998 7.11119986 1.24619997 255 255 255 1553.000000
-1.33290005 7.12379980 1.24769998 255 255 255 1361.000000
-1.35000002 7.13670015 1.25160003 255 255 255 2033.000000
-1.37140000 7.14909983 1.25660002 255 255 255 1361.000000
-1.40639997 7.15990019 1.26479995 255 255 255 1185.000000
-1.44350004 7.17189980 1.27349997 255 255 255 -1263.000000
-1.43449998 6.88059998 1.26080000 255 255 255 193.000000
-1.38010001 6.90070009 1.24769998 255 255 255 1345.000000
-1.35689998 6.91639996 1.24189997 255 255 255 1313.000000
-1.33500004 6.93289995 1.23650002 255 255 255 833.000000
-1.32430005 6.94759989 1.23370004 255 255 255 2033.000000
-1.30939996 6.96210003 1.23000002 255 255 255 1281.000000
-1.30760002 6.97609997 1.22930002 255 255 255 2033.000000
-1.29719996 6.99100018 1.22660005 255 255 255 1313.000000
-1.29700005 7.00419998 1.22640002 255 255 255 2033.000000
-1.29209995 7.01849985 1.22500002 255 255 255 1201.000000
-1.29240000 7.03230000 1.22490001 255 255 255 2001.000000
-1.29289997 7.04510021 1.22479999 255 255 255 1793.000000
-1.30030000 7.05849981 1.22640002 255 255 255 2033.000000
-1.30009997 7.07240009 1.22619998 255 255 255 1953.000000
-1.30330002 7.08519983 1.22679996 255 255 255 1473.000000
-1.31159997 7.09840012 1.22860003 255 255 255 1617.000000
-1.32430005 7.11140013 1.23140001 255 255 255 2033.000000
-1.33130002 7.12410021 1.23290002 255 255 255 1217.000000
-1.34710002 7.13700008 1.23650002 255 255 255 1793.000000
-1.36950004 7.14930010 1.24170005 255 255 255 1313.000000
-1.40240002 7.16029978 1.24930000 255 255 255 881.000000
-1.45340002 7.17140007 1.26119995 255 255 255 65.000000
-1.37629998 6.90119982 1.23220003 255 255 255 1281.000000
-1.35510004 6.91669989 1.22700000 255 255 255 1137.000000
-1.33550000 6.93289995 1.22220004 255 255 255 849.000000
-1.32029998 6.94820023 1.21840000 255 255 255 1745.000000
-1.30859995 6.96229982 1.21550000 255 255 255 1249.000000
-1.30900002 6.97609997 1.21529996 255 255 255 2033.000000
-1.29859996 6.99100018 1.21270001 255 255 255 1665.000000
-1.29589999 7.00439978 1.21179998 255 255 255 2033.000000
-1.29219997 7.01859999 1.21080005 255 255 255 1217.000000
-1.29270005 7.03230000 1.21070004 255 255 255 2033.000000
-1.29229999 7.04519987 1.21039999 255 255 255 1921.000000
-1.29849994 7.05880022 1.21169996 255 255 255 2033.000000
-1.30040002 7.07250023 1.21190000 255 255 255 1841.000000
-1.30410004 7.08519983 1.21259999 255 255 255 1329.000000
-1.31110001 7.09859991 1.21410000 255 255 255 1617.000000
-1.31980002 7.11180019 1.21599996 255 255 255 1793.000000
-1.33029997 7.12419987 1.21829998 255 255 255 1089.000000
-1.34519994 7.13730001 1.22160006 255 255 255 1793.000000
-1.36950004 7.14940023 1.22720003 255 255 255 1569.000000
-1.39870000 7.16060019 1.23389995 255 255 255 1137.000000
-1.44089997 7.17229986 1.24360001 255 255 255 865.000000
-1.38320005 6.90059996 1.21930003 255 255 255 1377.000000
-1.35570002 6.91680002 1.21270001 255 255 255 1489.000000
-1.33510005 6.93310022 1.20770001 255 255 255 801.000000
-1.31910002 6.94840002 1.20379996 255 255 255 1713.000000
-1.30910003 6.96239996 1.20120001 255 255 255 1217.000000
-1.30780005 6.97629976 1.20070004 255 255 255 2033.000000
-1.29939997 6.99100018 1.19860005 255 255 255 1025.000000
-1.29419994 7.00470018 1.19719994 255 255 255 2033.000000
-1.29100001 7.01889992 1.19620001 255 255 255 1569.000000
-1.29310000 7.03240013 1.19649994 255 255 255 2033.000000
