-5.80639982 -1.74549997 1.26650000 199 199 199 1137.000000
-5.81979990 -1.75070000 1.26549995 208 208 208 1281.000000
-5.73640013 -1.71050000 1.26349998 207 207 207 1265.000000
-5.75059986 -1.71389997 1.26209998 197 197 197 1105.000000
-5.76359987 -1.71940005 1.26110005 201 201 201 1169.000000
-5.77580023 -1.72539997 1.26040006 204 204 204 1217.000000
-5.78789997 -1.73199999 1.25979996 200 200 200 1153.000000
-5.79809999 -1.74129999 1.25989997 223 223 223 1521.000000
-5.81010008 -1.74759996 1.25919998 202 202 202 1185.000000
-5.82380009 -1.75259995 1.25810003 211 211 211 1329.000000
-5.82509995 -1.77540004 1.26170003 203 203 203 1201.000000
-5.83589983 -1.78600001 1.26199996 208 208 208 1281.000000
-5.84469986 -1.79700005 1.26250005 205 205 205 1233.000000
-5.85589981 -1.80509996 1.26230001 207 207 207 1265.000000
-5.86499977 -1.81680000 1.26300001 186 186 186 929.000000
-5.87249994 -1.83179998 1.26450002 199 199 199 1137.000000
-5.88070011 -1.84539998 1.26559997 203 203 203 1201.000000
-5.88590002 -1.86399996 1.26800001 197 197 197 1105.000000
-5.89279985 -1.87930000 1.26960003 205 205 205 1233.000000
-5.89629984 -1.90030003 1.27269995 189 189 189 977.000000
-5.89659977 -1.92780006 1.27719998 192 192 192 1025.000000
-5.87900019 -1.98640001 1.28939998 187 187 187 945.000000
-5.52129984 -1.77390003 1.29750001 191 191 191 1009.000000
-5.54829979 -1.75779998 1.29100001 181 181 181 849.000000
-5.57740021 -1.74039996 1.28400004 197 197 197 1105.000000
-5.60750008 -1.72119999 1.27660000 198 198 198 1121.000000
-5.62830019 -1.71480000 1.27260005 204 204 204 1217.000000
-5.64580011 -1.71430004 1.26999998 190 190 190 993.000000
-5.66349983 -1.71270001 1.26719999 203 203 203 1201.000000
-5.68030024 -1.71200001 1.26470006 192 192 192 1025.000000
-5.69820023 -1.71029997 1.26180005 189 189 189 977.000000
-5.71350002 -1.71179998 1.25989997 192 192 192 1025.000000
-5.73080015 -1.71010005 1.25709999 198 198 198 1121.000000
-5.74550009 -1.71319997 1.25559998 204 204 204 1217.000000
-5.75880003 -1.71770000 1.25440001 209 209 209 1297.000000
-5.77110004 -1.72340000 1.25360000 206 206 206 1249.000000
-5.78289986 -1.73060000 1.25310004 199 199 199 1137.000000
-5.79430008 -1.73819995 1.25279999 213 213 213 1361.000000
-5.80639982 -1.74469995 1.25220001 197 197 197 1105.000000
-5.81780005 -1.75310004 1.25189996 204 204 204 1217.000000
-5.73659992 -1.70930004 1.24899995 205 205 205 1233.000000
-5.75050020 -1.71319997 1.24759996 201 201 201 1169.000000
-5.76289988 -1.71980000 1.24699998 201 201 201 1169.000000
-5.77470016 -1.72640002 1.24640000 215 215 215 1393.000000
-5.78749990 -1.73199999 1.24549997 198 198 198 1121.000000
-5.79990005 -1.73759997 1.24469995 205 205 205 1233.000000
-5.80989981 -1.74699998 1.24479997 200 200 200 1153.000000
-5.82200003 -1.75469995 1.24440002 208 208 208 1281.000000
-5.82690001 -1.77170002 1.24650002 202 202 202 1185.000000
-5.83610010 -1.78489995 1.24740005 209 209 209 1297.000000
-5.84450006 -1.79659998 1.24810004 206 206 206 1249.000000
-5.85669994 -1.80289996 1.24749994 207 207 207 1265.000000
-5.86490011 -1.81620002 1.24849999 194 194 194 1057.000000
-5.87209988 -1.83150005 1.25010002 199 199 199 1137.000000
-5.87879992 -1.84780002 1.25179994 217 217 217 1425.000000
-5.88619995 -1.86249995 1.25320005 195 195 195 1073.000000
-5.89150000 -1.88059998 1.25549996 204 204 204 1217.000000
-5.89709997 -1.89810002 1.25759995 193 193 193 1041.000000
-5.89690018 -1.92639995 1.26230001 199 199 199 1137.000000
-5.88310003 -1.97839999 1.27279997 195 195 195 1073.000000
-5.52080011 -1.77380002 1.28279996 192 192 192 1025.000000
-5.54829979 -1.75699997 1.27620006 179 179 179 817.000000
-5.57700014 -1.74020004 1.26950002 182 182 182 865.000000
-5.60519981 -1.72389996 1.26289999 208 208 208 1281.000000
-5.62669992 -1.71630001 1.25860000 209 209 209 1297.000000
-5.64519978 -1.71430004 1.25559998 191 191 191 1009.000000
-5.66480017 -1.70980000 1.25220001 193 193 193 1041.000000
-5.67980003 -1.71190000 1.25039995 199 199 199 1137.000000
-5.69719982 -1.71089995 1.24769998 186 186 186 929.000000
-5.71339989 -1.71109998 1.24549997 184 184 184 897.000000
-5.73040009 -1.70990002 1.24290001 200 200 200 1153.000000
-5.74599981 -1.71159995 1.24100006 202 202 202 1185.000000
-5.75790024 -1.71819997 1.24039996 199 199 199 1137.000000
-5.77120018 -1.72239995 1.23920000 198 198 198 1121.000000
-5.78219986 -1.73090005 1.23899996 210 210 210 1313.000000
-5.79400015 -1.73790002 1.23850000 215 215 215 1393.000000
-5.80630016 -1.74399996 1.23780000 201 201 201 1169.000000
-5.81729984 -1.75300002 1.23769999 205 205 205 1233.000000
-5.73549986 -1.71029997 1.23500001 207 207 207 1265.000000
-5.74989986 -1.71329999 1.23339999 203 203 203 1201.000000
-5.76319981 -1.71840000 1.23239994 203 203 203 1201.000000
-5.77430010 -1.72609997 1.23210001 221 221 221 1489.000000
-5.78739977 -1.73119998 1.23109996 199 199 199 1137.000000
-5.80009985 -1.73640001 1.23020005 209 209 209 1297.000000
-5.81050014 -1.74530005 1.23020005 202 202 202 1185.000000
-5.82149982 -1.75479996 1.23020005 209 209 209 1297.000000
-5.82730007 -1.77010000 1.23179996 210 210 210 1313.000000
-5.83620024 -1.78380001 1.23280001 203 203 203 1201.000000
-5.84499979 -1.79489994 1.23339999 203 203 203 1201.000000
-5.85809994 -1.79970002 1.23239994 205 205 205 1233.000000
-5.86509991 -1.81500006 1.23389995 188 188 188 961.000000
-5.87330008 -1.82879996 1.23510003 195 195 195 1073.000000
-5.88119984 -1.84290004 1.23629999 201 201 201 1169.000000
-5.88679981 -1.86059999 1.23839998 197 197 197 1105.000000
-5.89319992 -1.87679994 1.24020004 201 201 201 1169.000000
-5.89760017 -1.89629996 1.24280000 190 190 190 993.000000
-5.89620018 -1.92659998 1.24790001 204 204 204 1217.000000
-5.88299990 -1.97759998 1.25790000 189 189 189 977.000000
-5.51919985 -1.77540004 1.26859999 194 194 194 1057.000000
-5.54869986 -1.75559998 1.26129997 185 185 185 913.000000
-5.57679987 -1.73969996 1.25489998 199 199 199 1137.000000
-5.60489988 -1.72350001 1.24839997 209 209 209 1297.000000
-5.62550020 -1.71730006 1.24450004 213 213 213 1361.000000
-5.64449978 -1.71459997 1.24140000 191 191 191 1009.000000
-5.66200018 -1.71319997 1.23870003 213 213 213 1361.000000
-5.67840004 -1.71319997 1.23640001 195 195 195 1073.000000
-5.69640017 -1.71130002 1.23360002 191 191 191 1009.000000
-5.71339989 -1.71019995 1.23099995 190 190 190 993.000000
-5.73099995 -1.70819998 1.22829998 202 202 202 1185.000000
-5.74520016 -1.71190000 1.22689998 202 202 202 1185.000000
-5.75729990 -1.71840000 1.22630000 197 197 197 1105.000000
-5.77180004 -1.72060001 1.22459996 203 203 203 1201.000000
-5.78210020 -1.73020005 1.22469997 199 199 199 1137.000000
-5.79470015 -1.73590004 1.22389996 205 205 205 1233.000000
-5.80520010 -1.74489999 1.22389996 216 216 216 1409.000000
-5.81589985 -1.75440001 1.22389996 203 203 203 1201.000000
-5.73530006 -1.70980000 1.22060001 209 209 209 1297.000000
-5.74930000 -1.71350002 1.21920002 201 201 201 1169.000000
-5.76240015 -1.71889997 1.21829998 201 201 201 1169.000000
-5.77360010 -1.72640002 1.21790004 223 223 223 1521.000000
-5.78749990 -1.73029995 1.21659994 206 206 206 1249.000000
-5.79860020 -1.73790002 1.21630001 207 207 207 1265.000000
-5.80929995 -1.74640000 1.21619999 200 200 200 1153.000000
-5.82079983 -1.75500000 1.21599996 201 201 201 1169.000000
-5.82789993 -1.76839995 1.21720004 205 205 205 1233.000000
-5.83559990 -1.78400004 1.21860003 200 200 200 1153.000000
-5.84480000 -1.79429996 1.21899998 211 211 211 1329.000000
-5.85720015 -1.80030000 1.21829998 201 201 201 1169.000000
-5.86329985 -1.81719995 1.22019994 193 193 193 1041.000000
-5.87260008 -1.82910001 1.22080004 191 191 191 1009.000000
-5.88100004 -1.84230006 1.22179997 207 207 207 1265.000000
-5.88600016 -1.86109996 1.22420001 196 196 196 1089.000000
-5.89209986 -1.87779999 1.22599995 207 207 207 1265.000000
-5.89739990 -1.89579999 1.22819996 193 193 193 1041.000000
-5.89650011 -1.92530000 1.23310006 203 203 203 1201.000000
-5.89039993 -1.96389997 1.24010003 192 192 192 1025.000000
-5.51350021 -1.78299999 1.25590003 195 195 195 1073.000000
-5.54720020 -1.75699997 1.24720001 184 184 184 897.000000
-5.57639980 -1.73940003 1.24039996 197 197 197 1105.000000
-5.60290003 -1.72570002 1.23450005 210 210 210 1313.000000
-5.62470007 -1.71770000 1.23029995 212 212 212 1345.000000
-5.64370012 -1.71490002 1.22720003 192 192 192 1025.000000
-5.66249990 -1.71169996 1.22409999 190 190 190 993.000000
-5.67859983 -1.71200001 1.22189999 188 188 188 961.000000
-5.69610023 -1.71089995 1.21930003 191 191 191 1009.000000
-5.71400023 -1.70840001 1.21640003 186 186 186 929.000000
-5.73040009 -1.70829999 1.21410000 206 206 206 1249.000000
-5.74590015 -1.71000004 1.21229994 196 196 196 1089.000000
-5.75680017 -1.71829998 1.21210003 205 205 205 1233.000000
-5.77099991 -1.72099996 1.21060002 206 206 206 1249.000000
-5.78329992 -1.72749996 1.20990002 202 202 202 1185.000000
-5.79460001 -1.73520005 1.20959997 201 201 201 1169.000000
-5.80520010 -1.74399996 1.20949996 209 209 209 1297.000000
-5.81589985 -1.75349998 1.20949996 198 198 198 1121.000000
-5.73309994 -1.71239996 1.20700002 222 222 222 1505.000000
-5.74849987 -1.71399999 1.20510006 200 200 200 1153.000000
-5.76230001 -1.71819997 1.20389998 200 200 200 1153.000000
-5.77309990 -1.72640002 1.20369995 224 224 224 1537.000000
-5.78669977 -1.73080003 1.20260000 206 206 206 1249.000000
-5.79850006 -1.73740005 1.20200002 203 203 203 1201.000000
-5.80959988 -1.74510002 1.20169997 208 208 208 1281.000000
-5.81979990 -1.75580001 1.20200002 205 205 205 1233.000000
-5.82770014 -1.76800001 1.20280004 207 207 207 1265.000000
-5.83589983 -1.78269994 1.20400000 206 206 206 1249.000000
-5.84480000 -1.79349995 1.20449996 207 207 207 1265.000000
-5.85790014 -1.79830003 1.20360005 206 206 206 1249.000000
-5.86450005 -1.81429994 1.20519996 191 191 191 1009.000000
-5.87260008 -1.82830000 1.20630002 194 194 194 1057.000000
-5.88019991 -1.84290004 1.20760000 205 205 205 1233.000000
-5.88719988 -1.85829997 1.20910001 194 194 194 1057.000000
-5.89200020 -1.87709999 1.21150005 204 204 204 1217.000000
-5.89750004 -1.89479995 1.21360004 190 190 190 993.000000
-5.89760017 -1.92250001 1.21790004 198 198 198 1121.000000
-5.89190006 -1.96029997 1.22469997 192 192 192 1025.000000
-5.51109982 -1.78569996 1.24189997 195 195 195 1073.000000
-5.54519987 -1.75909996 1.23319995 176 176 176 769.000000
-5.57579994 -1.73950005 1.22590005 186 186 186 929.000000
-5.60400009 -1.72329998 1.21959996 206 206 206 1249.000000
-5.62470007 -1.71679997 1.21570003 207 207 207 1265.000000
-5.64270020 -1.71560001 1.21300006 194 194 194 1057.000000
-5.66230011 -1.71109998 1.20969999 193 193 193 1041.000000
-5.67910004 -1.71050000 1.20729995 190 190 190 993.000000
-5.69619989 -1.71000004 1.20480001 190 190 190 993.000000
-5.71250010 -1.71010005 1.20260000 194 194 194 1057.000000
-5.72889996 -1.70990002 1.20039999 214 214 214 1377.000000
-5.74420023 -1.71190000 1.19860005 198 198 198 1121.000000
-5.75740004 -1.71640003 1.19749999 202 202 202 1185.000000
-5.77080011 -1.72049999 1.19630003 202 202 202 1185.000000
-5.78160000 -1.72930002 1.19620001 204 204 204 1217.000000
-5.79360008 -1.73599994 1.19560003 200 200 200 1153.000000
-5.80450010 -1.74419999 1.19540000 216 216 216 1409.000000
-5.81650019 -1.75160003 1.19500005 199 199 199 1137.000000
-5.73299980 -1.71179998 1.19260001 221 221 221 1489.000000
-5.74879980 -1.71280003 1.19060004 201 201 201 1169.000000
-5.76210022 -1.71790004 1.18959999 198 198 198 1121.000000
-5.77349997 -1.72500002 1.18920004 214 214 214 1377.000000
-5.78660011 -1.73010004 1.18820000 206 206 206 1249.000000
-5.79869986 -1.73619998 1.18750000 199 199 199 1137.000000
-5.80810022 -1.74660003 1.18789995 221 221 221 1489.000000
-5.82000017 -1.75479996 1.18750000 207 207 207 1265.000000
-5.82880020 -1.76530004 1.18799996 207 207 207 1265.000000
-5.83830023 -1.77789998 1.18869996 210 210 210 1313.000000
-5.84399986 -1.79400003 1.19040000 201 201 201 1169.000000
-5.85760021 -1.79789996 1.18920004 204 204 204 1217.000000
-5.86469984 -1.81320000 1.19070005 192 192 192 1025.000000
-5.87160015 -1.82900000 1.19219995 196 196 196 1089.000000
-5.88019991 -1.84200001 1.19309998 205 205 205 1233.000000
-5.88649988 -1.85850000 1.19490004 194 194 194 1057.000000
-5.89219999 -1.87590003 1.19679999 210 210 210 1313.000000
-5.89760017 -1.89370000 1.19889998 197 197 197 1105.000000
-5.89989996 -1.91770005 1.20239997 201 201 201 1169.000000
-5.89179993 -1.95959997 1.21000004 193 193 193 1041.000000
-5.51000023 -1.78659999 1.22749996 195 195 195 1073.000000
-5.54519987 -1.75829995 1.21850002 172 172 172 705.000000
-5.57499981 -1.74000001 1.21159995 186 186 186 929.000000
-5.60430002 -1.72189999 1.20490003 202 202 202 1185.000000
-5.62500000 -1.71560001 1.20109999 200 200 200 1153.000000
-5.64279985 -1.71459997 1.19850004 192 192 192 1025.000000
-5.66200018 -1.71080005 1.19529998 193 193 193 1041.000000
-5.67889977 -1.71010005 1.19289994 192 192 192 1025.000000
-5.69540024 -1.71039999 1.19070005 191 191 191 1009.000000
-5.71239996 -1.70930004 1.18830001 188 188 188 961.000000
-5.72840023 -1.70980000 1.18620002 215 215 215 1393.000000
-5.74410009 -1.71109998 1.18429995 199 199 199 1137.000000
-5.75610018 -1.71780002 1.18369997 199 199 199 1137.000000
-5.76940012 -1.72189999 1.18250000 218 218 218 1441.000000
-5.78149986 -1.72850001 1.18190002 202 202 202 1185.000000
-5.79360008 -1.73510003 1.18130004 199 199 199 1137.000000
-5.80530024 -1.74220002 1.18079996 216 216 216 1409.000000
-5.81570005 -1.75199997 1.18089998 206 206 206 1249.000000
-5.73199987 -1.71249998 1.17859995 220 220 220 1473.000000
-5.74730015 -1.71420002 1.17680001 203 203 203 1201.000000
-5.76200008 -1.71710002 1.17530000 198 198 198 1121.000000
-5.77220011 -1.72619998 1.17530000 217 217 217 1425.000000
-5.78550005 -1.73109996 1.17420006 200 200 200 1153.000000
-5.79809999 -1.73640001 1.17340004 200 200 200 1153.000000
-5.80880022 -1.74469995 1.17320001 214 214 214 1377.000000
-5.81990004 -1.75399995 1.17320001 210 210 210 1313.000000
-5.82730007 -1.76689994 1.17420006 218 218 218 1441.000000
-5.83809996 -1.77740002 1.17439997 208 208 208 1281.000000
-5.84350014 -1.79400003 1.17620003 207 207 207 1265.000000
-5.85550022 -1.80060005 1.17560005 209 209 209 1297.000000
-5.86450005 -1.81250000 1.17630005 200 200 200 1153.000000
-5.87190008 -1.82770002 1.17760003 198 198 198 1121.000000
-5.88019991 -1.84119999 1.17859995 203 203 203 1201.000000
-5.88759995 -1.85580003 1.17990005 194 194 194 1057.000000
-5.89309978 -1.87339997 1.18190002 204 204 204 1217.000000
-5.89809990 -1.89189994 1.18410003 198 198 198 1121.000000
-5.89989996 -1.91680002 1.18770003 199 199 199 1137.000000
-5.89389992 -1.95510006 1.19439995 191 191 191 1009.000000
-5.51329994 -1.78079998 1.21150005 187 187 187 945.000000
-5.54510021 -1.75769997 1.20379996 177 177 177 785.000000
-5.57399988 -1.74059999 1.19739997 191 191 191 1009.000000
-5.60260010 -1.72370005 1.19099998 194 194 194 1057.000000
-5.62540007 -1.71420002 1.18649995 190 190 190 993.000000
-5.64209986 -1.71480000 1.18429995 203 203 203 1201.000000
-5.66139984 -1.71080005 1.18110001 189 189 189 977.000000
-5.67829990 -1.71010005 1.17869997 191 191 191 1009.000000
-5.69439983 -1.71120000 1.17670000 194 194 194 1057.000000
-5.71180010 -1.70949996 1.17410004 188 188 188 961.000000
-5.72669983 -1.71150005 1.17240000 213 213 213 1361.000000
-5.74480009 -1.70920002 1.16970003 201 201 201 1169.000000
-5.75719976 -1.71510005 1.16890001 193 193 193 1041.000000
-5.76800013 -1.72329998 1.16869998 217 217 217 1425.000000
-5.78119993 -1.72819996 1.16770005 195 195 195 1073.000000
-5.79339981 -1.73450005 1.16700006 196 196 196 1089.000000
-5.80469990 -1.74230003 1.16670001 219 219 219 1457.000000
-5.81519985 -1.75209999 1.16680002 207 207 207 1265.000000
-5.73150015 -1.71249998 1.16439998 217 217 217 1425.000000
-5.74749994 -1.71319997 1.16240001 201 201 201 1169.000000
-5.76140022 -1.71739995 1.16110003 199 199 199 1137.000000
-5.77250004 -1.72500002 1.16079998 220 220 220 1473.000000
-5.78609991 -1.72930002 1.15970004 202 202 202 1185.000000
-5.79820013 -1.73539996 1.15900004 202 202 202 1185.000000
-5.80910015 -1.74349999 1.15880001 216 216 216 1409.000000
-5.81909990 -1.75460005 1.15910006 208 208 208 1281.000000
-5.82690001 -1.76670003 1.15989995 220 220 220 1473.000000
-5.83790016 -1.77699995 1.16009998 198 198 198 1121.000000
-5.84390020 -1.79250002 1.16159999 206 206 206 1249.000000
-5.85449982 -1.80139995 1.16159999 207 207 207 1265.000000
-5.86390018 -1.81270003 1.16209996 199 199 199 1137.000000
-5.87150002 -1.82749999 1.16330004 200 200 200 1153.000000
-5.87919998 -1.84200001 1.16450000 198 198 198 1121.000000
-5.88660002 -1.85669994 1.16579998 198 198 198 1121.000000
-5.89370012 -1.87160003 1.16719997 201 201 201 1169.000000
-5.89790010 -1.89150000 1.16970003 196 196 196 1089.000000
-5.89890003 -1.91750002 1.17349994 197 197 197 1105.000000
-5.89370012 -1.95449996 1.17970002 195 195 195 1073.000000
-5.51830006 -1.77260005 1.19500005 187 187 187 945.000000
-5.54419994 -1.75820005 1.18949997 177 177 177 785.000000
-5.57280016 -1.74160004 1.18320000 190 190 190 993.000000
-5.60209990 -1.72360003 1.17659998 186 186 186 929.000000
-5.62389994 -1.71560001 1.17250001 199 199 199 1137.000000
-5.64139986 -1.71519995 1.17009997 208 208 208 1281.000000
-5.65959978 -1.71280003 1.16740000 188 188 188 961.000000
-5.67759991 -1.71029997 1.16460001 199 199 199 1137.000000
-5.69490004 -1.70959997 1.16219997 195 195 195 1073.000000
-5.71199989 -1.70829999 1.15970004 190 190 190 993.000000
-5.72669983 -1.71080005 1.15820003 211 211 211 1329.000000
-5.74319983 -1.71099997 1.15600002 204 204 204 1217.000000
-5.75619984 -1.71599996 1.15499997 197 197 197 1105.000000
-5.76929998 -1.72039998 1.15400004 212 212 212 1345.000000
-5.77990007 -1.72940004 1.15390003 206 206 206 1249.000000
-5.79320002 -1.73409998 1.15289998 201 201 201 1169.000000
-5.80399990 -1.74249995 1.15269995 218 218 218 1441.000000
-5.81479979 -1.75189996 1.15269995 208 208 208 1281.000000
-5.73019981 -1.71370006 1.15050006 226 226 226 1569.000000
-5.74679995 -1.71360004 1.14830005 202 202 202 1185.000000
-5.76060009 -1.71780002 1.14709997 215 215 215 1393.000000
-5.77209997 -1.72479999 1.14660001 222 222 222 1505.000000
-5.78550005 -1.72950006 1.14559996 198 198 198 1121.000000
-5.79740000 -1.73580003 1.14489996 198 198 198 1121.000000
-5.80779982 -1.74469995 1.14489996 218 218 218 1441.000000
-5.81879997 -1.75409997 1.14489996 205 205 205 1233.000000
-5.82670021 -1.76619995 1.14559996 215 215 215 1393.000000
-5.83739996 -1.77699995 1.14590001 199 199 199 1137.000000
-5.84689999 -1.78670001 1.14610004 207 207 207 1265.000000
-5.85410023 -1.80120003 1.14730000 207 207 207 1265.000000
-5.86259985 -1.81420004 1.14820004 197 197 197 1105.000000
-5.87179995 -1.82609999 1.14880002 200 200 200 1153.000000
-5.88059998 -1.83879995 1.14950001 199 199 199 1137.000000
-5.88740015 -1.85440004 1.15100002 197 197 197 1105.000000
-5.89359999 -1.87100005 1.15269995 206 206 206 1249.000000
-5.89919996 -1.88829994 1.15460002 190 190 190 993.000000
-5.89960003 -1.91559994 1.15859997 193 193 193 1041.000000
-5.89370012 -1.95360005 1.16499996 193 193 193 1041.000000
-5.54300022 -1.75909996 1.17519999 179 179 179 817.000000
-5.57200003 -1.74199998 1.16890001 187 187 187 945.000000
-5.60120010 -1.72409999 1.16240001 187 187 187 945.000000
-5.62260008 -1.71679997 1.15849996 203 203 203 1201.000000
-5.64169979 -1.71389997 1.15559995 198 198 198 1121.000000
-5.66009998 -1.71120000 1.15279996 190 190 190 993.000000
-5.67609978 -1.71179998 1.15069997 215 215 215 1393.000000
-5.69430017 -1.70959997 1.14800000 194 194 194 1057.000000
-5.71070004 -1.70949996 1.14590001 191 191 191 1009.000000
-5.72660017 -1.71000004 1.14390004 214 214 214 1377.000000
-5.74300003 -1.71050000 1.14180005 201 201 201 1169.000000
-5.75570011 -1.71589994 1.14090002 194 194 194 1057.000000
-5.76760006 -1.72210002 1.14030004 201 201 201 1169.000000
-5.77979994 -1.72880006 1.13970006 194 194 194 1057.000000
-5.79250002 -1.73420000 1.13880002 201 201 201 1169.000000
-5.80350018 -1.74249995 1.13859999 220 220 220 1473.000000
-5.81580019 -1.74940002 1.13810003 205 205 205 1233.000000
-5.73140001 -1.71120000 1.13569999 218 218 218 1441.000000
-5.74660015 -1.71309996 1.13399994 203 203 203 1201.000000
-5.76000023 -1.71800005 1.13300002 222 222 222 1505.000000
-5.77360010 -1.72169995 1.13180006 209 209 209 1297.000000
-5.78459978 -1.73000002 1.13150001 203 203 203 1201.000000
-5.79710007 -1.73559999 1.13069999 198 198 198 1121.000000
-5.80819988 -1.74319994 1.13039994 215 215 215 1393.000000
-5.81909990 -1.75290000 1.13039994 206 206 206 1249.000000
-5.82690001 -1.76499999 1.13119996 220 220 220 1473.000000
-5.83729982 -1.77620006 1.13150001 200 200 200 1153.000000
-5.84619999 -1.78709996 1.13199997 210 210 210 1313.000000
-5.85300016 -1.80229998 1.13339996 206 206 206 1249.000000
-5.86359978 -1.81159997 1.13339996 189 189 189 977.000000
-5.87090015 -1.82690001 1.13469994 203 203 203 1201.000000
-5.88019991 -1.83860004 1.13520002 207 207 207 1265.000000
-5.88679981 -1.85459995 1.13680005 202 202 202 1185.000000
-5.89349985 -1.87010002 1.13820004 203 203 203 1201.000000
-5.89879990 -1.88810003 1.14020002 197 197 197 1105.000000
-5.90049982 -1.91310000 1.14370000 194 194 194 1057.000000
-5.89529991 -1.94990003 1.14970005 190 190 190 993.000000
-5.51580000 -1.77470005 1.16649997 200 200 200 1153.000000
-5.54220009 -1.75950003 1.16079998 182 182 182 865.000000
-5.57219982 -1.74080002 1.15419996 185 185 185 913.000000
-5.59959984 -1.72580004 1.14849997 188 188 188 961.000000
-5.62340021 -1.71480000 1.14380002 195 195 195 1073.000000
-5.64169979 -1.71309996 1.14119995 189 189 189 977.000000
-5.65859985 -1.71270001 1.13890004 190 190 190 993.000000
-5.67589998 -1.71130002 1.13650000 214 214 214 1377.000000
-5.69399977 -1.70930004 1.13380003 189 189 189 977.000000
-5.70979977 -1.71000004 1.13189995 190 190 190 993.000000
-5.72599983 -1.71019995 1.12979996 207 207 207 1265.000000
-5.74179983 -1.71150005 1.12790000 206 206 206 1249.000000
-5.75549984 -1.71529996 1.12670004 198 198 198 1121.000000
-5.76830006 -1.72029996 1.12580001 200 200 200 1153.000000
-5.78039980 -1.72689998 1.12520003 198 198 198 1121.000000
-5.79250002 -1.73350000 1.12460005 199 199 199 1137.000000
-5.80259991 -1.74310005 1.12469995 223 223 223 1521.000000
-5.81500006 -1.74969995 1.12409997 203 203 203 1201.000000
-5.73089981 -1.71109998 1.12150002 217 217 217 1425.000000
-5.74679995 -1.71200001 1.11960006 202 202 202 1185.000000
-5.75969982 -1.71770000 1.11880004 222 222 222 1505.000000
-5.77180004 -1.72370005 1.11810005 212 212 212 1345.000000
-5.78429985 -1.72979999 1.11740005 203 203 203 1201.000000
-5.79650021 -1.73580003 1.11670005 201 201 201 1169.000000
-5.80789995 -1.74300003 1.11619997 209 209 209 1297.000000
-5.81909990 -1.75209999 1.11609995 211 211 211 1329.000000
-5.82690001 -1.76429999 1.11689997 221 221 221 1489.000000
-5.83839989 -1.77359998 1.11679995 201 201 201 1169.000000
-5.84679985 -1.78520000 1.11740005 206 206 206 1249.000000
-5.85200024 -1.80299997 1.11930001 211 211 211 1329.000000
-5.86450005 -1.80920005 1.11860001 197 197 197 1105.000000
-5.87179995 -1.82449996 1.12000000 192 192 192 1025.000000
-5.88009977 -1.83800006 1.12090003 210 210 210 1313.000000
-5.88630009 -1.85459995 1.12249994 195 195 195 1073.000000
-5.89309978 -1.87000000 1.12390006 201 201 201 1169.000000
-5.89830017 -1.88820004 1.12590003 201 201 201 1169.000000
-5.90019989 -1.91270006 1.12919998 192 192 192 1025.000000
-5.89709997 -1.94599998 1.13440001 190 190 190 993.000000
-5.50080013 -1.79610002 1.15680003 206 206 206 1249.000000
-5.54220009 -1.75870001 1.14619994 182 182 182 865.000000
-5.57200003 -1.74030006 1.13970006 181 181 181 849.000000
-5.59789991 -1.72749996 1.13460004 182 182 182 865.000000
-5.62139988 -1.71700001 1.13010001 201 201 201 1169.000000
-5.64029980 -1.71440005 1.12720001 188 188 188 961.000000
-5.65869999 -1.71169996 1.12450004 196 196 196 1089.000000
-5.67570019 -1.71080005 1.12220001 209 209 209 1297.000000
-5.69290018 -1.71019995 1.11989999 192 192 192 1025.000000
-5.71049976 -1.70809996 1.11730003 188 188 188 961.000000
-5.72639990 -1.70869994 1.11539996 202 202 202 1185.000000
-5.74069977 -1.71229994 1.11409998 207 207 207 1265.000000
-5.75559998 -1.71430004 1.11240005 198 198 198 1121.000000
-5.76809978 -1.71969998 1.11160004 205 205 205 1233.000000
-5.77950001 -1.72749996 1.11129999 196 196 196 1089.000000
-5.79160023 -1.73399997 1.11059999 201 201 201 1169.000000
-5.80170012 -1.74370003 1.11080003 222 222 222 1505.000000
-5.81440020 -1.74989998 1.11000001 205 205 205 1233.000000
-5.73029995 -1.71120000 1.10739994 215 215 215 1393.000000
-5.74580002 -1.71270001 1.10570002 207 207 207 1265.000000
-5.75990009 -1.71650004 1.10440004 205 205 205 1233.000000
-5.77260017 -1.72169995 1.10350001 203 203 203 1201.000000
-5.78450012 -1.72860003 1.10300004 201 201 201 1169.000000
-5.79670000 -1.73459995 1.10230005 202 202 202 1185.000000
-5.80789995 -1.74220002 1.10200000 210 210 210 1313.000000
-5.81850004 -1.75230002 1.10210001 208 208 208 1281.000000
-5.82609987 -1.76470006 1.10290003 222 222 222 1505.000000
-5.83809996 -1.77330005 1.10259998 200 200 200 1153.000000
-5.84549999 -1.78659999 1.10350001 201 201 201 1169.000000
-5.85099983 -1.80390000 1.10529995 207 207 207 1265.000000
-5.86539984 -1.80690002 1.10399997 207 207 207 1265.000000
-5.87080002 -1.82529998 1.10590005 202 202 202 1185.000000
-5.88019991 -1.83690000 1.10640001 204 204 204 1217.000000
-5.88670015 -1.85300004 1.10790002 196 196 196 1089.000000
-5.89389992 -1.86769998 1.10909998 195 195 195 1073.000000
-5.89699984 -1.88950002 1.11189997 213 213 213 1361.000000
-5.90059996 -1.91110003 1.11450005 191 191 191 1009.000000
-5.89879990 -1.94200003 1.11919999 190 190 190 993.000000
-5.50909996 -1.78310001 1.13929999 196 196 196 1089.000000
-5.54120016 -1.75940001 1.13189995 187 187 187 945.000000
-5.57079983 -1.74140000 1.12559998 185 185 185 913.000000
-5.59800005 -1.72650003 1.12010002 183 183 183 881.000000
-5.61999989 -1.71829998 1.11609995 204 204 204 1217.000000
-5.64109993 -1.71229994 1.11259997 190 190 190 993.000000
-5.65819979 -1.71159995 1.11029994 191 191 191 1009.000000
-5.67570019 -1.71000004 1.10790002 194 194 194 1057.000000
-5.69239998 -1.71019995 1.10580003 188 188 188 961.000000
-5.70870018 -1.71019995 1.10370004 187 187 187 945.000000
-5.72669983 -1.70749998 1.10099995 199 199 199 1137.000000
-5.74090004 -1.71120000 1.09969997 206 206 206 1249.000000
-5.75479984 -1.71480000 1.09850001 195 195 195 1073.000000
-5.76620007 -1.72179997 1.09800005 224 224 224 1537.000000
-5.77909994 -1.72739995 1.09720004 196 196 196 1089.000000
-5.79110003 -1.73399997 1.09660006 198 198 198 1121.000000
-5.80109978 -1.74380004 1.09669995 225 225 225 1553.000000
-5.81430006 -1.74919999 1.09580004 206 206 206 1249.000000
-5.73099995 -1.70940006 1.09290004 217 217 217 1425.000000
-5.74580002 -1.71190000 1.09130001 204 204 204 1217.000000
-5.75960016 -1.71609998 1.09019995 199 199 199 1137.000000
-5.77169991 -1.72220004 1.08949995 206 206 206 1249.000000
-5.78299999 -1.73020005 1.08920002 197 197 197 1105.000000
-5.79600000 -1.73500001 1.08829999 201 201 201 1169.000000
-5.80649996 -1.74349999 1.08809996 218 218 218 1441.000000
-5.81920004 -1.75030005 1.08749998 204 204 204 1217.000000
-5.82670021 -1.76289999 1.08840001 222 222 222 1505.000000
-5.83830023 -1.77219999 1.08819997 205 205 205 1233.000000
-5.84649992 -1.78410006 1.08889997 194 194 194 1057.000000
-5.85139990 -1.80239999 1.09080005 207 207 207 1265.000000
-5.86089993 -1.81359994 1.09119999 211 211 211 1329.000000
-5.87069988 -1.82449996 1.09159994 205 205 205 1233.000000
-5.88040018 -1.83570004 1.09200001 205 205 205 1233.000000
-5.88700008 -1.85169995 1.09340000 203 203 203 1201.000000
-5.89289999 -1.86870003 1.09510005 200 200 200 1153.000000
-5.89720011 -1.88829994 1.09730005 210 210 210 1313.000000
-5.90129995 -1.90910006 1.09979999 190 190 190 993.000000
-5.89870024 -1.94140005 1.10459995 190 190 190 993.000000
-5.50729990 -1.78489995 1.12520003 192 192 192 1025.000000
-5.54040003 -1.75989997 1.11759996 183 183 183 881.000000
-5.57119989 -1.73989999 1.11090004 185 185 185 913.000000
-5.59740019 -1.72669995 1.10580003 180 180 180 833.000000
-5.61859989 -1.71959996 1.10220003 209 209 209 1297.000000
-5.64039993 -1.71259999 1.09850001 189 189 189 977.000000
-5.65710020 -1.71249998 1.09630001 187 187 187 945.000000
-5.67670012 -1.70770001 1.09319997 192 192 192 1025.000000
-5.69290018 -1.70850003 1.09130001 188 188 188 961.000000
-5.70849991 -1.70949996 1.08949995 205 205 205 1233.000000
-5.72639990 -1.70710003 1.08690000 204 204 204 1217.000000
-5.73979998 -1.71210003 1.08589995 209 209 209 1297.000000
-5.75409985 -1.71500003 1.08449996 195 195 195 1073.000000
-5.76620007 -1.72109997 1.08379996 222 222 222 1505.000000
-5.77850008 -1.72749996 1.08319998 199 199 199 1137.000000
-5.79080009 -1.73360002 1.08249998 196 196 196 1089.000000
-5.80100012 -1.74310005 1.08249998 222 222 222 1505.000000
-5.81409979 -1.74870002 1.08169997 207 207 207 1265.000000
-5.73010015 -1.71010005 1.07889998 220 220 220 1473.000000
-5.74480009 -1.71259999 1.07739997 203 203 203 1201.000000
-5.75850010 -1.71710002 1.07630002 200 200 200 1153.000000
-5.77010012 -1.72399998 1.07579994 218 218 218 1441.000000
-5.78299999 -1.72940004 1.07500005 198 198 198 1121.000000
-5.79460001 -1.73640001 1.07449996 201 201 201 1169.000000
-5.80670023 -1.74240005 1.07379997 205 205 205 1233.000000
-5.81759977 -1.75199997 1.07379997 209 209 209 1297.000000
-5.82609987 -1.76310003 1.07430005 221 221 221 1489.000000
-5.83879995 -1.77059996 1.07379997 201 201 201 1169.000000
-5.84600019 -1.78400004 1.07470000 190 190 190 993.000000
-5.85480022 -1.79589999 1.07529998 205 205 205 1233.000000
-5.86070013 -1.81299996 1.07690001 201 201 201 1169.000000
-5.87150002 -1.82249999 1.07700002 207 207 207 1265.000000
-5.88049984 -1.83459997 1.07749999 200 200 200 1153.000000
-5.88570023 -1.85300004 1.07949996 211 211 211 1329.000000
-5.89340019 -1.86689997 1.08050001 194 194 194 1057.000000
-5.89970016 -1.88310003 1.08200002 195 195 195 1073.000000
-5.90110016 -1.90849996 1.08529997 197 197 197 1105.000000
-5.89860010 -1.94060004 1.09010005 196 196 196 1089.000000
-5.49770021 -1.79820001 1.11350000 189 189 189 977.000000
-5.53940010 -1.76049995 1.10329998 184 184 184 897.000000
-5.57130003 -1.73889995 1.09640002 180 180 180 833.000000
-5.59670019 -1.72689998 1.09159994 185 185 185 913.000000
-5.62010002 -1.71650004 1.08729994 195 195 195 1073.000000
-5.63859987 -1.71449995 1.08469999 190 190 190 993.000000
-5.65670013 -1.71229994 1.08210003 191 191 191 1009.000000
-5.67479992 -1.70980000 1.07949996 192 192 192 1025.000000
-5.69070005 -1.71109998 1.07770002 194 194 194 1057.000000
-5.70809984 -1.70940006 1.07529998 191 191 191 1009.000000
-5.72609997 -1.70669997 1.07280004 203 203 203 1201.000000
-5.74039984 -1.71029997 1.07149994 210 210 210 1313.000000
-5.75309992 -1.71570003 1.07060003 193 193 193 1041.000000
-5.76499987 -1.72210002 1.07000005 221 221 221 1489.000000
-5.77780008 -1.72770000 1.06920004 200 200 200 1153.000000
-5.79020023 -1.73380005 1.06850004 205 205 205 1233.000000
-5.80249977 -1.73989999 1.06780005 207 207 207 1265.000000
-5.81379986 -1.74839997 1.06760001 203 203 203 1201.000000
-5.73099995 -1.70790005 1.06429994 213 213 213 1361.000000
-5.74569988 -1.71050000 1.06280005 203 203 203 1201.000000
-5.75920010 -1.71529996 1.06180000 194 194 194 1057.000000
-5.77029991 -1.72290003 1.06149995 216 216 216 1409.000000
-5.78289986 -1.72870004 1.06070006 203 203 203 1201.000000
-5.79570007 -1.73389995 1.05990005 210 210 210 1313.000000
-5.80709982 -1.74100006 1.05939996 207 207 207 1265.000000
-5.81619978 -1.75349998 1.05999994 220 220 220 1473.000000
-5.82579994 -1.76269996 1.06009996 220 220 220 1473.000000
-5.83780003 -1.77129996 1.05980003 201 201 201 1169.000000
-5.84630013 -1.78269994 1.06029999 199 199 199 1137.000000
-5.85400009 -1.79639995 1.06130004 205 205 205 1233.000000
-5.85930014 -1.81459999 1.06309998 199 199 199 1137.000000
-5.86899996 -1.82579994 1.06350005 209 209 209 1297.000000
-5.87890005 -1.83659995 1.06379998 207 207 207 1265.000000
-5.88630009 -1.85119998 1.06490004 203 203 203 1201.000000
-5.89289999 -1.86699998 1.06620002 197 197 197 1105.000000
-5.89729977 -1.88629997 1.06840003 214 214 214 1377.000000
-5.90220022 -1.90569997 1.07040000 191 191 191 1009.000000
-5.89919996 -1.93869996 1.07529998 196 196 196 1089.000000
-5.87809992 -2.00340009 1.08659995 191 191 191 1009.000000
-5.49539995 -1.80069995 1.09959996 189 189 189 977.000000
-5.53910017 -1.76010001 1.08879995 200 200 200 1153.000000
-5.56979990 -1.74039996 1.08239996 173 173 173 721.000000
-5.59590006 -1.72730005 1.07739997 189 189 189 977.000000
-5.62020016 -1.71560001 1.07290006 199 199 199 1137.000000
-5.63819981 -1.71430004 1.07050002 192 192 192 1025.000000
-5.65689993 -1.71120000 1.06780005 190 190 190 993.000000
-5.67379999 -1.71039999 1.06560004 190 190 190 993.000000
-5.69070005 -1.71019995 1.06350005 187 187 187 945.000000
-5.70650005 -1.71099997 1.06159997 194 194 194 1057.000000
-5.72629976 -1.70560002 1.05850005 196 196 196 1089.000000
-5.73839998 -1.71249998 1.05789995 212 212 212 1345.000000
-5.75309992 -1.71490002 1.05639994 195 195 195 1073.000000
-5.76480007 -1.72150004 1.05589998 223 223 223 1521.000000
-5.77710009 -1.72800004 1.05530000 202 202 202 1185.000000
-5.79069996 -1.73210001 1.05420005 199 199 199 1137.000000
-5.80170012 -1.74030006 1.05390000 207 207 207 1265.000000
-5.81419992 -1.74689996 1.05330002 201 201 201 1169.000000
-5.72809982 -1.71150005 1.05100000 224 224 224 1537.000000
-5.74440002 -1.71179998 1.04900002 204 204 204 1217.000000
-5.75880003 -1.71500003 1.04770005 196 196 196 1089.000000
-5.76959991 -1.72319996 1.04750001 219 219 219 1457.000000
-5.78210020 -1.72920001 1.04680002 202 202 202 1185.000000
-5.79530001 -1.73370004 1.04579997 201 201 201 1169.000000
-5.80569983 -1.74240005 1.04569995 207 207 207 1265.000000
-5.81619978 -1.75269997 1.04579997 217 217 217 1425.000000
-5.82520008 -1.76289999 1.04610002 219 219 219 1457.000000
-5.83790016 -1.77030003 1.04550004 201 201 201 1169.000000
-5.84619999 -1.78199995 1.04610002 201 201 201 1169.000000
-5.85370016 -1.79610002 1.04709995 197 197 197 1105.000000
-5.85970020 -1.81309998 1.04859996 192 192 192 1025.000000
-5.86870003 -1.82539999 1.04920006 203 203 203 1201.000000
-5.88040018 -1.83309996 1.04890001 201 201 201 1169.000000
-5.88689995 -1.84920001 1.05030000 197 197 197 1105.000000
-5.89270020 -1.86640000 1.05190003 202 202 202 1185.000000
-5.89699984 -1.88590002 1.05400002 208 208 208 1281.000000
-5.90290022 -1.90369999 1.05569994 191 191 191 1009.000000
-5.89930010 -1.93770003 1.06070006 197 197 197 1105.000000
-5.88110018 -1.99730003 1.07079995 191 191 191 1009.000000
-5.49700022 -1.79760003 1.08430004 195 195 195 1073.000000
-5.53950024 -1.75870001 1.07410002 194 194 194 1057.000000
-5.56869984 -1.74129999 1.06830001 176 176 176 769.000000
-5.59590006 -1.72640002 1.06299996 190 190 190 993.000000
-5.61810017 -1.71800005 1.05920005 205 205 205 1233.000000
-5.63800001 -1.71379995 1.05620003 192 192 192 1025.000000
-5.65609980 -1.71159995 1.05369997 192 192 192 1025.000000
-5.67390013 -1.70959997 1.05130005 200 200 200 1153.000000
-5.69000006 -1.71050000 1.04939997 187 187 187 945.000000
-5.70639992 -1.71039999 1.04740000 185 185 185 913.000000
-5.72410011 -1.70819998 1.04499996 214 214 214 1377.000000
-5.73929977 -1.71039999 1.04349995 206 206 206 1249.000000
-5.75250006 -1.71500003 1.04250002 193 193 193 1041.000000
-5.76399994 -1.72200000 1.04200006 220 220 220 1473.000000
-5.77720022 -1.72700000 1.04110003 196 196 196 1089.000000
-5.78959990 -1.73290002 1.04030001 197 197 197 1105.000000
-5.80189991 -1.73909998 1.03970003 203 203 203 1201.000000
-5.81339979 -1.74720001 1.03939998 203 203 203 1201.000000
-5.72770023 -1.71150005 1.03690004 225 225 225 1553.000000
-5.74459982 -1.71060002 1.03470004 196 196 196 1089.000000
-5.75899982 -1.71410000 1.03340006 195 195 195 1073.000000
-5.76849985 -1.72420001 1.03359997 224 224 224 1537.000000
-5.78270006 -1.72759998 1.03240001 199 199 199 1137.000000
-5.79600000 -1.73160005 1.03129995 198 198 198 1121.000000
-5.80630016 -1.74059999 1.03129995 210 210 210 1313.000000
-5.81519985 -1.75349998 1.03190005 220 220 220 1473.000000
-5.82509995 -1.76230001 1.03190005 218 218 218 1441.000000
-5.83839989 -1.76870000 1.03110003 200 200 200 1153.000000
-5.84660006 -1.78059995 1.03170002 202 202 202 1185.000000
-5.85500002 -1.79310000 1.03240001 202 202 202 1185.000000
-5.85949993 -1.81250000 1.03439999 200 200 200 1153.000000
-5.86780024 -1.82609999 1.03520000 207 207 207 1265.000000
-5.87979984 -1.83329999 1.03480005 205 205 205 1233.000000
-5.88579988 -1.85039997 1.03629994 203 203 203 1201.000000
-5.89289999 -1.86510003 1.03740001 204 204 204 1217.000000
-5.89830017 -1.88290000 1.03919995 206 206 206 1249.000000
-5.90360022 -1.90149999 1.04100001 188 188 188 961.000000
-5.89940023 -1.93659997 1.04610002 199 199 199 1137.000000
-5.88719988 -1.98580003 1.05400002 189 189 189 977.000000
-5.50729990 -1.78170002 1.06649995 196 196 196 1089.000000
-5.53950024 -1.75800002 1.05960000 196 196 196 1089.000000
-5.56850004 -1.74080002 1.05390000 166 166 166 609.000000
-5.59439993 -1.72800004 1.04910004 190 190 190 993.000000
-5.61479998 -1.72200000 1.04579997 213 213 213 1361.000000
-5.63819981 -1.71270001 1.04180002 195 195 195 1073.000000
-5.65509987 -1.71239996 1.03970003 190 190 190 993.000000
-5.67189980 -1.71179998 1.03760004 214 214 214 1377.000000
-5.68970013 -1.71010005 1.03530002 189 189 189 977.000000
-5.70660019 -1.70920002 1.03310001 187 187 187 945.000000
-5.72270012 -1.70949996 1.03120005 217 217 217 1425.000000
-5.73859978 -1.71070004 1.02950001 203 203 203 1201.000000
-5.75330019 -1.71300006 1.02810001 195 195 195 1073.000000
-5.76490021 -1.71969998 1.02750003 222 222 222 1505.000000
-5.77740002 -1.72580004 1.02680004 202 202 202 1185.000000
-5.78919983 -1.73280001 1.02629995 199 199 199 1137.000000
-5.80130005 -1.73920000 1.02569997 204 204 204 1217.000000
-5.81250000 -1.74779999 1.02550006 204 204 204 1217.000000
-5.72760010 -1.71070004 1.02260005 219 219 219 1457.000000
-5.74350023 -1.71150005 1.02079999 200 200 200 1153.000000
-5.75899982 -1.71319997 1.01919997 194 194 194 1057.000000
-5.76879978 -1.72280002 1.01929998 220 220 220 1473.000000
-5.78219986 -1.72749996 1.01830006 198 198 198 1121.000000
-5.79330015 -1.73520005 1.01800001 209 209 209 1297.000000
-5.80550003 -1.74119997 1.01730001 207 207 207 1265.000000
-5.81419992 -1.75440001 1.01800001 223 223 223 1521.000000
-5.82679987 -1.75870001 1.01709998 204 204 204 1217.000000
-5.83809996 -1.76839995 1.01699996 207 207 207 1265.000000
-5.84630013 -1.78030002 1.01760006 192 192 192 1025.000000
-5.85309982 -1.79540002 1.01870000 194 194 194 1057.000000
-5.86310005 -1.80569994 1.01890004 203 203 203 1201.000000
-5.86689997 -1.82679999 1.02119994 209 209 209 1297.000000
-5.87879992 -1.83410001 1.02079999 210 210 210 1313.000000
-5.88509989 -1.85060000 1.02219999 207 207 207 1265.000000
-5.89169979 -1.86629999 1.02349997 210 210 210 1313.000000
-5.89930010 -1.88039994 1.02450001 198 198 198 1121.000000
-5.90390015 -1.90030003 1.02649999 195 195 195 1073.000000
-5.90080023 -1.93330002 1.03120005 200 200 200 1153.000000
-5.89130020 -1.97770000 1.03799999 188 188 188 961.000000
-5.51580000 -1.76820004 1.04929996 201 201 201 1169.000000
-5.53959990 -1.75699997 1.04499996 199 199 199 1137.000000
-5.56850004 -1.74000001 1.03939998 176 176 176 769.000000
-5.59630013 -1.72430003 1.03410006 193 193 193 1041.000000
-5.61460018 -1.72150004 1.03160000 211 211 211 1329.000000
-5.63880014 -1.71089995 1.02730000 190 190 190 993.000000
-5.65619993 -1.70980000 1.02509999 192 192 192 1025.000000
-5.67080021 -1.71249998 1.02370000 213 213 213 1361.000000
-5.68970013 -1.70940006 1.02110004 190 190 190 993.000000
-5.70629978 -1.70889997 1.01900005 190 190 190 993.000000
-5.72149992 -1.71050000 1.01740003 218 218 218 1441.000000
-5.73810005 -1.71070004 1.01549995 204 204 204 1217.000000
-5.75269985 -1.71309996 1.01409996 191 191 191 1009.000000
-5.76469994 -1.71920002 1.01339996 211 211 211 1329.000000
-5.77729988 -1.72520006 1.01269996 199 199 199 1137.000000
-5.78929996 -1.73179996 1.01220000 200 200 200 1153.000000
-5.80070019 -1.73930001 1.01180005 204 204 204 1217.000000
-5.81129980 -1.74899995 1.01180005 215 215 215 1393.000000
-5.72720003 -1.71060002 1.00849998 215 215 215 1393.000000
-5.74340010 -1.71089995 1.00670004 205 205 205 1233.000000
-5.75689983 -1.71570003 1.00569999 223 223 223 1521.000000
-5.76889992 -1.72189999 1.00510001 216 216 216 1409.000000
-5.78140020 -1.72809994 1.00440001 209 209 209 1297.000000
-5.79360008 -1.73399997 1.00370002 220 220 220 1473.000000
-5.80569983 -1.74000001 1.00310004 201 201 201 1169.000000
-5.81449986 -1.75310004 1.00370002 219 219 219 1457.000000
-5.82630014 -1.75870001 1.00300002 206 206 206 1249.000000
-5.83720016 -1.76900005 1.00310004 216 216 216 1409.000000
-5.84560013 -1.78050005 1.00360000 197 197 197 1105.000000
-5.85270023 -1.79519999 1.00460005 199 199 199 1137.000000
-5.86140013 -1.80770004 1.00520003 203 203 203 1201.000000
-5.86800003 -1.82410002 1.00650001 211 211 211 1329.000000
-5.87769985 -1.83519995 1.00689995 212 212 212 1345.000000
-5.88490009 -1.85000002 1.00790000 205 205 205 1233.000000
-5.89270020 -1.86380005 1.00880003 206 206 206 1249.000000
-5.89839983 -1.88090003 1.01030004 205 205 205 1233.000000
-5.90250015 -1.90180004 1.01259995 196 196 196 1089.000000
-5.90299988 -1.92859995 1.01590002 191 191 191 1009.000000
-5.89190006 -1.97590005 1.02320004 196 196 196 1089.000000
-5.51060009 -1.77509999 1.03620005 192 192 192 1025.000000
-5.53760004 -1.75899994 1.03110003 196 196 196 1089.000000
-5.56799984 -1.73989999 1.02509999 181 181 181 849.000000
-5.59560013 -1.72449994 1.01989996 194 194 194 1057.000000
-5.61429977 -1.72130001 1.01730001 213 213 213 1361.000000
-5.63730001 -1.71239996 1.01349998 195 195 195 1073.000000
-5.65409994 -1.71220005 1.01150000 191 191 191 1009.000000
-5.67059994 -1.71220005 1.00960004 208 208 208 1281.000000
-5.68800020 -1.71109998 1.00740004 193 193 193 1041.000000
-5.70590019 -1.70860004 1.00500000 191 191 191 1009.000000
-5.72189999 -1.70910001 1.00310004 210 210 210 1313.000000
-5.73729992 -1.71089995 1.00160003 201 201 201 1169.000000
-5.75099993 -1.71490002 1.00049996 217 217 217 1425.000000
-5.76510000 -1.71770000 0.99919999 207 207 207 1265.000000
-5.77600002 -1.72640002 0.99900001 208 208 208 1281.000000
-5.78919983 -1.73109996 0.99809998 202 202 202 1185.000000
-5.80130005 -1.73759997 0.99750000 208 208 208 1281.000000
-5.81090021 -1.74880004 0.99779999 215 215 215 1393.000000
-5.72840023 -1.70790005 0.99390000 208 208 208 1281.000000
-5.74429989 -1.70879996 0.99220002 193 193 193 1041.000000
-5.75729990 -1.71430004 0.99140000 214 214 214 1377.000000
-5.76989985 -1.71959996 0.99059999 203 203 203 1201.000000
-5.78210020 -1.72599995 0.99000001 201 201 201 1169.000000
-5.79370022 -1.73310006 0.98949999 209 209 209 1297.000000
-5.80609989 -1.73850000 0.98869997 205 205 205 1233.000000
-5.81510019 -1.75129998 0.98930001 217 217 217 1425.000000
-5.82520008 -1.75960004 0.98920000 203 203 203 1201.000000
-5.83489990 -1.77199996 0.98960000 219 219 219 1457.000000
-5.84560013 -1.77980006 0.98940003 193 193 193 1041.000000
-5.85319996 -1.79359996 0.99019998 198 198 198 1121.000000
-5.86000013 -1.80910003 0.99140000 198 198 198 1121.000000
-5.86980009 -1.82019997 0.99169999 207 207 207 1265.000000
-5.87860012 -1.83280003 0.99229997 202 202 202 1185.000000
-5.88570023 -1.84790003 0.99339998 198 198 198 1121.000000
-5.89239979 -1.86350000 0.99460000 204 204 204 1217.000000
-5.89760017 -1.88160002 0.99629998 195 195 195 1073.000000
-5.90220022 -1.90139997 0.99820000 195 195 195 1073.000000
-5.90210009 -1.92920005 1.00170004 189 189 189 977.000000
-5.89160013 -1.97539997 1.00870001 198 198 198 1121.000000
-5.50629997 -1.78059995 1.02289999 194 194 194 1057.000000
-5.53329992 -1.76470006 1.01779997 201 201 201 1169.000000
-5.56610012 -1.74189997 1.01119995 181 181 181 849.000000
-5.59420013 -1.72580004 1.00600004 200 200 200 1153.000000
-5.61240005 -1.72319996 1.00360000 216 216 216 1409.000000
-5.63549995 -1.71440005 0.99980003 185 185 185 913.000000
-5.65439987 -1.71099997 0.99720001 192 192 192 1025.000000
-5.66900015 -1.71370006 0.99580002 213 213 213 1361.000000
-5.68680000 -1.71210003 0.99349999 205 205 205 1233.000000
-5.70550013 -1.70850003 0.99089998 192 192 192 1025.000000
-5.72259998 -1.70720005 0.98879999 199 199 199 1137.000000
-5.73759985 -1.70969999 0.98740000 194 194 194 1057.000000
-5.74930000 -1.71679997 0.98689997 227 227 227 1585.000000
-5.76590014 -1.71570003 0.98479998 201 201 201 1169.000000
-5.77600002 -1.72560000 0.98490000 203 203 203 1201.000000
-5.78770018 -1.73269999 0.98439997 208 208 208 1281.000000
-5.80170012 -1.73609996 0.98320001 200 200 200 1153.000000
-5.81040001 -1.74870002 0.98379999 218 218 218 1441.000000
-5.72800016 -1.70780003 0.97990000 201 201 201 1169.000000
-5.74350023 -1.70920002 0.97829998 199 199 199 1137.000000
-5.75579977 -1.71589994 0.97770000 223 223 223 1521.000000
-5.76879978 -1.72060001 0.97680002 198 198 198 1121.000000
-5.78119993 -1.72679996 0.97610003 203 203 203 1201.000000
-5.79440022 -1.73109996 0.97509998 206 206 206 1249.000000
-5.80550003 -1.73870003 0.97479999 211 211 211 1329.000000
-5.81459999 -1.75119996 0.97530001 214 214 214 1377.000000
-5.82560015 -1.75820005 0.97490001 204 204 204 1217.000000
-5.83349991 -1.77339995 0.97589999 225 225 225 1553.000000
-5.84530020 -1.77939999 0.97530001 200 200 200 1153.000000
-5.85270023 -1.79359996 0.97619998 202 202 202 1185.000000
-5.86059999 -1.80729997 0.97700000 201 201 201 1169.000000
-5.86990023 -1.81910002 0.97740000 207 207 207 1265.000000
-5.87370014 -1.84010005 0.97950000 206 206 206 1249.000000
-5.88369989 -1.85039997 0.97970003 204 204 204 1217.000000
-5.89289999 -1.86170006 0.98009998 200 200 200 1153.000000
-5.89940023 -1.87759995 0.98130000 196 196 196 1089.000000
-5.90259981 -1.89989996 0.98369998 193 193 193 1041.000000
-5.90210009 -1.92840004 0.98729998 187 187 187 945.000000
-5.89300013 -1.97210002 0.99370003 193 193 193 1041.000000
-5.49800014 -1.79209995 1.01069999 187 187 187 945.000000
-5.53030014 -1.76839995 1.00419998 207 207 207 1265.000000
-5.56510019 -1.74249995 0.99710000 182 182 182 865.000000
-5.59200001 -1.72829998 0.99229997 200 200 200 1153.000000
-5.61299992 -1.72150004 0.98909998 215 215 215 1393.000000
-5.63560009 -1.71340001 0.98549998 189 189 189 977.000000
-5.65390015 -1.71089995 0.98310000 190 190 190 993.000000
-5.66879988 -1.71319997 0.98159999 206 206 206 1249.000000
-5.68690014 -1.71120000 0.97930002 195 195 195 1073.000000
-5.70410013 -1.70990002 0.97719997 195 195 195 1073.000000
-5.72139978 -1.70819998 0.97500002 199 199 199 1137.000000
-5.73659992 -1.71039999 0.97350001 195 195 195 1073.000000
-5.74940014 -1.71570003 0.97270000 223 223 223 1521.000000
-5.76420021 -1.71759999 0.97130001 200 200 200 1153.000000
-5.77549982 -1.72539997 0.97090000 202 202 202 1185.000000
-5.78870010 -1.73029995 0.97000003 202 202 202 1185.000000
-5.79979992 -1.73819995 0.96969998 205 205 205 1233.000000
-5.80870008 -1.75059998 0.97020000 221 221 221 1489.000000
-5.72609997 -1.71000004 0.96630001 202 202 202 1185.000000
-5.74100018 -1.71239996 0.96490002 203 203 203 1201.000000
-5.75540018 -1.71570003 0.96359998 221 221 221 1489.000000
-5.76730013 -1.72220004 0.96300000 209 209 209 1297.000000
-5.78130007 -1.72580004 0.96190000 208 208 208 1281.000000
-5.79129982 -1.73520005 0.96190000 206 206 206 1249.000000
-5.80410004 -1.74020004 0.96109998 205 205 205 1233.000000
-5.81400013 -1.75139999 0.96130002 216 216 216 1409.000000
-5.82420015 -1.75979996 0.96120000 216 216 216 1409.000000
