4.71439981 53.96390152 13.10459995 106 106 106 -351.000000
4.73409986 53.96490097 13.08979988 103 103 103 -399.000000
4.75019979 53.97150040 13.08730030 107 107 107 -335.000000
4.76599979 53.98030090 13.08839989 117 117 117 -175.000000
4.77309990 54.00479889 13.12240028 108 108 108 -319.000000
4.58230019 54.40620041 13.93099976 84 84 84 -703.000000
4.59670019 54.41970062 13.94139957 95 95 95 -527.000000
4.60830021 54.43790054 13.96170044 86 86 86 -671.000000
4.61980009 54.45529938 13.98069954 78 78 78 -799.000000
4.62919998 54.47969818 14.01319981 86 86 86 -671.000000
4.32719994 54.39960098 14.05270004 92 92 92 -575.000000
4.36110020 54.37950134 13.99170017 128 128 128 1.000000
4.38520002 54.37480164 13.96380043 98 98 98 -479.000000
4.43289995 54.36729813 13.91149998 121 121 121 -111.000000
4.70709991 53.97869873 13.05910015 112 112 112 -255.000000
4.72720003 53.97890091 13.04279995 107 107 107 -335.000000
4.74539995 53.98170090 13.03219986 98 98 98 -479.000000
4.76189995 53.98920059 13.03090000 112 112 112 -255.000000
4.77360010 54.00500107 13.04689980 132 132 132 65.000000
4.57959986 54.41260147 13.86349964 83 83 83 -719.000000
4.59980011 54.41490173 13.85089970 92 92 92 -575.000000
4.61469984 54.42689896 13.85840034 86 86 86 -671.000000
4.62519979 54.44609833 13.88119984 86 86 86 -671.000000
4.28590012 54.43569946 14.06439972 116 116 116 -191.000000
4.31860018 54.41609955 14.00559998 108 108 108 -319.000000
4.35080004 54.39910126 13.95129967 88 88 88 -639.000000
4.37790012 54.38919830 13.91279984 105 105 105 -367.000000
4.40369987 54.38069916 13.87749958 73 73 73 -879.000000
4.48260021 54.35570145 13.77190018 62 62 62 -1055.000000
4.71899986 53.99530029 13.00100040 98 98 98 -479.000000
4.73890018 53.99499893 12.98429966 100 100 100 -447.000000
4.75769997 53.99840164 12.97439957 104 104 104 -383.000000
4.77139997 54.01029968 12.98239994 124 124 124 -63.000000
4.77869987 54.03400040 13.01459980 130 130 130 33.000000
4.60270023 54.41059875 13.76220036 87 87 87 -655.000000
4.61509991 54.42729950 13.77929974 72 72 72 -895.000000
4.64379978 54.45370102 13.79909992 75 75 75 -847.000000
4.65670013 54.46950150 13.81459999 114 114 114 -223.000000
4.66669989 54.48989868 13.83979988 79 79 79 -783.000000
4.30369997 54.44380188 13.98180008 99 99 99 -463.000000
4.33739996 54.42419815 13.92249966 81 81 81 -751.000000
4.36859989 54.40719986 13.86940002 113 113 113 -239.000000
4.39669991 54.39459991 13.82590008 88 88 88 -639.000000
4.42220020 54.38930130 13.79629993 81 81 81 -751.000000
4.65019989 54.44260025 13.69729996 79 79 79 -783.000000
4.66219997 54.45989990 13.71580029 80 80 80 -767.000000
4.94269991 54.22180176 13.11620045 95 95 95 -527.000000
4.96110010 54.22499847 13.10770035 163 163 163 561.000000
4.97520018 54.23609924 13.11520004 132 132 132 65.000000
4.32219982 54.45259857 13.90030003 96 96 96 -511.000000
4.35529995 54.43220139 13.84070015 86 86 86 -671.000000
4.41599989 54.40190125 13.74269962 112 112 112 -255.000000
4.48750019 54.38899994 13.66380024 111 111 111 -271.000000
4.70489979 54.02399826 12.90979958 113 113 113 -239.000000
4.72429991 54.02470016 12.89529991 115 115 115 -207.000000
4.74630022 54.02209854 12.87349987 108 108 108 -319.000000
4.76359987 54.02740097 12.86800003 113 113 113 -239.000000
4.77799988 54.03779984 12.87300014 120 120 120 -127.000000
4.78620005 54.06090164 12.90340042 107 107 107 -335.000000
4.65000010 54.36249924 13.49149990 71 71 71 -911.000000
4.63549995 54.43000031 13.61069965 90 90 90 -607.000000
4.92920017 54.25090027 13.09850025 108 108 108 -319.000000
4.94719982 54.25519943 13.09210014 175 175 175 753.000000
4.96330023 54.65370178 13.72900009 136 136 136 129.000000
4.33960009 54.46170044 13.82110023 82 82 82 -735.000000
4.37389994 54.43820190 13.75599957 88 88 88 -639.000000
4.40920019 54.41550064 13.69149971 91 91 91 -591.000000
4.43529987 54.40629959 13.65569973 83 83 83 -719.000000
4.48379993 54.39699936 13.60159969 119 119 119 -143.000000
4.71859980 54.03649902 12.84519958 114 114 114 -223.000000
4.73920012 54.03680038 12.82919979 107 107 107 -335.000000
4.77510023 54.04449844 12.81280041 109 109 109 -303.000000
4.78700018 54.06050110 12.82870007 114 114 114 -223.000000
4.63740015 54.42760086 13.52799988 77 77 77 -815.000000
4.65500021 54.43569946 13.52709961 93 93 93 -559.000000
4.67129993 54.44469833 13.52900028 104 104 104 -383.000000
4.68580008 54.45579910 13.53540039 80 80 80 -767.000000
4.91499996 54.28139877 13.08360004 125 125 125 -47.000000
4.93620014 54.27939987 13.06470013 166 166 166 609.000000
4.35979986 54.46490097 13.73120022 112 112 112 -255.000000
4.39669991 54.43930054 13.66119957 96 96 96 -511.000000
4.42670012 54.42340088 13.61209965 136 136 136 129.000000
4.45599985 54.40940094 13.56630039 121 121 121 -111.000000
4.51919985 54.37239838 13.45779991 70 70 70 -927.000000
4.70940018 54.05500031 12.80879974 103 103 103 -399.000000
4.73260021 54.05030060 12.78299999 112 112 112 -255.000000
4.76999998 54.05540085 12.76150036 102 102 102 -415.000000
4.78469992 54.06610107 12.76669979 129 129 129 17.000000
4.79400015 54.08660126 12.79179955 104 104 104 -383.000000
4.63889980 54.42580032 13.44729996 91 91 91 -591.000000
4.66200018 54.42309952 13.42529964 88 88 88 -639.000000
4.67490005 54.43870163 13.43999958 83 83 83 -719.000000
4.74219990 54.46879959 13.43669987 89 89 89 -623.000000
4.90299988 54.30739975 13.05980015 154 154 154 417.000000
4.34289980 54.49670029 13.71650028 0 0 0 -2047.000000
4.38469982 54.46239853 13.62950039 87 87 87 -655.000000
4.41569996 54.44459915 13.57680035 108 108 108 -319.000000
4.44509983 54.43069839 13.53149986 87 87 87 -655.000000
4.47060013 54.42380142 13.50039959 93 93 93 -559.000000
4.49410009 54.42029953 13.47620010 107 107 107 -335.000000
4.54879999 54.35720062 13.33450031 64 64 64 -1023.000000
4.72450018 54.06679916 12.74289989 108 108 108 -319.000000
4.76440001 54.06710052 12.71199989 101 101 101 -431.000000
4.78119993 54.07400131 12.70979977 136 136 136 129.000000
4.79370022 54.08829880 12.72239971 119 119 119 -143.000000
4.80469990 54.10469818 12.73970032 120 120 120 -127.000000
4.65869999 54.43080139 13.36410046 85 85 85 -687.000000
4.67649984 54.43690109 13.35999966 88 88 88 -639.000000
4.74860001 54.45719910 13.33759975 84 84 84 -703.000000
4.77580023 54.44449997 13.29730034 105 105 105 -367.000000
4.78809977 54.46170044 13.31540012 94 94 94 -543.000000
4.90689993 54.34270096 13.03929996 150 150 150 353.000000
5.52850008 53.80360031 11.74300003 129 129 129 17.000000
5.54650021 53.80490112 11.73349953 156 156 156 449.000000
4.42439985 54.47000122 13.53250027 93 93 93 -559.000000
4.77430010 54.08840179 12.66590023 107 107 107 -335.000000
4.78970003 54.09719849 12.66779995 143 143 143 241.000000
4.76919985 54.41699982 13.18410015 83 83 83 -719.000000
5.52050018 53.82379913 11.71479988 139 139 139 177.000000
5.53700018 53.82870102 11.71199989 147 147 147 305.000000
5.55039978 53.83779907 11.71829987 110 110 110 -287.000000
4.42210007 54.47549820 13.46679974 81 81 81 -751.000000
4.45240021 54.45999908 13.41909981 94 94 94 -543.000000
4.47959995 54.44979858 13.38189983 85 85 85 -687.000000
4.50470018 54.44240189 13.35070038 103 103 103 -399.000000
4.72709990 54.10240173 12.65289974 109 109 109 -303.000000
4.86719990 54.42770004 13.05519962 102 102 102 -415.000000
4.83500004 54.53689957 13.25010014 77 77 77 -815.000000
5.50920010 53.85160065 11.70090008 105 105 105 -367.000000
5.52710009 53.85359955 11.69270039 137 137 137 145.000000
4.40469980 54.50859833 13.45569992 110 110 110 -287.000000
4.44089985 54.48249817 13.38739967 87 87 87 -655.000000
4.47149992 54.46599960 13.33810043 126 126 126 -31.000000
4.49819994 54.45569992 13.30150032 119 119 119 -143.000000
4.52239990 54.45159912 13.27639961 91 91 91 -591.000000
4.73990011 54.11729813 12.59519958 107 107 107 -335.000000
4.80429983 54.14950180 12.59580040 115 115 115 -207.000000
4.85360003 54.41439819 12.97099972 130 130 130 33.000000
4.85300016 54.45859909 13.04049969 110 110 110 -287.000000
4.86040020 54.48509979 13.07670021 87 87 87 -655.000000
5.48050022 53.79460144 11.56299973 123 123 123 -79.000000
5.49919987 53.87659836 11.68179989 91 91 91 -591.000000
5.51700020 53.87900162 11.67430019 161 161 161 529.000000
4.42549992 54.51219940 13.36970043 118 118 118 -159.000000
4.46010017 54.48849869 13.30669975 92 92 92 -575.000000
4.48890018 54.47439957 13.26290035 93 93 93 -559.000000
4.51709986 54.46279907 13.22340012 115 115 115 -207.000000
4.78819990 54.14139938 12.52519989 110 110 110 -287.000000
4.80149984 54.15620041 12.53779984 119 119 119 -143.000000
4.80760002 54.18339920 12.57509995 46 46 46 -1311.000000
4.84310007 54.43740082 12.94180012 145 145 145 273.000000
4.84840012 54.46929932 12.98760033 91 91 91 -591.000000
4.84009981 54.52859879 13.08580017 79 79 79 -783.000000
4.79809999 54.16410065 12.48260021 124 124 124 -63.000000
4.80859995 54.18259811 12.50310040 81 81 81 -751.000000
4.80149984 54.44039917 12.90410042 102 102 102 -415.000000
4.75829983 54.44490051 12.87040043 76 76 76 -831.000000
4.77729988 54.44869995 12.86250019 113 113 113 -239.000000
4.79670000 54.45149994 12.85280037 102 102 102 -415.000000
4.84119987 54.48680115 12.87549973 117 117 117 -175.000000
4.85239983 54.50540161 12.89620018 101 101 101 -431.000000
4.73159981 54.17710114 12.41359997 110 110 110 -287.000000
4.75290012 54.17520142 12.39470005 113 113 113 -239.000000
4.77139997 54.17750168 12.38449955 114 114 114 -223.000000
4.54729986 54.49100113 12.95189953 80 80 80 -767.000000
4.72429991 54.19229889 12.37310028 94 94 94 -543.000000
4.74149990 54.19829941 12.36929989 104 104 104 -383.000000
4.76189995 54.19710159 12.35249996 103 103 103 -399.000000
4.78299999 54.19699860 12.33679962 109 109 109 -303.000000
4.80810022 54.22539902 12.36130047 86 86 86 -671.000000
4.83409977 54.50379944 12.76420021 83 83 83 -719.000000
5.48549986 54.00230026 11.56490040 162 162 162 545.000000
5.50029993 54.01200104 11.57100010 114 114 114 -223.000000
4.54139996 54.50350189 12.90340042 121 121 121 -111.000000
4.57259989 54.48529816 12.85330009 0 0 0 -2047.000000
4.73789978 54.20640182 12.31599998 116 116 116 -191.000000
4.75810003 54.20560074 12.29990005 110 110 110 -287.000000
4.84660006 54.52119827 12.71160030 119 119 119 -143.000000
5.47529984 54.02819824 11.54759979 166 166 166 609.000000
5.49009991 54.03779984 11.55340004 139 139 139 177.000000
4.53270006 54.52130127 12.86540031 69 69 69 -943.000000
4.56739998 54.49629974 12.80270004 95 95 95 -527.000000
4.73220015 54.21849823 12.27029991 109 109 109 -303.000000
4.75059986 54.22129822 12.26109982 109 109 109 -303.000000
4.74739981 54.47150040 12.63609982 84 84 84 -703.000000
4.78579998 54.47829819 12.61940002 72 72 72 -895.000000
4.80210018 54.48659897 12.62049961 113 113 113 -239.000000
5.46589994 54.05189896 11.52620029 147 147 147 305.000000
4.73050022 54.22290039 12.21090031 123 123 123 -79.000000
4.78429985 54.48260117 12.55760002 86 86 86 -671.000000
4.80049992 54.49100113 12.55889988 149 149 149 337.000000
4.81750011 54.49869919 12.55869961 91 91 91 -591.000000
5.47240019 54.08300018 11.50679970 142 142 142 225.000000
4.76319981 54.48450089 12.50640011 102 102 102 -415.000000
4.78270006 54.48699951 12.49650002 121 121 121 -111.000000
4.79949999 54.49409866 12.49559975 137 137 137 145.000000
4.81699991 54.50080109 12.49339962 74 74 74 -863.000000
5.43889999 54.16899872 11.40680027 165 165 165 593.000000
4.89620018 54.55540085 12.18519974 71 71 71 -911.000000
4.90990019 54.57160187 12.19999981 138 138 138 161.000000
4.79489994 54.51150131 12.05749989 59 59 59 -1103.000000
4.91219997 54.56880188 12.06350040 122 122 122 -95.000000
4.92619991 54.58369827 12.07600021 84 84 84 -703.000000
4.80620003 54.48929977 11.95380020 56 56 56 -1151.000000
4.88380003 54.54270172 11.97949982 113 113 113 -239.000000
5.41940022 54.26869965 11.25949955 150 150 150 353.000000
4.94129992 54.59690094 11.89260006 149 149 149 337.000000
5.38500023 54.30799866 11.21560001 144 144 144 257.000000
5.37570000 54.33160019 11.19489956 110 110 110 -287.000000
4.71600008 54.50949860 11.72509956 129 129 129 17.000000
4.93820000 54.52239990 11.41899967 91 91 91 -591.000000
4.95260000 54.53630066 11.42940044 95 95 95 -527.000000
4.96740007 54.54619980 11.43410015 93 93 93 -559.000000
4.98299980 54.55839920 11.44149971 114 114 114 -223.000000
4.99410009 54.57920074 11.46350002 97 97 97 -495.000000
4.99900007 54.61190033 11.50570011 104 104 104 -383.000000
4.91909981 53.91139984 10.54450035 16 16 16 -1791.000000
4.72510004 54.49520111 11.45470047 107 107 107 -335.000000
4.81960011 54.47090149 11.36190033 96 96 96 -511.000000
4.90679979 54.50329971 11.35190010 133 133 133 81.000000
4.92199993 54.51290131 11.35579967 102 102 102 -415.000000
4.95260000 54.53710175 11.37040043 83 83 83 -719.000000
4.96540022 54.55179977 11.38290024 91 91 91 -591.000000
4.98190022 54.56190109 11.38679981 91 91 91 -591.000000
5.00699997 54.59519958 11.41769981 98 98 98 -479.000000
5.00950003 54.63690186 11.47340012 100 100 100 -447.000000
4.63009977 54.60210037 11.59840012 79 79 79 -783.000000
4.68310022 54.53929901 11.48040009 68 68 68 -959.000000
4.71339989 54.51969910 11.43480015 101 101 101 -431.000000
4.73519993 54.51770020 11.41829967 74 74 74 -863.000000
4.76590014 54.49810028 11.37259960 69 69 69 -943.000000
4.86850023 54.49810028 11.30879974 114 114 114 -223.000000
4.88640022 54.50400162 11.30589962 121 121 121 -111.000000
4.90220022 54.51419830 11.31000042 135 135 135 113.000000
4.91909981 54.52030182 11.30799961 119 119 119 -143.000000
4.93730021 54.52650070 11.30560017 112 112 112 -255.000000
4.95219994 54.53919983 11.31379986 92 92 92 -575.000000
4.96509981 54.55339813 11.32540035 87 87 87 -655.000000
4.98050022 54.56610107 11.33360004 85 85 85 -687.000000
5.00750017 54.59519958 11.35750008 133 133 133 81.000000
5.01700020 54.62110138 11.38720036 90 90 90 -607.000000
5.01999998 54.66170120 11.44099998 121 121 121 -111.000000
4.61819983 54.62670135 11.57810020 16 16 16 -1791.000000
4.68009996 54.54629898 11.43150043 80 80 80 -767.000000
4.71299982 54.52159882 11.37769985 105 105 105 -367.000000
4.82609987 54.50230026 11.28120041 98 98 98 -479.000000
4.84590006 54.50439835 11.27190018 93 93 93 -559.000000
4.89989996 54.51990128 11.25990009 94 94 94 -543.000000
4.91669989 54.52629852 11.25829983 125 125 125 -47.000000
4.93529987 54.53179932 11.25469971 153 153 153 401.000000
4.95030022 54.54430008 11.26249981 104 104 104 -383.000000
5.02710009 54.64659882 11.35639954 90 90 90 -607.000000
4.70520020 54.53810120 11.34510040 146 146 146 289.000000
4.89599991 54.52939987 11.21599960 112 112 112 -255.000000
4.91340017 54.53440094 11.21230030 111 111 111 -271.000000
4.93230009 54.53939819 11.20779991 91 91 91 -591.000000
4.95060015 54.54470062 11.20400047 150 150 150 353.000000
4.96400023 54.55780029 11.21370029 85 85 85 -687.000000
4.98089981 54.56740189 11.21679974 101 101 101 -431.000000
4.99499989 54.58150101 11.22760010 123 123 123 -79.000000
5.00759983 54.59700012 11.24129963 94 94 94 -543.000000
4.79689980 54.52170181 11.20740032 111 111 111 -271.000000
4.81710005 54.52289963 11.19659996 98 98 98 -479.000000
4.83780003 54.52330017 11.18449974 106 106 106 -351.000000
4.85729980 54.52460098 11.17440033 79 79 79 -783.000000
4.89219999 54.53850174 11.17189980 63 63 63 -1039.000000
4.91160011 54.53939819 11.16160011 136 136 136 129.000000
4.94969988 54.54759979 11.14999962 110 110 110 -287.000000
4.96490002 54.55690002 11.15359974 100 100 100 -447.000000
4.98229980 54.56510162 11.15439987 123 123 123 -79.000000
4.99679995 54.57839966 11.16380024 94 94 94 -543.000000
5.00939989 54.59410095 11.17770004 93 93 93 -559.000000
4.81459999 54.52920151 11.14809990 84 84 84 -703.000000
4.83589983 54.52819824 11.13389969 93 93 93 -559.000000
4.85440016 54.53179932 11.12749958 88 88 88 -639.000000
4.91099977 54.54159927 11.10669994 99 99 99 -463.000000
4.92969990 54.54690170 11.10280037 117 117 117 -175.000000
4.96600008 54.55550003 11.09290028 133 133 133 81.000000
4.98619986 54.55759811 11.08399963 80 80 80 -767.000000
5.00549984 54.56019974 11.07639980 114 114 114 -223.000000
5.01970005 54.57210159 11.08409977 84 84 84 -703.000000
4.67189980 54.60820007 11.28100014 71 71 71 -911.000000
4.70569992 54.58219910 11.22609997 105 105 105 -367.000000
4.83349991 54.53419876 11.08539963 98 98 98 -479.000000
4.96950006 54.54899979 11.02470016 102 102 102 -415.000000
4.99109983 54.54779816 11.01060009 127 127 127 -15.000000
5.00750017 54.55680084 11.01319981 120 120 120 -127.000000
5.02400017 54.56349945 11.01259995 118 118 118 -159.000000
4.65999985 54.63309860 11.26220036 85 85 85 -687.000000
4.69780016 54.59920120 11.19480038 114 114 114 -223.000000
4.71290016 54.61380005 11.08899975 93 93 93 -559.000000
4.76999998 54.58209991 11.01369953 78 78 78 -799.000000
4.92710018 54.55640030 10.88829994 107 107 107 -335.000000
4.69899988 54.64319992 11.07779980 114 114 114 -223.000000
4.90479994 54.56079865 10.79479980 107 107 107 -335.000000
4.71390009 54.70370102 10.86349964 51 51 51 -1231.000000
4.76160002 54.64889908 10.76729965 94 94 94 -543.000000
4.79969978 54.61339951 10.70079994 95 95 95 -527.000000
4.82579994 54.60150146 10.67090034 107 107 107 -335.000000
4.91550016 54.58729935 10.60249996 78 78 78 -799.000000
4.74980021 54.67430115 10.75070000 96 96 96 -511.000000
4.86649990 54.60480118 10.59759998 157 157 157 465.000000
4.88880014 54.59980011 10.57900047 92 92 92 -575.000000
4.91300011 54.59360123 10.55770016 121 121 121 -111.000000
4.95330000 54.59410095 10.53600025 97 97 97 -495.000000
4.97440004 54.59429932 10.52480030 126 126 126 -31.000000
4.99300003 54.59859848 10.52000046 115 115 115 -207.000000
5.02939987 54.60829926 10.51270008 120 120 120 -127.000000
5.04750013 54.61460114 10.51089954 145 145 145 273.000000
4.97329998 54.59780121 10.47609997 98 98 98 -479.000000
4.99139977 54.60319901 10.47299957 145 145 145 273.000000
5.00810003 54.60969925 10.47220039 153 153 153 401.000000
4.83680010 54.62530136 10.53190041 97 97 97 -495.000000
5.05840015 54.63660049 10.37300014 140 140 140 193.000000
4.76219988 54.69670105 10.55420017 93 93 93 -559.000000
4.80249977 54.65520096 10.48079967 123 123 123 -79.000000
5.13390017 54.74739838 10.41959953 156 156 156 449.000000
5.14209986 54.77640152 10.45180035 98 98 98 -479.000000
5.18319988 54.72930145 10.37240028 142 142 142 225.000000
4.79769993 54.66619873 10.44379997 107 107 107 -335.000000
5.02279997 54.62779999 10.27569962 119 119 119 -143.000000
5.04169989 54.63249969 10.27159977 105 105 105 -367.000000
5.05700016 54.64170074 10.27499962 153 153 153 401.000000
5.07289982 54.65290070 10.28069973 124 124 124 -63.000000
5.13509989 54.74549866 10.36400032 100 100 100 -447.000000
5.14489985 54.77069855 10.39039993 87 87 87 -655.000000
5.02150011 54.63159943 10.22910023 138 138 138 161.000000
5.03980017 54.63759995 10.22690010 118 118 118 -159.000000
5.05670023 54.64329910 10.22509956 150 150 150 353.000000
5.07310009 54.65340042 10.22910023 108 108 108 -319.000000
5.10190010 54.68019867 10.24750042 85 85 85 -687.000000
5.13640022 54.74319839 10.30799961 93 93 93 -559.000000
5.14669991 54.76739883 10.33279991 113 113 113 -239.000000
4.98220015 54.62900162 10.19460011 91 91 91 -591.000000
5.03929996 54.63980103 10.17819977 110 110 110 -287.000000
5.08809996 54.66770172 10.18739986 150 150 150 353.000000
5.13850021 54.73929977 10.25010014 89 89 89 -623.000000
5.14809990 54.76499939 10.27690029 107 107 107 -335.000000
5.08780003 54.66920090 10.13799953 156 156 156 449.000000
5.13350010 54.75210190 10.21650028 71 71 71 -911.000000
5.16130018 54.78670120 10.19359970 94 94 94 -543.000000
4.99609995 54.64490128 10.05319977 97 97 97 -495.000000
5.01910019 54.64070129 10.03639984 129 129 129 17.000000
5.03620005 54.64939880 10.03820038 86 86 86 -671.000000
5.07060003 54.66279984 10.03699970 96 96 96 -511.000000
5.15590000 54.74919891 10.09949970 80 80 80 -767.000000
5.16349983 54.78250122 10.13619995 145 145 145 273.000000
5.03399992 54.65530014 9.99600029 130 130 130 33.000000
4.82009983 54.71469879 10.12629986 75 75 75 -847.000000
5.07070017 54.66450119 9.93840027 84 84 84 -703.000000
4.87470007 54.68909836 9.96689987 107 107 107 -335.000000
4.89949989 54.68109894 9.94470024 97 97 97 -495.000000
4.92250013 54.67399979 9.92459965 131 131 131 49.000000
4.99079990 54.66009903 9.87360001 114 114 114 -223.000000
4.89610004 54.68939972 9.90639973 124 124 124 -63.000000
4.90799999 54.71030045 9.72840023 83 83 83 -719.000000
4.93529987 54.69749832 9.70009995 101 101 101 -431.000000
5.21029997 54.77590179 9.66009998 124 124 124 -63.000000
5.22020006 54.80220032 9.68620014 157 157 157 465.000000
5.22569990 54.83829880 9.72579956 141 141 141 209.000000
4.84270000 54.76330185 9.77280045 91 91 91 -591.000000
5.21239996 54.77170181 9.60630035 137 137 137 145.000000
5.22340012 54.79510117 9.62849998 101 101 101 -431.000000
5.23070002 54.82669830 9.66170025 98 98 98 -479.000000
4.83809996 54.77429962 9.73890018 35 35 35 -1487.000000
5.20310020 54.74440002 9.53139973 109 109 109 -303.000000
5.21350002 54.76979828 9.55599976 156 156 156 449.000000
5.22739983 54.78630066 9.56879997 102 102 102 -415.000000
5.23509979 54.81660080 9.60019970 118 118 118 -159.000000
5.18979979 54.72999954 9.47369957 93 93 93 -559.000000
5.20489979 54.74079895 9.47929955 127 127 127 -15.000000
5.21759987 54.76060104 9.49619961 106 106 106 -351.000000
5.22989988 54.78099823 9.51420021 103 103 103 -399.000000
4.99790001 54.69969940 9.48149967 107 107 107 -335.000000
5.10279989 54.69329834 9.42490005 130 130 130 33.000000
5.19920015 54.70890045 9.35200024 117 117 117 -175.000000
5.21120024 54.72740173 9.36760044 123 123 123 -79.000000
5.22539997 54.74340057 9.37950039 97 97 97 -495.000000
5.23649979 54.76639938 9.40069962 99 99 99 -463.000000
5.24520016 54.79439926 9.42870045 109 109 109 -303.000000
5.25379992 54.82600021 9.46080017 102 102 102 -415.000000
5.18079996 54.70309830 9.30749989 129 129 129 17.000000
5.19530010 54.71910095 9.31900024 140 140 140 193.000000
5.21159983 54.72729874 9.32100010 141 141 141 209.000000
5.22989988 54.73329926 9.31980038 110 110 110 -287.000000
5.03999996 54.69889832 9.32089996 86 86 86 -671.000000
5.06110001 54.69839859 9.31070042 91 91 91 -591.000000
5.08379984 54.69430161 9.29559994 102 102 102 -415.000000
5.17710018 54.71269989 9.27400017 131 131 131 49.000000
5.24170017 54.75559998 9.29360008 109 109 109 -303.000000
5.25150013 54.78039932 9.31719971 106 106 106 -351.000000
5.26270008 54.80559921 9.34070015 121 121 121 -111.000000
5.27029991 54.83829880 9.37430000 97 97 97 -495.000000
5.03929996 54.70149994 9.27820015 74 74 74 -863.000000
5.06059980 54.70059967 9.26739979 85 85 85 -687.000000
5.23920012 54.76259995 9.25669956 143 143 143 241.000000
5.25239992 54.77899933 9.26930046 127 127 127 -15.000000
5.26389980 54.80339813 9.29170036 134 134 134 97.000000
5.27460003 54.87829971 9.37110043 78 78 78 -799.000000
4.96659994 54.72620010 9.29339981 65 65 65 -1007.000000
5.16069984 54.70539856 9.18190002 116 116 116 -191.000000
5.17609978 54.71699905 9.18789959 157 157 157 465.000000
5.19290018 54.72750092 9.19219971 172 172 172 705.000000
5.23719978 54.76819992 9.21809959 141 141 141 209.000000
5.25059986 54.78440094 9.23040009 142 142 142 225.000000
5.27600002 54.82559967 9.26550007 109 109 109 -303.000000
5.28090000 54.86320114 9.30539989 100 100 100 -447.000000
4.96339989 54.73400116 9.25759983 79 79 79 -783.000000
5.14020014 54.70849991 9.14920044 166 166 166 609.000000
5.17560005 54.71879959 9.14480019 141 141 141 209.000000
5.19239998 54.72969818 9.14949989 181 181 181 849.000000
5.20739985 54.74079895 9.15520000 120 120 120 -127.000000
5.24989986 54.78699875 9.18809986 160 160 160 513.000000
5.26520014 54.80199814 9.19830036 146 146 146 289.000000
5.27839994 54.82049942 9.21329975 135 135 135 113.000000
5.28620005 54.85070038 9.24349976 101 101 101 -431.000000
4.96099997 54.74029922 9.22000027 52 52 52 -1215.000000
5.15700006 54.71559906 9.10459995 143 143 143 241.000000
5.19150019 54.73260117 9.10809994 169 169 169 657.000000
5.20709991 54.74240112 9.11209965 124 124 124 -63.000000
5.22310019 54.75419998 9.11830044 166 166 166 609.000000
5.25010014 54.78739929 9.14319992 136 136 136 129.000000
5.26569986 54.80149841 9.15219975 141 141 141 209.000000
5.27839994 54.82139969 9.16899967 138 138 138 161.000000
5.28800011 54.84700012 9.19309998 150 150 150 353.000000
5.26370001 54.80730057 9.11450005 132 132 132 65.000000
5.27799988 54.82329941 9.12609959 162 162 162 545.000000
5.22300005 54.75600052 9.03090000 139 139 139 177.000000
5.24819994 54.79380035 9.06149960 114 114 114 -223.000000
5.26529980 54.80419922 9.06560040 117 117 117 -175.000000
5.29010010 54.84320068 9.09799957 98 98 98 -479.000000
5.29110003 54.84159851 9.05119991 152 152 152 385.000000
5.15070009 54.73469925 8.90639973 182 182 182 865.000000
5.16970015 54.73809814 8.90190029 143 143 143 241.000000
5.18800020 54.74520111 8.90180016 170 170 170 673.000000
5.25190020 54.78710175 8.92010021 171 171 171 689.000000
5.13180017 54.73400116 8.87020016 115 115 115 -207.000000
5.15010023 54.73699951 8.86550045 175 175 175 753.000000
5.16949987 54.73920059 8.85949993 136 136 136 129.000000
5.23780012 54.77360153 8.86779976 124 124 124 -63.000000
5.25279999 54.78559875 8.87440014 169 169 169 657.000000
5.30410004 54.86410141 8.93780041 109 109 109 -303.000000
5.30800009 54.90670013 8.98190022 126 126 126 -31.000000
5.18779993 54.74720001 8.81700039 135 135 135 113.000000
5.29390001 54.83800125 8.87010002 107 107 107 -335.000000
5.30560017 54.86119843 8.89029980 156 156 156 449.000000
5.31269979 54.89530182 8.92389965 145 145 145 273.000000
5.16680002 54.74739838 8.78289986 120 120 120 -127.000000
5.18989992 54.74290085 8.76850033 122 122 122 -95.000000
5.28079987 54.82210159 8.81509972 143 143 143 241.000000
5.29470015 54.83670044 8.82509995 116 116 116 -191.000000
5.30670023 54.85919952 8.84430027 162 162 162 545.000000
5.31669998 54.88600159 8.86880016 123 123 123 -79.000000
5.12750006 54.74660110 8.75570011 114 114 114 -223.000000
5.25309992 54.78730011 8.74650002 167 167 167 625.000000
5.28119993 54.82189941 8.77169991 135 135 135 113.000000
5.29479980 54.83720016 8.78240013 139 139 139 177.000000
5.30690002 54.85950089 8.80130005 165 165 165 593.000000
5.23780012 54.77679825 8.69890022 155 155 155 433.000000
5.25290012 54.78870010 8.70530033 180 180 180 833.000000
5.28230000 54.81999969 8.72640038 130 130 130 33.000000
4.95359993 54.81409836 8.81449986 122 122 122 -95.000000
5.29629993 54.83509827 8.69410038 118 118 118 -159.000000
5.30989981 54.85340118 8.70790005 129 129 129 17.000000
5.32210016 54.87429810 8.72519970 116 116 116 -191.000000
5.32880020 54.90919876 8.75920010 124 124 124 -63.000000
5.27190018 54.79579926 8.62040043 129 129 129 17.000000
5.28340006 54.81869888 8.63969994 163 163 163 561.000000
5.29680014 54.83470154 8.65110016 148 148 148 321.000000
5.31059980 54.85260010 8.66440010 132 132 132 65.000000
5.32439995 54.86930084 8.67640018 125 125 125 -47.000000
5.33190012 54.90200043 8.70769978 145 145 145 273.000000
5.23699999 54.78099823 8.57689953 178 178 178 801.000000
5.25360012 54.78929901 8.57890034 180 180 180 833.000000
5.27040005 54.80039978 8.58380032 126 126 126 -31.000000
5.28450012 54.81669998 8.59500027 177 177 177 785.000000
5.29740000 54.83390045 8.60789967 136 136 136 129.000000
5.31220007 54.84920120 8.61800003 166 166 166 609.000000
5.32539988 54.86759949 8.63199997 127 127 127 -15.000000
5.03270006 54.77799988 8.61579990 155 155 155 433.000000
5.18139982 54.76819992 8.54430008 121 121 121 -111.000000
5.19990015 54.77119827 8.53979969 160 160 160 513.000000
5.21990013 54.77320099 8.53390026 119 119 119 -143.000000
5.23729992 54.78120041 8.53530025 181 181 181 849.000000
5.25320005 54.79119873 8.53929996 159 159 159 497.000000
5.27120018 54.79930115 8.54049969 126 126 126 -31.000000
5.28590012 54.81420135 8.55010033 142 142 142 225.000000
5.29879999 54.83129883 8.56270027 129 129 129 17.000000
5.32539988 54.86830139 8.59070015 90 90 90 -607.000000
5.24119997 54.77239990 8.48309994 133 133 133 81.000000
5.25419998 54.78950119 8.49549961 126 126 126 -31.000000
5.26999998 54.80300140 8.50310040 176 176 176 769.000000
5.28639984 54.81359863 8.50759983 131 131 131 49.000000
5.29939985 54.83060074 8.52000046 184 184 184 897.000000
5.31320000 54.84820175 8.53279972 143 143 143 241.000000
5.33820009 54.88809967 8.56439972 152 152 152 385.000000
5.34560013 54.92340088 8.59799957 159 159 159 497.000000
5.19990015 54.77270126 8.45839977 133 133 133 81.000000
5.21869993 54.77769852 8.45610046 129 129 129 17.000000
5.23740005 54.78250122 8.45359993 128 128 128 1.000000
5.27059984 54.80239868 8.46100044 171 171 171 689.000000
5.28690004 54.81320190 8.46560001 142 142 142 225.000000
5.30119991 54.82659912 8.47379971 111 111 111 -271.000000
5.33960009 54.88520050 8.51910019 151 151 151 369.000000
5.34989977 54.91299820 8.54380035 134 134 134 97.000000
5.11819983 54.77470016 8.45209980 128 128 128 1.000000
5.13730001 54.77610016 8.44569969 117 117 117 -175.000000
5.15789986 54.77579880 8.43719959 174 174 174 737.000000
5.21920013 54.77740097 8.41440010 129 129 129 17.000000
5.25360012 54.79240036 8.41619968 146 146 146 289.000000
5.27169991 54.80030060 8.41720009 159 159 159 497.000000
5.28730011 54.81299973 8.42409992 109 109 109 -303.000000
5.31479979 54.84579849 8.44699955 118 118 118 -159.000000
5.32929993 54.86069870 8.45660019 125 125 125 -47.000000
5.34219980 54.87919998 8.47060013 129 129 129 17.000000
5.36049986 54.94020081 8.52610016 111 111 111 -271.000000
5.13780022 54.77569962 8.40410042 116 116 116 -191.000000
5.17859983 54.77809906 8.39029980 131 131 131 49.000000
5.19829988 54.77819824 8.38259983 137 137 137 145.000000
5.21719980 54.78310013 8.38000011 182 182 182 865.000000
5.36390018 54.93199921 8.47500038 136 136 136 129.000000
5.04360008 54.80569839 8.43130016 109 109 109 -303.000000
5.17819977 54.77989960 8.35149956 173 173 173 721.000000
5.19750023 54.78089905 8.34480000 142 142 142 225.000000
5.21659994 54.78540039 8.34179974 176 176 176 769.000000
5.23559999 54.78919983 8.33829975 132 132 132 65.000000
5.25250006 54.79679871 8.33930016 152 152 152 385.000000
5.30219984 54.82649994 8.35029984 134 134 134 97.000000
5.06419992 54.80469894 8.38090038 131 131 131 49.000000
5.13170004 54.79190063 8.34109974 118 118 118 -159.000000
5.15189981 54.79249954 8.33370018 109 109 109 -303.000000
5.21610022 54.78730011 8.30340004 127 127 127 -15.000000
5.23390007 54.79410172 8.30329990 126 126 126 -31.000000
5.28669977 54.81669998 8.30570030 144 144 144 257.000000
5.30310011 54.82500076 8.30780029 128 128 128 1.000000
5.31489992 54.84780121 8.32629967 182 182 182 865.000000
5.33029985 54.86050034 8.33339977 125 125 125 -47.000000
4.97559977 54.86579895 8.43640041 140 140 140 193.000000
5.01100016 54.83340073 8.39000034 124 124 124 -63.000000
5.03879976 54.81819916 8.36369991 179 179 179 817.000000
5.27010012 54.80739975 8.26239967 128 128 128 1.000000
5.28709984 54.81660080 8.26519966 146 146 146 289.000000
5.30240011 54.82770157 8.27040005 152 152 152 385.000000
5.34350014 54.87900162 8.30650043 146 146 146 289.000000
5.17449999 54.79119873 8.24289989 130 130 130 33.000000
5.25110006 54.80270004 8.22480011 125 125 125 -47.000000
5.26970005 54.80929947 8.22430038 170 170 170 673.000000
5.34439993 54.87760162 8.26439953 137 137 137 145.000000
5.00260019 54.85419846 8.33240032 153 153 153 401.000000
5.15129995 54.79600143 8.21660042 117 117 117 -175.000000
5.17269993 54.79610062 8.20829964 109 109 109 -303.000000
5.23309994 54.79859924 8.18770027 157 157 157 465.000000
5.25729990 54.78789902 8.16790009 126 126 126 -31.000000
4.99970007 54.86159897 8.30029964 121 121 121 -111.000000
5.03140020 54.83760071 8.26430035 155 155 155 433.000000
5.05980015 54.81800079 8.23400021 126 126 126 -31.000000
5.28660011 54.82009888 8.14910030 133 133 133 81.000000
5.30189991 54.83110046 8.15419960 202 202 202 1185.000000
5.31769991 54.84379959 8.16079998 129 129 129 17.000000
5.34600019 54.87500000 8.18130016 115 115 115 -207.000000
5.35900021 54.89550018 8.19680023 167 167 167 625.000000
4.99209976 54.87979889 8.28059959 159 159 159 497.000000
5.02780008 54.84669876 8.23449993 174 174 174 737.000000
5.05649996 54.82649994 8.20359993 133 133 133 81.000000
5.12939978 54.80099869 8.15040016 108 108 108 -319.000000
5.21199989 54.80110168 8.11880016 168 168 168 641.000000
5.26900005 54.81340027 8.10939980 132 132 132 65.000000
5.28569984 54.82310104 8.11270046 194 194 194 1057.000000
4.98509979 54.89680099 8.25949955 133 133 133 81.000000
5.02379990 54.85670090 8.20569992 132 132 132 65.000000
5.39940023 54.95529938 8.00459957 124 124 124 -63.000000
5.24420023 54.82720184 7.86009979 135 135 135 113.000000
5.33489990 54.85779953 7.85690022 147 147 147 305.000000
5.37589979 54.91130066 7.89349985 126 126 126 -31.000000
5.38969994 54.92729950 7.90390015 147 147 147 305.000000
5.40189981 54.95019913 7.92159986 169 169 169 657.000000
5.20499992 54.82410049 7.83330011 131 131 131 49.000000
5.22580004 54.82400131 7.82579994 144 144 144 257.000000
5.24529982 54.82519913 7.81979990 157 157 157 465.000000
5.26399994 54.83179855 7.81939983 177 177 177 785.000000
5.28249979 54.83710098 7.81780005 159 159 159 497.000000
5.33330011 54.86289978 7.82420015 152 152 152 385.000000
5.22489977 54.82690048 7.79090023 141 141 141 209.000000
5.24420023 54.82870102 7.78560019 142 142 142 225.000000
5.26359987 54.83349991 7.78319979 196 196 196 1089.000000
5.28289986 54.83679962 7.77950001 130 130 130 33.000000
5.41400003 54.97460175 7.86399984 179 179 179 817.000000
5.24399996 54.82979965 7.74900007 166 166 166 609.000000
5.26350021 54.83449936 7.74639988 172 172 172 705.000000
5.28219986 54.83940125 7.74440002 152 152 152 385.000000
5.09779978 54.88779831 7.63009977 80 80 80 -767.000000
5.23990011 54.84429932 7.54099989 165 165 165 593.000000
5.09359980 54.89839935 7.60400009 112 112 112 -255.000000
5.19649982 54.85120010 7.52559996 115 115 115 -207.000000
5.21789980 54.84989929 7.51700020 124 124 124 -63.000000
5.23750019 54.85100174 7.51130009 188 188 188 961.000000
5.25969982 54.84889984 7.50169992 138 138 138 161.000000
5.27890015 54.85269928 7.49860001 193 193 193 1041.000000
5.29860020 54.85269928 7.49200010 136 136 136 129.000000
5.31809998 54.85599899 7.48839998 153 153 153 401.000000
5.36780024 54.88579941 7.49879980 184 184 184 897.000000
5.19530010 54.85490036 7.49280024 136 136 136 129.000000
5.23750019 54.85160065 7.47529984 194 194 194 1057.000000
5.25939989 54.85029984 7.46680021 139 139 139 177.000000
5.27920008 54.85250092 7.46199989 169 169 169 657.000000
5.43760014 54.97259903 7.51830006 169 169 169 657.000000
5.29729986 54.85749817 7.42430019 188 188 188 961.000000
5.31680012 54.86080170 7.42070007 147 147 147 305.000000
5.41190004 54.93209839 7.45359993 123 123 123 -79.000000
5.42430019 54.95429993 7.46960020 174 174 174 737.000000
5.43750000 54.97349930 7.48269987 124 124 124 -63.000000
5.44890022 55.00000000 7.50299978 170 170 170 673.000000
5.19369984 54.86009979 7.42549992 164 164 164 577.000000
5.21600008 54.85649872 7.41470003 136 136 136 129.000000
5.25820017 54.85469818 7.39879990 139 139 139 177.000000
5.27759981 54.85800171 7.39529991 181 181 181 849.000000
5.36859989 54.88600159 7.39020014 145 145 145 273.000000
5.42679977 54.94829941 7.42729998 125 125 125 -47.000000
5.43849993 54.97159958 7.44439983 130 130 130 33.000000
5.45779991 54.99879837 7.48010015 155 155 155 433.000000
5.46250010 55.04449844 7.51959991 95 95 95 -527.000000
5.08669996 54.91759872 7.47679996 118 118 118 -159.000000
5.11420012 54.90159988 7.45319986 101 101 101 -431.000000
5.19290018 54.86299896 7.39230013 163 163 163 561.000000
5.21519995 54.85919952 7.38140011 134 134 134 97.000000
5.23929977 54.84930038 7.36450005 108 108 108 -319.000000
5.27860022 54.85630035 7.35760021 145 145 145 273.000000
5.29740000 54.85860062 7.35340023 132 132 132 65.000000
5.33549976 54.86629868 7.34770012 140 140 140 193.000000
5.35290003 54.87310028 7.34810019 151 151 151 369.000000
5.36850023 54.88679886 7.35519981 146 146 146 289.000000
5.38409996 54.90000153 7.36180019 202 202 202 1185.000000
5.39970016 54.91090012 7.36660004 156 156 156 449.000000
5.45310020 54.98989868 7.42010021 138 138 138 161.000000
5.46500015 55.01290131 7.43690014 115 115 115 -207.000000
5.45900011 54.99649811 7.44119978 188 188 188 961.000000
5.03910017 54.98379898 7.51469994 15 15 15 -1807.000000
5.08209991 54.92940140 7.45240021 108 108 108 -319.000000
5.11229992 54.90670013 7.42220020 127 127 127 -15.000000
5.16660023 54.87620163 7.37690020 131 131 131 49.000000
5.19180012 54.86619949 7.35960007 147 147 147 305.000000
5.21570015 54.85869980 7.34499979 134 134 134 97.000000
5.23610020 54.85800171 7.33750010 128 128 128 1.000000
5.27670002 54.86159897 7.32719994 195 195 195 1073.000000
5.31549978 54.86619949 7.31850004 194 194 194 1057.000000
5.33379984 54.87160110 7.31729984 137 137 137 145.000000
5.35150003 54.87770081 7.31689978 169 169 169 657.000000
5.36910009 54.88610077 7.31869984 127 127 127 -15.000000
5.38840008 54.88909912 7.31510019 186 186 186 929.000000
5.40560007 54.89569855 7.31559992 122 122 122 -95.000000
5.41520023 54.92559814 7.33890009 158 158 158 481.000000
5.45510006 54.98519897 7.37930012 121 121 121 -111.000000
5.46449995 55.01480103 7.40269995 122 122 122 -95.000000
5.46350002 54.98509979 7.39340019 133 133 133 81.000000
5.46890020 55.02849960 7.43039989 127 127 127 -15.000000
5.07950020 54.93640137 7.42320013 151 151 151 369.000000
5.18940020 54.87300110 7.33059978 176 176 176 769.000000
5.21379995 54.86399841 7.31459999 138 138 138 161.000000
5.35179996 54.87739944 7.28100014 135 135 135 113.000000
5.36980009 54.88489914 7.28189993 133 133 133 81.000000
5.38579988 54.89670181 7.28709984 171 171 171 689.000000
5.40150023 54.90739822 7.29160023 131 131 131 49.000000
5.41559982 54.92520142 7.30289984 180 180 180 833.000000
5.42939997 54.94340134 7.31459999 134 134 134 97.000000
5.44049978 54.96820068 7.33290005 155 155 155 433.000000
5.46490002 55.01449966 7.36630011 140 140 140 193.000000
5.47230005 55.05020142 7.39569998 115 115 115 -207.000000
5.47529984 55.01150131 7.37720013 129 129 129 17.000000
5.07490015 54.94810104 7.39879990 141 141 141 209.000000
5.10860014 54.91719818 7.36059999 135 135 135 113.000000
5.16340017 54.88550186 7.31459999 161 161 161 529.000000
5.18909979 54.87440109 7.29640007 130 130 130 33.000000
5.23449993 54.86320114 7.27150011 133 133 133 81.000000
5.29829979 54.85839844 7.24639988 134 134 134 97.000000
5.37750006 54.86529922 7.22700024 102 102 102 -415.000000
5.40259981 54.90520096 7.25400019 129 129 129 17.000000
5.41730022 54.92119980 7.26340008 175 175 175 753.000000
5.43030024 54.94160080 7.27720022 161 161 161 529.000000
5.44280005 54.96260071 7.29180002 131 131 131 49.000000
5.47419977 55.01559830 7.34530020 108 108 108 -319.000000
5.16209984 54.88940048 7.28289986 112 112 112 -255.000000
5.25460005 54.86719894 7.23309994 192 192 192 1025.000000
5.27790022 54.86080170 7.21990013 140 140 140 193.000000
5.31500006 54.86949921 7.21540022 177 177 177 785.000000
5.33400011 54.87300110 7.21239996 167 167 167 625.000000
5.35139990 54.87990189 7.21280003 133 133 133 81.000000
5.36929989 54.88759995 7.21379995 172 172 172 705.000000
5.38649988 54.89630127 7.21600008 140 140 140 193.000000
5.40199995 54.90739822 7.22079992 186 186 186 929.000000
5.41870022 54.91830063 7.22520018 137 137 137 145.000000
5.46880007 55.00529861 7.28590012 161 161 161 529.000000
5.24119997 54.84790039 7.18569994 134 134 134 97.000000
5.29530001 54.86740112 7.18489981 146 146 146 289.000000
5.31540012 54.86909866 7.17990017 187 187 187 945.000000
5.33470011 54.87179947 7.17609978 137 137 137 145.000000
5.35220003 54.87850189 7.17630005 127 127 127 -15.000000
5.36990023 54.88660049 7.17770004 178 178 178 801.000000
5.42229986 54.90919876 7.18109989 113 113 113 -239.000000
5.47039986 55.00149918 7.24669981 116 116 116 -191.000000
5.48040009 55.02989960 7.26840019 113 113 113 -239.000000
5.09919977 54.94169998 7.27790022 134 134 134 97.000000
5.25379992 54.87060165 7.16610003 130 130 130 33.000000
5.27489996 54.86949921 7.15840006 192 192 192 1025.000000
5.29449987 54.87009811 7.15259981 138 138 138 161.000000
5.31510019 54.87060165 7.14639997 133 133 133 81.000000
5.40409994 54.90330124 7.14669991 121 121 121 -111.000000
5.41429996 54.93149948 7.16790009 134 134 134 97.000000
5.43370008 54.93460083 7.16459990 118 118 118 -159.000000
5.44890022 54.94810104 7.17170000 116 116 116 -191.000000
5.46010017 54.97499847 7.19159985 160 160 160 513.000000
5.47230005 54.99700165 7.20699978 114 114 114 -223.000000
5.47930002 55.00400162 7.22679996 128 128 128 1.000000
5.18300009 54.89179993 7.17240000 144 144 144 257.000000
5.20919991 54.87870026 7.15259981 140 140 140 193.000000
5.42059994 54.91519928 7.11709976 197 197 197 1105.000000
5.45109987 54.94290161 7.13170004 117 117 117 -175.000000
5.46299982 54.96760178 7.14940023 142 142 142 225.000000
5.46939993 54.97430038 7.16890001 117 117 117 -175.000000
5.48140001 54.99929810 7.18690014 126 126 126 -31.000000
5.49020004 55.03319931 7.21360016 132 132 132 65.000000
5.31529999 54.87129974 7.07770014 140 140 140 193.000000
5.33430004 54.87490082 7.07469988 131 131 131 49.000000
5.40570021 54.90050125 7.07450008 127 127 127 -15.000000
5.43839979 54.92319870 7.08400011 129 129 129 17.000000
5.31050014 54.88449860 7.05590010 139 139 139 177.000000
5.37209988 54.88349915 7.03590012 189 189 189 977.000000
5.40730000 54.89759827 7.00290012 180 180 180 833.000000
5.43949986 54.92169952 7.01370001 184 184 184 897.000000
5.45020008 54.94739914 7.03219986 144 144 144 257.000000
5.35340023 54.87939835 6.96980000 132 132 132 65.000000
5.37239981 54.88420105 6.96810007 181 181 181 849.000000
5.25019979 54.88349915 6.97130013 110 110 110 -287.000000
5.27309990 54.87829971 6.95979977 130 130 130 33.000000
5.29250002 54.87919998 6.95450020 160 160 160 513.000000
5.31330013 54.87910080 6.94799995 136 136 136 129.000000
5.35370016 54.87919998 6.93559980 141 141 141 209.000000
5.37330008 54.88249969 6.93240023 182 182 182 865.000000
5.43039989 54.89229965 6.92360020 135 135 135 113.000000
5.22529984 54.89270020 6.95279980 123 123 123 -79.000000
5.24980021 54.88520050 6.93879986 167 167 167 625.000000
5.27269983 54.88000107 6.92740011 126 126 126 -31.000000
5.31339979 54.87979889 6.91459990 134 134 134 97.000000
5.35459995 54.87760162 6.90030003 131 131 131 49.000000
5.37270021 54.88470078 6.90059996 135 135 135 113.000000
5.41200018 54.88700104 6.89080000 146 146 146 289.000000
5.42980003 54.89450073 6.89179993 135 135 135 113.000000
5.19929981 54.90790176 6.93940020 139 139 139 177.000000
5.22370005 54.89739990 6.92320013 113 113 113 -239.000000
5.24849987 54.88909912 6.90859985 151 151 151 369.000000
5.29250002 54.88040161 6.88780022 182 182 182 865.000000
5.31400013 54.87889862 6.88000011 171 171 171 689.000000
5.33389997 54.87990189 6.87480021 123 123 123 -79.000000
5.51319981 54.94469833 6.87589979 155 155 155 433.000000
5.50260019 55.03319931 6.95270014 98 98 98 -479.000000
5.51929998 55.04339981 6.95639992 121 121 121 -111.000000
5.10370016 54.98970032 7.00260019 131 131 131 49.000000
5.14039993 54.94940186 6.95809984 184 184 184 897.000000
5.17159986 54.92520142 6.92840004 150 150 150 353.000000
5.19789982 54.91210175 6.90950012 113 113 113 -239.000000
5.22380018 54.89770126 6.88959980 174 174 174 737.000000
5.24770021 54.89179993 6.87739992 116 116 116 -191.000000
5.27220011 54.88249969 6.86210012 128 128 128 1.000000
5.29169989 54.88309860 6.85659981 167 167 167 625.000000
5.30779982 54.89550018 6.86189985 115 115 115 -207.000000
5.33379984 54.88100052 6.84219980 119 119 119 -143.000000
5.09499979 55.01150131 6.98890018 81 81 81 -751.000000
5.13819981 54.95560074 6.92990017 131 131 131 49.000000
5.17000008 54.92969894 6.89879990 131 131 131 49.000000
5.19630003 54.91650009 6.87979984 129 129 129 17.000000
5.22200012 54.90290070 6.86079979 140 140 140 193.000000
5.24620008 54.89609909 6.84770012 113 113 113 -239.000000
5.27040005 54.88779831 6.83349991 130 130 130 33.000000
5.31320000 54.88209915 6.81580019 120 120 120 -127.000000
5.46509981 54.96829987 6.84189987 75 75 75 -847.000000
5.49240017 54.94829941 6.81769991 150 150 150 353.000000
5.52969980 55.01520157 6.86250019 130 130 130 33.000000
5.50269985 54.94770050 6.82810020 157 157 157 465.000000
5.24529982 54.89899826 6.81689978 111 111 111 -271.000000
5.26779985 54.89490128 6.80670023 116 116 116 -191.000000
5.33389997 54.88190079 6.77619982 154 154 154 417.000000
5.50309992 54.97499847 6.80329990 168 168 168 641.000000
5.50040007 54.95510101 6.80140018 141 141 141 209.000000
5.51429987 55.03079987 6.85979986 134 134 134 97.000000
5.19469976 54.92179871 6.81750011 116 116 116 -191.000000
5.50220013 54.97819901 6.77299976 143 143 143 241.000000
5.51569986 54.99909973 6.78630018 129 129 129 17.000000
5.47809982 54.93439865 6.71099997 144 144 144 257.000000
5.53900003 55.04790115 6.78649998 107 107 107 -335.000000
5.51119995 54.98479843 6.75600004 157 157 157 465.000000
5.52409983 55.00469971 6.76870012 141 141 141 209.000000
5.53719997 55.02759933 6.78380013 133 133 133 81.000000
5.46210003 54.92179871 6.67240000 145 145 145 273.000000
5.47879982 54.93320084 6.67689991 109 109 109 -303.000000
5.51510000 55.00210190 6.72259998 130 130 130 33.000000
5.53719997 55.11429977 6.80760002 133 133 133 81.000000
5.48750019 54.93550110 6.68949986 128 128 128 1.000000
5.54799986 55.05670166 6.77120018 126 126 126 -31.000000
5.24130011 54.91170120 6.69570017 130 130 130 33.000000
5.26599979 54.90190125 6.68050003 116 116 116 -191.000000
5.28819990 54.89590073 6.66909981 162 162 162 545.000000
5.31139994 54.88999939 6.65759993 130 130 130 33.000000
5.35150003 54.89080048 6.64650011 136 136 136 129.000000
5.37440014 54.88539886 6.63560009 139 139 139 177.000000
5.44869995 54.90420151 6.62939978 137 137 137 145.000000
5.46670008 54.90990067 6.62890005 122 122 122 -95.000000
5.49329996 54.94910049 6.65299988 129 129 129 17.000000
5.50139999 54.98229980 6.67749977 155 155 155 433.000000
5.51420021 55.00519943 6.69239998 131 131 131 49.000000
5.52799988 55.02360153 6.70349979 189 189 189 977.000000
5.54110003 55.04330063 6.71589994 132 132 132 65.000000
5.55109978 55.07500076 6.73880005 153 153 153 401.000000
5.48699999 54.93759918 6.65840006 128 128 128 1.000000
5.52279997 55.01020050 6.70720005 145 145 145 273.000000
5.21490002 54.92459869 6.68100023 103 103 103 -399.000000
5.24020004 54.91500092 6.66590023 117 117 117 -175.000000
5.26609993 54.90240097 6.64820004 134 134 134 97.000000
5.28739977 54.89870071 6.63889980 172 172 172 705.000000
5.30980015 54.89479828 6.62919998 133 133 133 81.000000
5.35220003 54.88980103 6.61289978 147 147 147 305.000000
5.36889982 54.90050125 6.61660004 131 131 131 49.000000
5.50309992 54.97840118 6.64120007 144 144 144 257.000000
5.51380014 55.00709915 6.66120005 131 131 131 49.000000
5.52750015 55.02550125 6.67229986 183 183 183 881.000000
5.54129982 55.04349899 6.68310022 124 124 124 -63.000000
5.55299997 55.07020187 6.70139980 128 128 128 1.000000
5.51090002 54.98820114 6.65969992 146 146 146 289.000000
5.52260017 55.01139832 6.67519999 144 144 144 257.000000
5.53739977 55.02949905 6.68569994 150 150 150 353.000000
5.55109978 55.04959869 6.69829988 140 140 140 193.000000
5.15409994 54.97330093 6.70480013 115 115 115 -207.000000
5.21339989 54.92890167 6.65210009 111 111 111 -271.000000
5.24060011 54.91479874 6.63290024 127 127 127 -15.000000
5.26609993 54.90290070 6.61590004 137 137 137 145.000000
5.28700018 54.90029907 6.60780001 130 130 130 33.000000
5.35120010 54.89289856 6.58319998 150 150 150 353.000000
5.46269989 54.92200089 6.57469988 176 176 176 769.000000
5.47830009 54.93650055 6.58199978 149 149 149 337.000000
5.49919987 54.93410110 6.57429981 115 115 115 -207.000000
5.52769995 55.02579880 6.63980007 196 196 196 1089.000000
5.54150009 55.04349899 6.65019989 146 146 146 289.000000
