-5.60050011 -1.79639995 -0.31479999 255 255 255 1505.000000
-5.60239983 -1.80910003 -0.31459999 255 255 255 1473.000000
-5.59670019 -1.82229996 -0.31500000 255 255 255 1537.000000
-5.59639978 -1.83490002 -0.31490001 255 255 255 1697.000000
-5.58400011 -1.84860003 -0.31580001 255 255 255 1937.000000
-5.57830000 -1.86220002 -0.31610000 255 255 255 1521.000000
-5.56230021 -1.87559998 -0.31720001 255 255 255 1185.000000
-5.52829981 -1.89069998 -0.31959999 255 255 255 1345.000000
-5.49970007 -1.90620005 -0.32159999 255 255 255 913.000000
-5.41149998 -1.59650004 -0.34259999 255 255 255 801.000000
-5.49289989 -1.60790002 -0.33660001 255 255 255 1761.000000
-5.51350021 -1.62080002 -0.33500001 255 255 255 1649.000000
-5.53579998 -1.63310003 -0.33320001 255 255 255 1361.000000
-5.55700016 -1.64549994 -0.33160001 255 255 255 1281.000000
-5.56669998 -1.65820003 -0.33080000 255 255 255 1697.000000
-5.58199978 -1.67050004 -0.32960001 255 255 255 1425.000000
-5.58650017 -1.68299997 -0.32920000 255 255 255 1681.000000
-5.59149981 -1.69570005 -0.32879999 255 255 255 1473.000000
-5.59619999 -1.70869994 -0.32839999 255 255 255 1649.000000
-5.59899998 -1.72090006 -0.32810000 255 255 255 1489.000000
-5.60169983 -1.73360002 -0.32780001 255 255 255 1617.000000
-5.60330009 -1.74609995 -0.32769999 255 255 255 1617.000000
-5.60440016 -1.75849998 -0.32749999 255 255 255 1697.000000
-5.60410023 -1.77129996 -0.32749999 255 255 255 1601.000000
-5.60080004 -1.78410006 -0.32769999 255 255 255 1729.000000
-5.60120010 -1.79649997 -0.32760000 255 255 255 1425.000000
-5.60190010 -1.80920005 -0.32749999 255 255 255 1713.000000
-5.59579992 -1.82249999 -0.32789999 255 255 255 1857.000000
-5.59849977 -1.83490002 -0.32769999 255 255 255 1681.000000
-5.58650017 -1.84860003 -0.32850000 255 255 255 1857.000000
-5.57760000 -1.86240005 -0.32910001 255 255 255 1553.000000
-5.56239986 -1.87570000 -0.33019999 255 255 255 1393.000000
-5.53259993 -1.89049995 -0.33230001 255 255 255 1121.000000
-5.50439978 -1.90600002 -0.33430001 255 255 255 801.000000
-5.41239977 -1.59660006 -0.35589999 255 255 255 737.000000
-5.49200010 -1.60810006 -0.34970000 255 255 255 1601.000000
-5.51170015 -1.62090003 -0.34819999 255 255 255 1617.000000
-5.53690004 -1.63320005 -0.34619999 255 255 255 1457.000000
-5.55810022 -1.64549994 -0.34450001 255 255 255 1105.000000
-5.56729984 -1.65830004 -0.34369999 255 255 255 1601.000000
-5.57779980 -1.67069995 -0.34279999 255 255 255 1793.000000
-5.58780003 -1.68299997 -0.34200001 255 255 255 1345.000000
-5.59180021 -1.69579995 -0.34160000 255 255 255 1457.000000
-5.59679985 -1.70879996 -0.34119999 255 255 255 1905.000000
-5.59910011 -1.72099996 -0.34099999 255 255 255 1665.000000
-5.60069990 -1.73380005 -0.34079999 255 255 255 1745.000000
-5.60370016 -1.74619997 -0.34050000 255 255 255 1569.000000
-5.60419989 -1.75860000 -0.34040001 255 255 255 1649.000000
-5.60559988 -1.77139997 -0.34020001 255 255 255 1297.000000
-5.60039997 -1.78429997 -0.34060001 255 255 255 1537.000000
-5.60270023 -1.79649997 -0.34040001 255 255 255 1521.000000
-5.60239983 -1.80929995 -0.34029999 255 255 255 1553.000000
-5.59530020 -1.82260001 -0.34079999 255 255 255 2033.000000
-5.59840012 -1.83500004 -0.34050000 255 255 255 1473.000000
-5.58690023 -1.84870005 -0.34140000 255 255 255 1649.000000
-5.57770014 -1.86249995 -0.34200001 255 255 255 1537.000000
-5.56349993 -1.87580001 -0.34299999 255 255 255 1457.000000
-5.53609991 -1.89040005 -0.34509999 255 255 255 849.000000
-5.50930023 -1.90579998 -0.34709999 255 255 255 1025.000000
-5.41580009 -1.59660006 -0.36890000 255 255 255 881.000000
-5.49109983 -1.60819995 -0.36289999 255 255 255 1697.000000
-5.51240015 -1.62100005 -0.36120000 255 255 255 1473.000000
-5.53730011 -1.63329995 -0.35910001 255 255 255 1073.000000
-5.55639982 -1.64569998 -0.35760000 255 255 255 1121.000000
-5.56750011 -1.65840006 -0.35659999 255 255 255 1937.000000
-5.57579994 -1.67089999 -0.35589999 255 255 255 1665.000000
-5.58809996 -1.68309999 -0.35490000 255 255 255 1569.000000
-5.59159994 -1.69599998 -0.35450000 255 255 255 1361.000000
-5.59619999 -1.70889997 -0.35409999 255 255 255 1681.000000
-5.59969997 -1.72109997 -0.35380000 255 255 255 1793.000000
-5.60010004 -1.73389995 -0.35370001 255 255 255 1729.000000
-5.60430002 -1.74629998 -0.35330001 255 255 255 1713.000000
-5.60580015 -1.75860000 -0.35310000 255 255 255 1729.000000
-5.60599995 -1.77149999 -0.35310000 255 255 255 1217.000000
-5.60120010 -1.78439999 -0.35339999 255 255 255 1665.000000
-5.60169983 -1.79670000 -0.35330001 255 255 255 1473.000000
-5.60200024 -1.80939996 -0.35319999 255 255 255 1537.000000
-5.59740019 -1.82260001 -0.35350001 255 255 255 1825.000000
-5.59980011 -1.83510005 -0.35330001 255 255 255 1713.000000
-5.58699989 -1.84879994 -0.35429999 255 255 255 1729.000000
-5.57630014 -1.86269999 -0.35510001 255 255 255 2033.000000
-5.56500006 -1.87580001 -0.35589999 255 255 255 1649.000000
-5.53859997 -1.89030004 -0.35789999 255 255 255 993.000000
-5.50530005 -1.90620005 -0.36050001 255 255 255 1105.000000
-5.41809988 -1.59669995 -0.38200000 255 255 255 849.000000
-5.49350023 -1.60819995 -0.37590000 255 255 255 1393.000000
-5.51249981 -1.62109995 -0.37419999 255 255 255 1537.000000
-5.53779984 -1.63339996 -0.37210000 255 255 255 1057.000000
-5.55679989 -1.64579999 -0.37050000 255 255 255 1201.000000
-5.56580019 -1.65849996 -0.36970001 255 255 255 2033.000000
-5.57679987 -1.67100000 -0.36870000 255 255 255 1585.000000
-5.58739996 -1.68330002 -0.36780000 255 255 255 1473.000000
-5.59329987 -1.69599998 -0.36730000 255 255 255 1345.000000
-5.59810019 -1.70889997 -0.36680001 255 255 255 1521.000000
-5.60029984 -1.72119999 -0.36660001 255 255 255 1665.000000
-5.60379982 -1.73389995 -0.36629999 255 255 255 1441.000000
-5.60379982 -1.74640000 -0.36620000 255 255 255 1665.000000
-5.60510015 -1.75880003 -0.36600000 255 255 255 1697.000000
-5.60419989 -1.77170002 -0.36610001 255 255 255 1409.000000
-5.60160017 -1.78439999 -0.36620000 255 255 255 1553.000000
-5.60319996 -1.79670000 -0.36600000 255 255 255 1377.000000
-5.60230017 -1.80949998 -0.36610001 255 255 255 1569.000000
-5.59870005 -1.82270002 -0.36629999 255 255 255 1777.000000
-5.59899998 -1.83519995 -0.36620000 255 255 255 1713.000000
-5.58699989 -1.84889996 -0.36719999 255 255 255 1825.000000
-5.57969999 -1.86259997 -0.36770001 255 255 255 1713.000000
-5.56689978 -1.87580001 -0.36870000 255 255 255 1665.000000
-5.54290009 -1.89020002 -0.37059999 255 255 255 993.000000
-5.50680017 -1.90620005 -0.37349999 255 255 255 1025.000000
-5.42019987 -1.59679997 -0.39520001 255 255 255 849.000000
-5.49469995 -1.60829997 -0.38890001 255 255 255 1105.000000
-5.51219988 -1.62119997 -0.38730001 255 255 255 1601.000000
-5.53879976 -1.63349998 -0.38499999 255 255 255 1041.000000
-5.55579996 -1.64590001 -0.38360000 255 255 255 1361.000000
-5.56619978 -1.65859997 -0.38260001 255 255 255 2033.000000
-5.57789993 -1.67110002 -0.38159999 255 255 255 1553.000000
-5.58920002 -1.68330002 -0.38060001 255 255 255 1473.000000
-5.59399986 -1.69610000 -0.38010001 255 255 255 1425.000000
-5.59849977 -1.70899999 -0.37970001 255 255 255 1569.000000
-5.60169983 -1.72119999 -0.37930000 255 255 255 1553.000000
-5.60260010 -1.73399997 -0.37920001 255 255 255 1025.000000
-5.60459995 -1.74650002 -0.37900001 255 255 255 1713.000000
-5.60760021 -1.75880003 -0.37869999 255 255 255 1505.000000
-5.60580015 -1.77170002 -0.37880000 255 255 255 1249.000000
-5.60080004 -1.78460002 -0.37920001 255 255 255 1697.000000
-5.60360003 -1.79680002 -0.37889999 255 255 255 1329.000000
-5.60349989 -1.80960000 -0.37880000 255 255 255 1473.000000
-5.59980011 -1.82270002 -0.37909999 255 255 255 1505.000000
-5.59980011 -1.83529997 -0.37909999 255 255 255 1521.000000
-5.58760023 -1.84899998 -0.38000000 255 255 255 1697.000000
-5.58139992 -1.86259997 -0.38049999 255 255 255 1649.000000
-5.56759977 -1.87590003 -0.38159999 255 255 255 1777.000000
-5.54729986 -1.88999999 -0.38330001 255 255 255 865.000000
-5.50909996 -1.90620005 -0.38640001 255 255 255 1025.000000
-5.42030001 -1.59689999 -0.40849999 255 255 255 817.000000
-5.49289989 -1.60850000 -0.40220001 255 255 255 1121.000000
-5.51329994 -1.62129998 -0.40030000 255 255 255 1585.000000
-5.53779984 -1.63360000 -0.39820001 255 255 255 1121.000000
-5.55630016 -1.64600003 -0.39649999 255 255 255 1265.000000
-5.56829977 -1.65869999 -0.39539999 255 255 255 1985.000000
-5.57730007 -1.67120004 -0.39460000 255 255 255 1521.000000
-5.59130001 -1.68330002 -0.39330000 255 255 255 1345.000000
-5.59369993 -1.69620001 -0.39300001 255 255 255 1217.000000
-5.59779978 -1.70920002 -0.39260000 255 255 255 1569.000000
-5.60139990 -1.72130001 -0.39219999 255 255 255 1633.000000
-5.60120010 -1.73420000 -0.39219999 255 255 255 1137.000000
-5.60559988 -1.74650002 -0.39179999 255 255 255 1697.000000
-5.60769987 -1.75890005 -0.39150000 255 255 255 1505.000000
-5.60820007 -1.77170002 -0.39140001 255 255 255 1217.000000
-5.60449982 -1.78450000 -0.39170000 255 255 255 1633.000000
-5.60319996 -1.79700005 -0.39179999 255 255 255 1393.000000
-5.60410023 -1.80970001 -0.39170000 255 255 255 1585.000000
-5.59959984 -1.82290006 -0.39199999 255 255 255 1377.000000
-5.60020018 -1.83539999 -0.39190000 255 255 255 1681.000000
-5.58930016 -1.84899998 -0.39280000 255 255 255 1681.000000
-5.58190012 -1.86269999 -0.39340001 255 255 255 1697.000000
-5.56879997 -1.87590003 -0.39449999 255 255 255 1585.000000
-5.54879999 -1.88999999 -0.39620000 255 255 255 849.000000
-5.51200008 -1.90610003 -0.39930001 255 255 255 737.000000
-5.42439985 -1.59689999 -0.42150000 255 255 255 673.000000
-5.49490023 -1.60850000 -0.41510001 255 255 255 1153.000000
-5.51399994 -1.62140000 -0.41339999 255 255 255 1601.000000
-5.53579998 -1.63370001 -0.41139999 255 255 255 1329.000000
-5.55740023 -1.64610004 -0.40939999 255 255 255 1329.000000
-5.56860018 -1.65880001 -0.40830001 255 255 255 1473.000000
-5.57819986 -1.67130005 -0.40740001 255 255 255 1441.000000
-5.59060001 -1.68350005 -0.40630001 255 255 255 1409.000000
-5.59590006 -1.69620001 -0.40570000 255 255 255 1297.000000
-5.59849977 -1.70920002 -0.40540001 255 255 255 1473.000000
-5.60109997 -1.72150004 -0.40509999 255 255 255 1553.000000
-5.60050011 -1.73430002 -0.40509999 255 255 255 1505.000000
-5.60559988 -1.74670005 -0.40459999 255 255 255 1729.000000
-5.60790014 -1.75899994 -0.40439999 255 255 255 1185.000000
-5.60820007 -1.77180004 -0.40430000 255 255 255 1201.000000
-5.60260010 -1.78470004 -0.40480000 255 255 255 1489.000000
-5.60580015 -1.79690003 -0.40439999 255 255 255 1281.000000
-5.60470009 -1.80970001 -0.40450001 255 255 255 1537.000000
-5.60129976 -1.82290006 -0.40480000 255 255 255 1505.000000
-5.60090017 -1.83550000 -0.40470001 255 255 255 1601.000000
-5.58930016 -1.84909999 -0.40570000 255 255 255 1729.000000
-5.58409977 -1.86269999 -0.40619999 255 255 255 1633.000000
-5.56860018 -1.87600005 -0.40750000 255 255 255 1089.000000
-5.55229998 -1.88989997 -0.40889999 255 255 255 721.000000
-5.51669979 -1.90590000 -0.41200000 255 255 255 993.000000
-5.42850018 -1.59700000 -0.43439999 255 255 255 929.000000
-5.49380016 -1.60860002 -0.42840001 255 255 255 1041.000000
-5.51329994 -1.62150002 -0.42649999 255 255 255 1569.000000
-5.53579998 -1.63380003 -0.42440000 255 255 255 1441.000000
-5.55819988 -1.64619994 -0.42230001 255 255 255 1137.000000
-5.57200003 -1.65880001 -0.42100000 255 255 255 1025.000000
-5.57880020 -1.67139995 -0.42030001 255 255 255 1233.000000
-5.58949995 -1.68359995 -0.41929999 255 255 255 1009.000000
-5.59490013 -1.69640005 -0.41870001 255 255 255 1217.000000
-5.59989977 -1.70930004 -0.41819999 255 255 255 1633.000000
-5.60349989 -1.72150004 -0.41780001 255 255 255 1553.000000
-5.60220003 -1.73440003 -0.41790000 255 255 255 1745.000000
-5.60620022 -1.74670005 -0.41749999 255 255 255 1841.000000
-5.60710001 -1.75909996 -0.41729999 255 255 255 1345.000000
-5.60760021 -1.77199996 -0.41720000 255 255 255 1329.000000
-5.60440016 -1.78480005 -0.41749999 255 255 255 1329.000000
-5.60659981 -1.79700005 -0.41729999 255 255 255 1473.000000
-5.60319996 -1.80990005 -0.41749999 255 255 255 1649.000000
-5.60150003 -1.82299995 -0.41760001 255 255 255 1345.000000
-5.59950018 -1.83570004 -0.41780001 255 255 255 1393.000000
-5.59149981 -1.84909999 -0.41850001 255 255 255 1601.000000
-5.58519983 -1.86280000 -0.41900000 255 255 255 1681.000000
-5.57060003 -1.87600005 -0.42030001 255 255 255 1217.000000
-5.56440020 -1.88919997 -0.42080000 255 255 255 1041.000000
-5.51900005 -1.90579998 -0.42490000 255 255 255 993.000000
-5.42799997 -1.59710002 -0.44769999 255 255 255 865.000000
-5.49529982 -1.60870004 -0.44139999 255 255 255 1041.000000
-5.51350021 -1.62160003 -0.43959999 255 255 255 1521.000000
-5.53690004 -1.63390005 -0.43730000 255 255 255 1425.000000
-5.55810022 -1.64629996 -0.43529999 255 255 255 1217.000000
-5.57350016 -1.65890002 -0.43380001 255 255 255 1057.000000
-5.58039999 -1.67139995 -0.43309999 255 255 255 1425.000000
-5.58669996 -1.68379998 -0.43239999 255 255 255 1569.000000
-5.59520006 -1.69649994 -0.43160000 255 255 255 1473.000000
-5.60080004 -1.70940006 -0.43099999 255 255 255 1169.000000
-5.60400009 -1.72160006 -0.43059999 255 255 255 1393.000000
-5.60720015 -1.73430002 -0.43030000 255 255 255 1537.000000
-5.60640001 -1.74679995 -0.43030000 255 255 255 1809.000000
-5.61040020 -1.75909996 -0.42989999 255 255 255 1649.000000
-5.60410023 -1.77219999 -0.43040001 255 255 255 2033.000000
-5.60890007 -1.78470004 -0.43000001 255 255 255 1329.000000
-5.60629988 -1.79709995 -0.43020001 255 255 255 1361.000000
-5.60430002 -1.80999994 -0.43030000 255 255 255 1473.000000
-5.60190010 -1.82309997 -0.43050000 255 255 255 1505.000000
-5.59989977 -1.83580005 -0.43059999 255 255 255 1329.000000
-5.59229994 -1.84920001 -0.43130001 255 255 255 1521.000000
-5.58319998 -1.86300004 -0.43210000 255 255 255 1713.000000
-5.57390022 -1.87590003 -0.43300000 255 255 255 1169.000000
-5.56939983 -1.88890004 -0.43340001 255 255 255 1217.000000
-5.52309990 -1.90569997 -0.43770000 255 255 255 1041.000000
-5.49189997 -1.92050004 -0.44060001 255 255 255 705.000000
-5.43109989 -1.59720004 -0.46079999 255 255 255 1041.000000
-5.49660015 -1.60880005 -0.45440000 255 255 255 1105.000000
-5.51370001 -1.62170005 -0.45269999 255 255 255 1505.000000
-5.53809977 -1.63399994 -0.45030001 255 255 255 1377.000000
-5.56010008 -1.64629996 -0.44810000 255 255 255 1169.000000
-5.57320023 -1.65900004 -0.44679999 255 255 255 1345.000000
-5.57959986 -1.67149997 -0.44610000 255 255 255 1473.000000
-5.58909988 -1.68379998 -0.44510001 255 255 255 1201.000000
-5.59749985 -1.69649994 -0.44430000 255 255 255 1345.000000
-5.60039997 -1.70949996 -0.44389999 255 255 255 1089.000000
-5.60449982 -1.72169995 -0.44350001 255 255 255 1201.000000
-5.60650015 -1.73440003 -0.44319999 255 255 255 1697.000000
-5.60720015 -1.74689996 -0.44310001 255 255 255 1697.000000
-5.60850000 -1.75929999 -0.44299999 255 255 255 1617.000000
-5.60599995 -1.77230000 -0.44319999 255 255 255 1953.000000
-5.60820007 -1.78480005 -0.44290000 255 255 255 1297.000000
-5.60890007 -1.79709995 -0.44279999 255 255 255 1489.000000
-5.60550022 -1.80999994 -0.44310001 255 255 255 1345.000000
-5.60109997 -1.82319999 -0.44350001 255 255 255 1473.000000
-5.60200024 -1.83580005 -0.44340000 255 255 255 1457.000000
-5.59170008 -1.84930003 -0.44430000 255 255 255 1713.000000
-5.58510017 -1.86300004 -0.44490001 255 255 255 1841.000000
-5.57709980 -1.87580001 -0.44569999 255 255 255 1185.000000
-5.57180023 -1.88890004 -0.44610000 255 255 255 1393.000000
-5.52640009 -1.90559995 -0.45050001 255 255 255 769.000000
-5.49249983 -1.92060006 -0.45370001 255 255 255 801.000000
-5.43319988 -1.59720004 -0.47389999 255 255 255 881.000000
-5.49840021 -1.60889995 -0.46740001 255 255 255 1153.000000
-5.51469994 -1.62179995 -0.46570000 255 255 255 1617.000000
-5.53889990 -1.63409996 -0.46329999 255 255 255 1393.000000
-5.56129980 -1.64639997 -0.46100000 255 255 255 1249.000000
-5.57410002 -1.65900004 -0.45969999 255 255 255 1153.000000
-5.57919979 -1.67170000 -0.45910001 255 255 255 1505.000000
-5.59159994 -1.68390000 -0.45780000 255 255 255 1521.000000
-5.59800005 -1.69659996 -0.45710000 255 255 255 1505.000000
-5.60249996 -1.70949996 -0.45660001 255 255 255 1361.000000
-5.60459995 -1.72179997 -0.45640001 255 255 255 1633.000000
-5.60780001 -1.73450005 -0.45600000 255 255 255 1441.000000
-5.60809994 -1.74699998 -0.45590001 255 255 255 1729.000000
-5.60920000 -1.75940001 -0.45580000 255 255 255 1713.000000
-5.60890007 -1.77219999 -0.45580000 255 255 255 1601.000000
-5.60850000 -1.78489995 -0.45580000 255 255 255 1297.000000
-5.60900021 -1.79719996 -0.45570001 255 255 255 1441.000000
-5.60470009 -1.81019998 -0.45609999 255 255 255 1809.000000
-5.60260010 -1.82330000 -0.45620000 255 255 255 1185.000000
-5.60340023 -1.83580005 -0.45609999 255 255 255 1601.000000
-5.59469986 -1.84930003 -0.45699999 255 255 255 1505.000000
-5.58529997 -1.86310005 -0.45789999 255 255 255 1521.000000
-5.57880020 -1.87580001 -0.45850000 255 255 255 1569.000000
-5.57149982 -1.88900006 -0.45919999 255 255 255 1457.000000
-5.53140020 -1.90530002 -0.46309999 255 255 255 929.000000
-5.49830008 -1.92030001 -0.46630001 255 255 255 865.000000
-5.43569994 -1.59730005 -0.48690000 255 255 255 785.000000
-5.49809980 -1.60899997 -0.48060000 255 255 255 1201.000000
-5.51809978 -1.62179995 -0.47850001 255 255 255 1329.000000
-5.54199982 -1.63409996 -0.47600001 255 255 255 1089.000000
-5.56129980 -1.64649999 -0.47400001 255 255 255 1393.000000
-5.57670021 -1.65910006 -0.47240001 255 255 255 1073.000000
-5.58160019 -1.67170000 -0.47180000 255 255 255 1041.000000
-5.59040022 -1.68400002 -0.47090000 255 255 255 1409.000000
-5.59779978 -1.69669998 -0.47009999 255 255 255 1361.000000
-5.60129976 -1.70969999 -0.46970001 255 255 255 1249.000000
-5.60650015 -1.72179997 -0.46910000 255 255 255 1265.000000
-5.60790014 -1.73459995 -0.46890000 255 255 255 1553.000000
-5.60909986 -1.74710000 -0.46869999 255 255 255 1553.000000
-5.61059999 -1.75940001 -0.46849999 255 255 255 1585.000000
-5.61009979 -1.77230000 -0.46849999 255 255 255 1265.000000
-5.60659981 -1.78509998 -0.46890000 255 255 255 1297.000000
-5.60820007 -1.79740000 -0.46869999 255 255 255 1425.000000
-5.60519981 -1.81029999 -0.46890000 255 255 255 1633.000000
-5.60540009 -1.82319999 -0.46890000 255 255 255 1377.000000
-5.60389996 -1.83589995 -0.46900001 255 255 255 1393.000000
-5.59579992 -1.84930003 -0.46980000 255 255 255 1489.000000
-5.58680010 -1.86310005 -0.47070000 255 255 255 1441.000000
-5.57849979 -1.87600005 -0.47150001 255 255 255 1617.000000
-5.57009983 -1.88929999 -0.47229999 255 255 255 1553.000000
-5.53800011 -1.90499997 -0.47549999 255 255 255 849.000000
-5.50710011 -1.91980004 -0.47860000 255 255 255 913.000000
-5.44369984 -1.59730005 -0.49939999 255 255 255 769.000000
-5.49959993 -1.60909998 -0.49360001 255 255 255 1249.000000
-5.51879978 -1.62189996 -0.49149999 255 255 255 1505.000000
-5.54390001 -1.63419998 -0.48890001 255 255 255 1201.000000
-5.56549978 -1.64649999 -0.48660001 255 255 255 993.000000
-5.57550001 -1.65919995 -0.48550001 255 255 255 1281.000000
-5.58290005 -1.67180002 -0.48460001 255 255 255 1249.000000
-5.59079981 -1.68410003 -0.48379999 255 255 255 1825.000000
-5.60160017 -1.69669998 -0.48260000 255 255 255 1105.000000
-5.60529995 -1.70969999 -0.48220000 255 255 255 1137.000000
-5.60659981 -1.72189999 -0.48199999 255 255 255 1265.000000
-5.60949993 -1.73459995 -0.48159999 255 255 255 1217.000000
-5.60900021 -1.74720001 -0.48159999 255 255 255 1697.000000
-5.61159992 -1.75950003 -0.48130000 255 255 255 1441.000000
-5.61250019 -1.77230000 -0.48120001 255 255 255 1169.000000
-5.60780001 -1.78520000 -0.48159999 255 255 255 1201.000000
-5.61129999 -1.79729998 -0.48120001 255 255 255 1457.000000
-5.60540009 -1.81040001 -0.48179999 255 255 255 1521.000000
-5.60279989 -1.82350004 -0.48210001 255 255 255 2001.000000
-5.60480022 -1.83589995 -0.48179999 255 255 255 1473.000000
-5.59749985 -1.84930003 -0.48260000 255 255 255 1441.000000
-5.58879995 -1.86310005 -0.48339999 255 255 255 1329.000000
-5.57800007 -1.87609994 -0.48449999 255 255 255 1745.000000
-5.57189989 -1.88929999 -0.48510000 255 255 255 1633.000000
-5.54080009 -1.90489995 -0.48830000 255 255 255 977.000000
-5.50850010 -1.91980004 -0.49169999 255 255 255 897.000000
-5.44969988 -1.59730005 -0.51209998 255 255 255 753.000000
-5.49809980 -1.60920000 -0.50690001 255 255 255 1361.000000
-5.52349997 -1.62189996 -0.50410002 255 255 255 1425.000000
-5.54510021 -1.63429999 -0.50180000 255 255 255 1057.000000
-5.56689978 -1.64660001 -0.49939999 255 255 255 1105.000000
-5.57630014 -1.65929997 -0.49829999 255 255 255 1425.000000
-5.58449984 -1.67180002 -0.49739999 255 255 255 1105.000000
-5.59060001 -1.68420005 -0.49669999 255 255 255 1633.000000
-5.60039997 -1.69690001 -0.49559999 255 255 255 881.000000
-5.60669994 -1.70969999 -0.49489999 255 255 255 753.000000
-5.60960007 -1.72189999 -0.49460000 255 255 255 1313.000000
-5.60820007 -1.73479998 -0.49470001 255 255 255 1313.000000
-5.61140013 -1.74720001 -0.49430001 255 255 255 1633.000000
-5.61310005 -1.75950003 -0.49410000 255 255 255 1217.000000
-5.61530018 -1.77230000 -0.49380001 255 255 255 1089.000000
-5.61040020 -1.78509998 -0.49430001 255 255 255 1441.000000
-5.61439991 -1.79729998 -0.49380001 255 255 255 1329.000000
-5.60379982 -1.81060004 -0.49489999 255 255 255 1537.000000
-5.60309982 -1.82360005 -0.49500000 255 255 255 1953.000000
-5.60389996 -1.83609998 -0.49480000 255 255 255 1169.000000
-5.60109997 -1.84920001 -0.49509999 255 255 255 1057.000000
-5.59369993 -1.86290002 -0.49590001 255 255 255 977.000000
-5.58370018 -1.87590003 -0.49689999 255 255 255 1185.000000
-5.57000017 -1.88950002 -0.49840000 255 255 255 1505.000000
-5.54239988 -1.90489995 -0.50129998 255 255 255 1009.000000
-5.51310015 -1.91960001 -0.50430000 255 255 255 929.000000
-5.44750023 -1.59749997 -0.52560002 255 255 255 705.000000
-5.49720001 -1.60930002 -0.52020001 255 255 255 1425.000000
-5.52379990 -1.62199998 -0.51719999 255 255 255 1521.000000
-5.54619980 -1.63440001 -0.51470000 255 255 255 1297.000000
-5.56589985 -1.64670002 -0.51249999 255 255 255 1121.000000
-5.57620001 -1.65939999 -0.51130003 255 255 255 1569.000000
-5.58620024 -1.67190003 -0.51020002 255 255 255 1201.000000
-5.59159994 -1.68429995 -0.50959998 255 255 255 1313.000000
-5.60190010 -1.69690001 -0.50840002 255 255 255 769.000000
-5.60400009 -1.70990002 -0.50809997 255 255 255 1425.000000
-5.60890007 -1.72200000 -0.50749999 255 255 255 1377.000000
-5.60760021 -1.73490000 -0.50760001 255 255 255 1953.000000
-5.61170006 -1.74730003 -0.50720000 255 255 255 1857.000000
-5.61189985 -1.75969994 -0.50709999 255 255 255 1713.000000
-5.61369991 -1.77250004 -0.50690001 255 255 255 1281.000000
-5.61009979 -1.78530002 -0.50720000 255 255 255 2017.000000
-5.61299992 -1.79750001 -0.50690001 255 255 255 1201.000000
-5.60570002 -1.81060004 -0.50760001 255 255 255 1425.000000
-5.60290003 -1.82369995 -0.50790000 255 255 255 1777.000000
-5.60680008 -1.83609998 -0.50749999 255 255 255 1169.000000
-5.60389996 -1.84920001 -0.50779998 255 255 255 1521.000000
-5.59350014 -1.86310005 -0.50889999 255 255 255 1601.000000
-5.58360004 -1.87600005 -0.50989997 255 255 255 1681.000000
-5.56790018 -1.88979995 -0.51160002 255 255 255 2001.000000
-5.54650021 -1.90470004 -0.51389998 255 255 255 945.000000
-5.50579977 -1.92019999 -0.51830000 255 255 255 769.000000
-5.44890022 -1.59759998 -0.53880000 255 255 255 817.000000
-5.50050020 -1.60940003 -0.53299999 255 255 255 1377.000000
-5.52530003 -1.62210000 -0.53020000 255 255 255 1297.000000
-5.55149984 -1.63440001 -0.52719998 255 255 255 1089.000000
-5.56330013 -1.64690006 -0.52579999 255 255 255 1153.000000
-5.57369995 -1.65960002 -0.52460003 255 255 255 1809.000000
-5.58529997 -1.67200005 -0.52329999 255 255 255 1057.000000
-5.59119987 -1.68439996 -0.52260000 255 255 255 1121.000000
-5.60419989 -1.69690001 -0.52109998 255 255 255 1009.000000
-5.60599995 -1.71000004 -0.52079999 255 255 255 1281.000000
-5.60949993 -1.72210002 -0.52039999 255 255 255 1345.000000
-5.61049986 -1.73490000 -0.52020001 255 255 255 1601.000000
-5.61369991 -1.74730003 -0.51980001 255 255 255 1281.000000
-5.61310005 -1.75969994 -0.51990002 255 255 255 1617.000000
-5.61359978 -1.77260005 -0.51980001 255 255 255 1329.000000
-5.60879993 -1.78550005 -0.52029997 255 255 255 2033.000000
-5.61310005 -1.79760003 -0.51980001 255 255 255 1137.000000
-5.60640001 -1.81070006 -0.52050000 255 255 255 1553.000000
-5.60370016 -1.82379997 -0.52079999 255 255 255 1329.000000
-5.60550022 -1.83620000 -0.52050000 255 255 255 1185.000000
-5.60139990 -1.84940004 -0.52100003 255 255 255 1745.000000
-5.59359980 -1.86319995 -0.52179998 255 255 255 1537.000000
-5.58370018 -1.87609994 -0.52289999 255 255 255 1777.000000
-5.56979990 -1.88979995 -0.52440000 255 255 255 2017.000000
-5.55459976 -1.90429997 -0.52609998 255 255 255 1105.000000
-5.51049995 -1.91999996 -0.53100002 255 255 255 753.000000
-5.44290018 -1.59770000 -0.55280000 255 255 255 801.000000
-5.49749994 -1.60950005 -0.54650003 255 255 255 1329.000000
-5.52279997 -1.62230003 -0.54360002 255 255 255 1329.000000
-5.54729986 -1.63460004 -0.54070002 255 255 255 1201.000000
-5.56199980 -1.64699996 -0.53899997 255 255 255 1809.000000
-5.57560015 -1.65960002 -0.53740001 255 255 255 1505.000000
-5.58580017 -1.67209995 -0.53619999 255 255 255 1041.000000
-5.59350014 -1.68449998 -0.53530002 255 255 255 1121.000000
-5.60099983 -1.69719994 -0.53439999 255 255 255 993.000000
-5.60489988 -1.71010005 -0.53390002 255 255 255 1505.000000
-5.60860014 -1.72230005 -0.53340000 255 255 255 1281.000000
-5.61289978 -1.73490000 -0.53289998 255 255 255 1297.000000
-5.61259985 -1.74749994 -0.53289998 255 255 255 1233.000000
-5.61469984 -1.75979996 -0.53259999 255 255 255 1729.000000
-5.61289978 -1.77269995 -0.53280002 255 255 255 1553.000000
-5.61100006 -1.78550005 -0.53299999 255 255 255 1729.000000
-5.61049986 -1.79779994 -0.53299999 255 255 255 1425.000000
-5.60650015 -1.81079996 -0.53340000 255 255 255 1601.000000
-5.60640001 -1.82369995 -0.53340000 255 255 255 1457.000000
-5.60249996 -1.83650005 -0.53380001 255 255 255 1665.000000
-5.60319996 -1.84940004 -0.53369999 255 255 255 1649.000000
-5.59579992 -1.86319995 -0.53460002 255 255 255 1745.000000
-5.58400011 -1.87619996 -0.53590000 255 255 255 1761.000000
-5.57210016 -1.88970006 -0.53719997 255 255 255 1937.000000
-5.56029987 -1.90400004 -0.53850001 255 255 255 1361.000000
-5.51310015 -1.91999996 -0.54390001 255 255 255 673.000000
-5.44680023 -1.59780002 -0.56569999 255 255 255 801.000000
-5.49919987 -1.60959995 -0.55949998 255 255 255 1393.000000
-5.52440023 -1.62230003 -0.55650002 255 255 255 1153.000000
-5.54530001 -1.63469994 -0.55400002 255 255 255 1377.000000
-5.56139994 -1.64709997 -0.55210000 255 255 255 1665.000000
-5.57660007 -1.65970004 -0.55030000 255 255 255 977.000000
-5.58799982 -1.67219996 -0.54890001 255 255 255 1121.000000
-5.59270000 -1.68460000 -0.54830003 255 255 255 1265.000000
-5.59819984 -1.69739997 -0.54759997 255 255 255 1377.000000
-5.60610008 -1.71019995 -0.54670000 255 255 255 1457.000000
-5.60890007 -1.72239995 -0.54629999 255 255 255 1473.000000
-5.61310005 -1.73510003 -0.54579997 255 255 255 1409.000000
-5.61329985 -1.74759996 -0.54570001 255 255 255 1265.000000
-5.61250019 -1.75999999 -0.54579997 255 255 255 1793.000000
-5.61380005 -1.77279997 -0.54560000 255 255 255 1665.000000
-5.61240005 -1.78550005 -0.54570001 255 255 255 1697.000000
-5.61140013 -1.79789996 -0.54579997 255 255 255 1377.000000
-5.60690022 -1.81089997 -0.54629999 255 255 255 1393.000000
-5.60769987 -1.82379997 -0.54619998 255 255 255 1473.000000
-5.60099983 -1.83669996 -0.54699999 255 255 255 1857.000000
-5.60260010 -1.84959996 -0.54680002 255 255 255 1809.000000
-5.59999990 -1.86300004 -0.54710001 255 255 255 1761.000000
-5.58470011 -1.87629998 -0.54879999 255 255 255 1665.000000
-5.57469988 -1.88970006 -0.55000001 255 255 255 1889.000000
-5.56320000 -1.90390003 -0.55129999 255 255 255 1265.000000
-5.51919985 -1.91960001 -0.55640000 255 255 255 881.000000
-5.44929981 -1.59790003 -0.57870001 255 255 255 785.000000
-5.50150013 -1.60969996 -0.57249999 255 255 255 1121.000000
-5.52330017 -1.62249994 -0.56980002 255 255 255 1073.000000
-5.54390001 -1.63479996 -0.56730002 255 255 255 1297.000000
-5.56269979 -1.64719999 -0.56500000 255 255 255 1329.000000
-5.57670021 -1.65980005 -0.56330001 255 255 255 1025.000000
-5.58879995 -1.67229998 -0.56180000 255 255 255 1025.000000
-5.59369993 -1.68470001 -0.56120002 255 255 255 1681.000000
-5.60230017 -1.69729996 -0.56010002 255 255 255 1089.000000
-5.60599995 -1.71029997 -0.55960000 255 255 255 1553.000000
-5.60729980 -1.72249997 -0.55940002 255 255 255 1553.000000
-5.61439991 -1.73510003 -0.55860001 255 255 255 1569.000000
-5.61569977 -1.74759996 -0.55839998 255 255 255 1425.000000
-5.61299992 -1.76010001 -0.55870003 255 255 255 1633.000000
-5.61460018 -1.77289999 -0.55839998 255 255 255 1745.000000
-5.61429977 -1.78550005 -0.55839998 255 255 255 1809.000000
-5.61390018 -1.79789996 -0.55849999 255 255 255 1553.000000
-5.60739994 -1.81099999 -0.55919999 255 255 255 1425.000000
-5.60760021 -1.82389998 -0.55919999 255 255 255 1745.000000
-5.60050011 -1.83690000 -0.56000000 255 255 255 2001.000000
-5.60360003 -1.84969997 -0.55960000 255 255 255 1441.000000
-5.59649992 -1.86329997 -0.56040001 255 255 255 1729.000000
-5.58589983 -1.87629998 -0.56169999 255 255 255 1569.000000
-5.57550001 -1.88970006 -0.56290001 255 255 255 2033.000000
-5.56669998 -1.90380001 -0.56400001 255 255 255 1249.000000
-5.51870012 -1.91980004 -0.56959999 255 255 255 737.000000
-5.45709991 -1.59790003 -0.59109998 255 255 255 833.000000
-5.50260019 -1.60979998 -0.58550000 255 255 255 945.000000
-5.52209997 -1.62259996 -0.58310002 255 255 255 961.000000
-5.54349995 -1.63489997 -0.58050001 255 255 255 1345.000000
-5.56129980 -1.64730000 -0.57819998 255 255 255 1393.000000
-5.57730007 -1.65989995 -0.57620001 255 255 255 1441.000000
-5.59049988 -1.67229998 -0.57459998 255 255 255 1105.000000
-5.59329987 -1.68480003 -0.57419997 255 255 255 1601.000000
-5.59959984 -1.69749999 -0.57340002 255 255 255 1729.000000
-5.60540009 -1.71039999 -0.57270002 255 255 255 1489.000000
-5.60769987 -1.72259998 -0.57230002 255 255 255 1457.000000
-5.61350012 -1.73529994 -0.57160002 255 255 255 1393.000000
-5.61350012 -1.74779999 -0.57160002 255 255 255 1569.000000
-5.61359978 -1.76020002 -0.57150000 255 255 255 1601.000000
-5.61460018 -1.77300000 -0.57139999 255 255 255 1713.000000
-5.61539984 -1.78559995 -0.57120001 255 255 255 1665.000000
-5.61509991 -1.79789996 -0.57130003 255 255 255 1425.000000
-5.60570002 -1.81120002 -0.57239997 255 255 255 1441.000000
-5.60780001 -1.82400000 -0.57209998 255 255 255 1505.000000
-5.60169983 -1.83690000 -0.57279998 255 255 255 1873.000000
-5.60360003 -1.84979999 -0.57260001 255 255 255 1569.000000
-5.59219980 -1.86370003 -0.57400000 255 255 255 2033.000000
-5.58570004 -1.87650001 -0.57470000 255 255 255 1713.000000
-5.57530022 -1.88989997 -0.57599998 255 255 255 2033.000000
-5.57270002 -1.90349996 -0.57630002 255 255 255 1233.000000
-5.52479982 -1.91949999 -0.58209997 255 255 255 561.000000
-5.45909977 -1.59790003 -0.60420001 255 255 255 529.000000
-5.50360012 -1.60979998 -0.59859997 255 255 255 1121.000000
-5.52580023 -1.62259996 -0.59579998 255 255 255 1105.000000
-5.54309988 -1.63510001 -0.59359998 255 255 255 1521.000000
-5.56029987 -1.64750004 -0.59140003 255 255 255 1169.000000
-5.57840014 -1.65999997 -0.58910000 255 255 255 1025.000000
-5.58890009 -1.67250001 -0.58780003 255 255 255 993.000000
-5.59380007 -1.68490005 -0.58710003 255 255 255 1393.000000
-5.59899998 -1.69770002 -0.58639997 255 255 255 1473.000000
-5.60570002 -1.71050000 -0.58560002 255 255 255 1489.000000
-5.61030006 -1.72259998 -0.58499998 255 255 255 1441.000000
-5.61439991 -1.73529994 -0.58440000 255 255 255 1329.000000
-5.61329985 -1.74790001 -0.58450001 255 255 255 1873.000000
-5.61289978 -1.76030004 -0.58450001 255 255 255 1953.000000
-5.61429977 -1.77310002 -0.58440000 255 255 255 1681.000000
-5.61479998 -1.78569996 -0.58429998 255 255 255 1601.000000
-5.61460018 -1.79809999 -0.58429998 255 255 255 1489.000000
-5.60799980 -1.81120002 -0.58510000 255 255 255 1537.000000
-5.60710001 -1.82420003 -0.58520001 255 255 255 1521.000000
-5.60340023 -1.83700001 -0.58560002 255 255 255 1809.000000
-5.60340023 -1.84990001 -0.58560002 255 255 255 1649.000000
-5.59340000 -1.86380005 -0.58679998 255 255 255 2033.000000
-5.58599997 -1.87660003 -0.58770001 255 255 255 1857.000000
-5.57740021 -1.88979995 -0.58880001 255 255 255 2017.000000
-5.57499981 -1.90339994 -0.58910000 255 255 255 1473.000000
-5.52839994 -1.91929996 -0.59480000 255 255 255 769.000000
-5.47270012 -1.59790003 -0.61580002 255 255 255 609.000000
-5.50579977 -1.60990000 -0.61159998 255 255 255 1009.000000
-5.52500010 -1.62269998 -0.60909998 255 255 255 1201.000000
-5.54269981 -1.63520002 -0.60680002 255 255 255 1457.000000
-5.55870008 -1.64760005 -0.60470003 255 255 255 1393.000000
-5.57649994 -1.66020000 -0.60240000 255 255 255 1009.000000
-5.58549976 -1.67270005 -0.60119998 255 255 255 1489.000000
-5.59770012 -1.68490005 -0.59960002 255 255 255 1297.000000
-5.60090017 -1.69770002 -0.59920001 255 255 255 1345.000000
-5.60760021 -1.71060002 -0.59829998 255 255 255 1233.000000
-5.61189985 -1.72270000 -0.59770000 255 255 255 1425.000000
-5.61649990 -1.73539996 -0.59710002 255 255 255 1281.000000
-5.61530018 -1.74790001 -0.59719998 255 255 255 1553.000000
-5.61369991 -1.76040006 -0.59740001 255 255 255 1761.000000
-5.61369991 -1.77320004 -0.59740001 255 255 255 1873.000000
-5.61450005 -1.78590000 -0.59729999 255 255 255 1649.000000
-5.61600018 -1.79809999 -0.59700000 255 255 255 1505.000000
-5.60949993 -1.81120002 -0.59789997 255 255 255 1393.000000
-5.60839987 -1.82420003 -0.59799999 255 255 255 1425.000000
-5.60360003 -1.83710003 -0.59859997 255 255 255 1857.000000
-5.60190010 -1.85010004 -0.59880000 255 255 255 1409.000000
-5.59460020 -1.86380005 -0.59969997 255 255 255 1873.000000
-5.58710003 -1.87660003 -0.60060000 255 255 255 1761.000000
-5.57849979 -1.88989997 -0.60170001 255 255 255 1905.000000
-5.57579994 -1.90349996 -0.60210001 255 255 255 1441.000000
-5.53509998 -1.91890001 -0.60720003 255 255 255 673.000000
-5.48579979 -1.93579996 -0.61339998 255 255 255 961.000000
-5.41359997 -1.58529997 -0.63679999 255 255 255 961.000000
-5.48379993 -1.59780002 -0.62769997 255 255 255 737.000000
-5.50689983 -1.61000001 -0.62459999 255 255 255 1201.000000
-5.52759981 -1.62279999 -0.62190002 255 255 255 1217.000000
-5.54400015 -1.63520002 -0.61970001 255 255 255 1361.000000
-5.56020021 -1.64769995 -0.61760002 255 255 255 1553.000000
-5.57870007 -1.66020000 -0.61519998 255 255 255 977.000000
-5.58640003 -1.67270005 -0.61409998 255 255 255 1537.000000
-5.59700012 -1.68499994 -0.61269999 255 255 255 1265.000000
-5.60360003 -1.69770002 -0.61180001 255 255 255 993.000000
-5.60869980 -1.71060002 -0.61110002 255 255 255 833.000000
-5.61140013 -1.72280002 -0.61070001 255 255 255 1265.000000
-5.61530018 -1.73549998 -0.61019999 255 255 255 1489.000000
-5.61700010 -1.74790001 -0.61000001 255 255 255 1377.000000
-5.61579990 -1.76040006 -0.61009997 255 255 255 1441.000000
-5.61579990 -1.77330005 -0.61009997 255 255 255 1425.000000
-5.61600018 -1.78590000 -0.61000001 255 255 255 1457.000000
-5.61689997 -1.79820001 -0.60990000 255 255 255 1473.000000
-5.60850000 -1.81140006 -0.61100000 255 255 255 1793.000000
-5.60890007 -1.82430005 -0.61089998 255 255 255 1393.000000
-5.60650015 -1.83700001 -0.61119998 255 255 255 1633.000000
-5.60279989 -1.85020006 -0.61170000 255 255 255 1281.000000
-5.59770012 -1.86370003 -0.61229998 255 255 255 1393.000000
-5.58960009 -1.87660003 -0.61330003 255 255 255 1521.000000
-5.58090019 -1.88979995 -0.61449999 255 255 255 1745.000000
-5.57590008 -1.90359998 -0.61510003 255 255 255 1553.000000
-5.54489994 -1.91830003 -0.61909997 255 255 255 929.000000
-5.49410009 -1.93529999 -0.62559998 255 255 255 673.000000
-5.42570019 -1.58529997 -0.64859998 255 255 255 1073.000000
-5.49329996 -1.59780002 -0.63970000 255 255 255 1393.000000
-5.50939989 -1.61010003 -0.63749999 255 255 255 1057.000000
-5.52790022 -1.62290001 -0.63499999 255 255 255 1217.000000
-5.54230022 -1.63540006 -0.63309997 255 255 255 1633.000000
-5.56169987 -1.64779997 -0.63050002 255 255 255 1633.000000
-5.57950020 -1.66030002 -0.62809998 255 255 255 913.000000
-5.58650017 -1.67289996 -0.62709999 255 255 255 1441.000000
-5.59889984 -1.68509996 -0.62550002 255 255 255 1185.000000
-5.60330009 -1.69780004 -0.62489998 255 255 255 1489.000000
-5.60920000 -1.71070004 -0.62400001 255 255 255 1009.000000
-5.61409998 -1.72280002 -0.62339997 255 255 255 785.000000
-5.62050009 -1.73539996 -0.62250000 255 255 255 1361.000000
-5.61870003 -1.74800003 -0.62269998 255 255 255 1121.000000
-5.61880016 -1.76040006 -0.62269998 255 255 255 1329.000000
-5.61850023 -1.77320004 -0.62269998 255 255 255 1585.000000
-5.61840010 -1.78590000 -0.62269998 255 255 255 1617.000000
-5.61780024 -1.79830003 -0.62269998 255 255 255 1441.000000
-5.61219978 -1.81130004 -0.62339997 255 255 255 1393.000000
-5.61009979 -1.82439995 -0.62370002 255 255 255 1329.000000
-5.60879993 -1.83700001 -0.62390000 255 255 255 1441.000000
-5.60209990 -1.85029995 -0.62480003 255 255 255 1697.000000
-5.60099983 -1.86370003 -0.62489998 255 255 255 1329.000000
-5.59170008 -1.87650001 -0.62610000 255 255 255 1425.000000
-5.58209991 -1.88989997 -0.62739998 255 255 255 1841.000000
-5.57320023 -1.90390003 -0.62849998 255 255 255 1809.000000
-5.54540014 -1.91840005 -0.63220000 255 255 255 897.000000
-5.50850010 -1.93429995 -0.63700002 255 255 255 641.000000
-5.43359995 -1.58529997 -0.66100001 255 255 255 993.000000
-5.49389982 -1.59790003 -0.65289998 255 255 255 1489.000000
-5.51329994 -1.61010003 -0.65020001 255 255 255 1137.000000
-5.52860022 -1.62300003 -0.64810002 255 255 255 1265.000000
-5.54300022 -1.63549995 -0.64609998 255 255 255 1649.000000
-5.56120014 -1.64789999 -0.64370000 255 255 255 1345.000000
-5.58099985 -1.66040003 -0.64099997 255 255 255 993.000000
-5.58739996 -1.67289996 -0.64010000 255 255 255 1697.000000
-5.60020018 -1.68509996 -0.63830000 255 255 255 1329.000000
-5.60669994 -1.69780004 -0.63739997 255 255 255 1121.000000
-5.60990000 -1.71080005 -0.63690001 255 255 255 1153.000000
-5.61299992 -1.72300005 -0.63650000 255 255 255 1313.000000
-5.61770010 -1.73559999 -0.63580000 255 255 255 1169.000000
-5.61889982 -1.74810004 -0.63559997 255 255 255 1009.000000
-5.61810017 -1.76049995 -0.63569999 255 255 255 1345.000000
-5.61950016 -1.77330005 -0.63550001 255 255 255 1793.000000
-5.62069988 -1.78590000 -0.63529998 255 255 255 1425.000000
-5.61850023 -1.79830003 -0.63559997 255 255 255 1473.000000
-5.61499977 -1.81130004 -0.63609999 255 255 255 1265.000000
-5.61210012 -1.82439995 -0.63650000 255 255 255 1297.000000
-5.60990000 -1.83700001 -0.63669997 255 255 255 1377.000000
-5.60330009 -1.85039997 -0.63760000 255 255 255 1649.000000
-5.60300016 -1.86360002 -0.63770002 255 255 255 1361.000000
-5.59149981 -1.87670004 -0.63919997 255 255 255 1809.000000
-5.58500004 -1.88979995 -0.64010000 255 255 255 1473.000000
-5.57259989 -1.90409994 -0.64170003 255 255 255 2033.000000
-5.54920006 -1.91830003 -0.64490002 255 255 255 1041.000000
-5.51420021 -1.93400002 -0.64950001 255 255 255 673.000000
-5.44509983 -1.58529997 -0.67290002 255 255 255 801.000000
-5.49919987 -1.59790003 -0.66540003 255 255 255 1361.000000
-5.51719999 -1.61020005 -0.66289997 255 255 255 1489.000000
-5.53299999 -1.62300003 -0.66070002 255 255 255 1361.000000
-5.54390001 -1.63559997 -0.65920001 255 255 255 1473.000000
-5.56419992 -1.64789999 -0.65640002 255 255 255 1185.000000
-5.57880020 -1.66050005 -0.65429997 255 255 255 977.000000
-5.58879995 -1.67299998 -0.65289998 255 255 255 1793.000000
-5.60179996 -1.68519998 -0.65109998 255 255 255 977.000000
-5.60570002 -1.69799995 -0.65050000 255 255 255 1281.000000
-5.61089993 -1.71089995 -0.64980000 255 255 255 1121.000000
-5.61399984 -1.72300005 -0.64929998 255 255 255 1361.000000
-5.62020016 -1.73570001 -0.64850003 255 255 255 1377.000000
-5.62099981 -1.74810004 -0.64829999 255 255 255 1201.000000
-5.61780024 -1.76069999 -0.64870000 255 255 255 1729.000000
-5.62010002 -1.77339995 -0.64840001 255 255 255 1569.000000
-5.62160015 -1.78600001 -0.64819998 255 255 255 1441.000000
-5.62080002 -1.79830003 -0.64829999 255 255 255 1505.000000
-5.62039995 -1.81110001 -0.64829999 255 255 255 1185.000000
-5.61070013 -1.82449996 -0.64960003 255 255 255 1345.000000
-5.61059999 -1.83710003 -0.64960003 255 255 255 1329.000000
-5.60470009 -1.85039997 -0.65039998 255 255 255 1409.000000
-5.60249996 -1.86380005 -0.65079999 255 255 255 1393.000000
-5.59950018 -1.87629998 -0.65120000 255 255 255 1393.000000
-5.58610010 -1.88989997 -0.65300000 255 255 255 1249.000000
-5.57340002 -1.90419996 -0.65469998 255 255 255 1921.000000
-5.56260014 -1.91740000 -0.65619999 255 255 255 977.000000
-5.52290010 -1.93340003 -0.66159999 255 255 255 529.000000
-5.47020006 -1.58510005 -0.68279999 255 255 255 801.000000
-5.50610018 -1.59790003 -0.67780000 255 255 255 977.000000
-5.52050018 -1.61020005 -0.67570001 255 255 255 1313.000000
-5.53240013 -1.62310004 -0.67400002 255 255 255 1249.000000
-5.54470015 -1.63569999 -0.67220002 255 255 255 1505.000000
-5.56349993 -1.64800000 -0.66960001 255 255 255 1041.000000
-5.57849979 -1.66059995 -0.66740000 255 255 255 977.000000
-5.58820009 -1.67309999 -0.66600001 255 255 255 1393.000000
-5.60059977 -1.68529999 -0.66430002 255 255 255 1073.000000
-5.60669994 -1.69809997 -0.66339999 255 255 255 1377.000000
-5.61219978 -1.71089995 -0.66259998 255 255 255 1249.000000
-5.61590004 -1.72309995 -0.66210002 255 255 255 1329.000000
-5.62139988 -1.73570001 -0.66130000 255 255 255 1409.000000
-5.62260008 -1.74820006 -0.66109997 255 255 255 1313.000000
-5.62160015 -1.76059997 -0.66119999 255 255 255 1505.000000
-5.62260008 -1.77339995 -0.66100001 255 255 255 1441.000000
-5.62440014 -1.78590000 -0.66079998 255 255 255 1425.000000
-5.62200022 -1.79840004 -0.66109997 255 255 255 1393.000000
-5.62020016 -1.81120002 -0.66130000 255 255 255 1553.000000
-5.61439991 -1.82449996 -0.66210002 255 255 255 1297.000000
-5.61289978 -1.83710003 -0.66229999 255 255 255 1105.000000
-5.60580015 -1.85049999 -0.66329998 255 255 255 1537.000000
-5.60050011 -1.86409998 -0.66409999 255 255 255 1681.000000
-5.60249996 -1.87619996 -0.66380000 255 255 255 1265.000000
-5.58839989 -1.88979995 -0.66579998 255 255 255 1441.000000
-5.57550001 -1.90409994 -0.66759998 255 255 255 1937.000000
-5.57240009 -1.91680002 -0.66799998 255 255 255 849.000000
-5.52909994 -1.93309999 -0.67400002 255 255 255 705.000000
-5.48339987 -1.58510005 -0.69430000 255 255 255 1121.000000
-5.50369978 -1.59809995 -0.69139999 255 255 255 1633.000000
-5.51959991 -1.61029994 -0.68910003 255 255 255 1489.000000
-5.53369999 -1.62320006 -0.68699998 255 255 255 1345.000000
-5.54790020 -1.63569999 -0.68489999 255 255 255 1313.000000
-5.56320000 -1.64820004 -0.68269998 255 255 255 1105.000000
-5.57800007 -1.66079998 -0.68059999 255 255 255 753.000000
-5.59140015 -1.67309999 -0.67869997 255 255 255 1089.000000
-5.60129976 -1.68540001 -0.67720002 255 255 255 1185.000000
-5.60850000 -1.69809997 -0.67619997 255 255 255 1361.000000
-5.61180019 -1.71109998 -0.67570001 255 255 255 1313.000000
-5.61619997 -1.72319996 -0.67500001 255 255 255 1537.000000
-5.61980009 -1.73590004 -0.67449999 255 255 255 1377.000000
-5.62239981 -1.74829996 -0.67409998 255 255 255 1329.000000
-5.62279987 -1.76069999 -0.67400002 255 255 255 1185.000000
-5.62459993 -1.77339995 -0.67369998 255 255 255 1313.000000
-5.62540007 -1.78600001 -0.67360002 255 255 255 1505.000000
-5.62430000 -1.79840004 -0.67379999 255 255 255 1489.000000
-5.62249994 -1.81120002 -0.67400002 255 255 255 1297.000000
-5.61509991 -1.82449996 -0.67500001 255 255 255 1297.000000
-5.61280012 -1.83720005 -0.67540002 255 255 255 1265.000000
-5.60909986 -1.85039997 -0.67589998 255 255 255 1361.000000
-5.60389996 -1.86389995 -0.67659998 255 255 255 1713.000000
-5.60349989 -1.87619996 -0.67670000 255 255 255 1041.000000
-5.58879995 -1.88989997 -0.67879999 255 255 255 1425.000000
-5.57660007 -1.90419996 -0.68049997 255 255 255 1873.000000
-5.57600021 -1.91659999 -0.68059999 255 255 255 945.000000
-5.53730011 -1.93260002 -0.68610001 255 255 255 737.000000
-5.47779989 -1.95060003 -0.69450003 255 255 255 657.000000
-5.46549988 -1.58539999 -0.71020001 255 255 255 1233.000000
-5.50579977 -1.59819996 -0.70429999 255 255 255 1361.000000
-5.51949978 -1.61039996 -0.70230001 255 255 255 1281.000000
-5.53389978 -1.62329996 -0.70020002 255 255 255 1521.000000
-5.54829979 -1.63580000 -0.69809997 255 255 255 1585.000000
-5.56479979 -1.64820004 -0.69559997 255 255 255 1041.000000
-5.57959986 -1.66079998 -0.69349998 255 255 255 705.000000
-5.59340000 -1.67320001 -0.69139999 255 255 255 1105.000000
-5.60179996 -1.68550003 -0.69019997 255 255 255 1345.000000
-5.61170006 -1.69809997 -0.68870002 255 255 255 1073.000000
-5.61229992 -1.71120000 -0.68860000 255 255 255 1217.000000
-5.61740017 -1.72329998 -0.68779999 255 255 255 1585.000000
-5.62249994 -1.73590004 -0.68709999 255 255 255 1329.000000
-5.62410021 -1.74829996 -0.68680000 255 255 255 1345.000000
-5.62510014 -1.76069999 -0.68669999 255 255 255 1425.000000
-5.62620020 -1.77339995 -0.68650001 255 255 255 1265.000000
-5.62629986 -1.78610003 -0.68650001 255 255 255 1377.000000
-5.62680006 -1.79840004 -0.68640000 255 255 255 1345.000000
-5.62480021 -1.81120002 -0.68669999 255 255 255 1217.000000
-5.62260008 -1.82420003 -0.68699998 255 255 255 961.000000
-5.61399984 -1.83729994 -0.68820000 255 255 255 1169.000000
-5.61219978 -1.85029995 -0.68849999 255 255 255 1233.000000
-5.60519981 -1.86399996 -0.68949997 255 255 255 1377.000000
-5.60150003 -1.87650001 -0.69000000 255 255 255 1457.000000
-5.58879995 -1.88999999 -0.69190001 255 255 255 1409.000000
-5.57859993 -1.90419996 -0.69340003 255 255 255 2017.000000
-5.58360004 -1.91620004 -0.69270003 255 255 255 1105.000000
-5.54500008 -1.93210006 -0.69819999 255 255 255 881.000000
-5.48810005 -1.94990003 -0.70639998 255 255 255 625.000000
-5.47119999 -1.58539999 -0.72270000 255 255 255 1201.000000
-5.50400019 -1.59829998 -0.71789998 255 255 255 1441.000000
-5.51760006 -1.61059999 -0.71579999 255 255 255 1489.000000
-5.53270006 -1.62339997 -0.71359998 255 255 255 1569.000000
-5.54969978 -1.63590002 -0.71100003 255 255 255 1425.000000
-5.56370020 -1.64839995 -0.70889997 255 255 255 1281.000000
-5.57999992 -1.66090000 -0.70649999 255 255 255 753.000000
-5.59359980 -1.67330003 -0.70450002 255 255 255 1025.000000
-5.60300016 -1.68560004 -0.70300001 255 255 255 1073.000000
-5.61320019 -1.69819999 -0.70150000 255 255 255 1377.000000
-5.61229992 -1.71130002 -0.70160002 255 255 255 1425.000000
-5.61859989 -1.72329998 -0.70069999 255 255 255 1537.000000
-5.62360001 -1.73599994 -0.69989997 255 255 255 1313.000000
-5.62529993 -1.74839997 -0.69970000 255 255 255 1281.000000
-5.62739992 -1.76069999 -0.69929999 255 255 255 1297.000000
-5.62790012 -1.77349997 -0.69919997 255 255 255 1377.000000
-5.62779999 -1.78610003 -0.69919997 255 255 255 1217.000000
-5.62750006 -1.79840004 -0.69929999 255 255 255 1153.000000
-5.62510014 -1.81130004 -0.69959998 255 255 255 1297.000000
-5.62060022 -1.82449996 -0.70029998 255 255 255 1393.000000
-5.61600018 -1.83729994 -0.70099998 255 255 255 1009.000000
-5.61520004 -1.85020006 -0.70109999 255 255 255 1121.000000
-5.60839987 -1.86389995 -0.70209998 255 255 255 1313.000000
-5.60400009 -1.87639999 -0.70270002 255 255 255 1057.000000
-5.59240007 -1.88989997 -0.70440000 255 255 255 1313.000000
-5.58199978 -1.90400004 -0.70599997 255 255 255 1777.000000
-5.57940006 -1.91659999 -0.70639998 255 255 255 1473.000000
-5.54540014 -1.93219995 -0.71139997 255 255 255 961.000000
-5.51030016 -1.94819999 -0.71649998 255 255 255 545.000000
