6.95970011 -3.06110001 9.42720032 134 134 134
6.95669985 -3.08030009 9.43360043 93 93 93
7.01770020 -2.96580005 9.47560024 99 99 99
7.00180006 -2.97939992 9.46409988 99 99 99
6.98820019 -2.99440002 9.45610046 120 120 120
6.97860003 -3.01160002 9.45390034 119 119 119
6.97380018 -3.02999997 9.45759964 109 109 109
6.96780014 -3.04819989 9.46010017 134 134 134
6.95660019 -3.06500006 9.45600033 125 125 125
6.95650005 -3.08550000 9.46640015 97 97 97
6.96199989 -3.10910010 9.48480034 108 108 108
7.05429983 -3.17140007 9.62139988 75 75 75
6.87130022 -3.34109998 9.50689983 134 134 134
7.21490002 -3.57610011 10.02009964 146 146 146
6.79759979 -6.46659994 11.68029976 122 122 122
7.94140005 -2.71359992 10.34459972 108 108 108
7.13920021 -2.94970012 9.52789974 61 61 61
7.08939981 -2.94899988 9.47109985 61 61 61
7.05299997 -2.95510006 9.43280029 87 87 87
7.02829981 -2.96560001 9.40999985 97 97 97
7.01109982 -2.97860003 9.39680004 120 120 120
6.99420023 -2.99289989 9.38490009 125 125 125
6.98029995 -3.00790000 9.37660027 96 96 96
6.97310019 -3.02480006 9.37699986 110 110 110
6.96890020 -3.04410005 9.38189983 93 93 93
6.95979977 -3.06130004 9.38039970 125 125 125
6.95139980 -3.07809997 9.37950039 116 116 116
7.02400017 -2.96869993 9.43659973 67 67 67
7.00309992 -2.98020005 9.41849995 135 135 135
6.98740005 -2.99440002 9.40779972 110 110 110
6.97840023 -3.01180005 9.40629959 105 105 105
6.97130013 -3.02920008 9.40699959 126 126 126
6.96630001 -3.04769993 9.41069984 111 111 111
6.95440006 -3.06430006 9.40569973 124 124 124
6.94890022 -3.08240008 9.40869999 126 126 126
6.95310020 -3.10540009 9.42529964 86 86 86
6.95650005 -3.12770009 9.44060040 72 72 72
7.08269978 -3.20549989 9.62269974 0 0 0
6.87589979 -3.32200003 9.45390034 134 134 134
6.86829996 -3.33990002 9.45520020 140 140 140
7.11000013 -2.95779991 9.45129967 56 56 56
7.06320000 -2.95959997 9.39939976 90 90 90
7.03569984 -2.96889997 9.37290001 107 107 107
7.01660013 -2.98110008 9.35739994 134 134 134
6.99389982 -2.99289989 9.33759975 128 128 128
6.97949982 -3.00769997 9.32880020 122 122 122
6.96929979 -3.02329993 9.32509995 127 127 127
6.96059990 -3.04069996 9.32400036 99 99 99
6.95709991 -3.06030011 9.32999992 130 130 130
6.94880009 -3.07710004 9.32919979 122 122 122
7.03140020 -2.97210002 9.39939976 102 102 102
7.01070023 -2.98370004 9.38169956 90 90 90
6.99219990 -2.99670005 9.36719990 91 91 91
6.97730017 -3.01149988 9.35779953 105 105 105
6.96659994 -3.02740002 9.35359955 108 108 108
6.96169996 -3.04600000 9.35750008 109 109 109
6.95510006 -3.06489992 9.35970020 120 120 120
6.94670010 -3.08170009 9.35879993 109 109 109
6.93979979 -3.09969997 9.36019993 122 122 122
6.94129992 -3.12109995 9.37279987 94 94 94
6.94829988 -3.14490008 9.39290047 52 52 52
6.87500000 -3.34340000 9.41720009 9 9 9
8.48880005 -1.62899995 10.52760029 95 95 95
7.14370012 -2.97199988 9.44880009 6 6 6
7.08099985 -2.96720004 9.37619972 56 56 56
7.04839993 -2.97449994 9.34319973 52 52 52
7.02069998 -2.98309994 9.31630039 115 115 115
7.00050020 -2.99589992 9.30000019 113 113 113
6.98159981 -3.00880003 9.28509998 95 95 95
6.96670008 -3.02239990 9.27519989 131 131 131
6.95709991 -3.03929996 9.27289963 120 120 120
6.94950008 -3.05719995 9.27340031 88 88 88
6.94449997 -3.07540011 9.27700043 105 105 105
7.03929996 -2.97569990 9.36289978 60 60 60
7.01739979 -2.98679996 9.34370041 99 99 99
6.99520016 -2.99830008 9.32439995 120 120 120
6.97860003 -3.01239991 9.31280041 149 149 149
6.96490002 -3.02690005 9.30469990 93 93 93
6.95319986 -3.04250002 9.29940033 101 101 101
6.94920015 -3.06259990 9.30500031 98 98 98
6.94369984 -3.08069992 9.30809975 137 137 137
6.93310022 -3.09699988 9.30449963 122 122 122
6.92759991 -3.11520004 9.30760002 92 92 92
6.92910004 -3.13649988 9.32030010 88 88 88
6.93529987 -3.16070008 9.33969975 52 52 52
6.86810017 -3.31870008 9.34899998 158 158 158
7.35020018 -3.66650009 10.06830025 133 133 133
8.03429985 -2.72329998 10.30080032 100 100 100
7.10300016 -2.97659993 9.35849953 106 106 106
7.05919981 -2.97919989 9.31089973 51 51 51
7.02920008 -2.98690009 9.28110027 81 81 81
7.00509977 -2.99810004 9.25979996 115 115 115
6.98390007 -3.00990009 9.24190044 94 94 94
6.96619987 -3.02239990 9.22840023 120 120 120
6.95650005 -3.03920007 9.22599983 96 96 96
6.94399977 -3.05489993 9.22000027 110 110 110
6.93580008 -3.07170010 9.21930027 106 106 106
7.04990005 -2.98049998 9.33020020 59 59 59
7.02320004 -2.98950005 9.30480003 82 82 82
7.00180006 -3.00139999 9.28670025 122 122 122
6.97870016 -3.01270008 9.26650047 138 138 138
6.96470022 -3.02710009 9.25800037 121 121 121
6.95200014 -3.04229999 9.25139999 117 117 117
6.94390011 -3.06049991 9.25150013 114 114 114
6.93550014 -3.07730007 9.25059986 86 86 86
6.92749977 -3.09480000 9.25059986 110 110 110
6.91970015 -3.11190009 9.25070000 115 115 115
6.91160011 -3.12879992 9.25030041 99 99 99
6.91099977 -3.14989996 9.26049995 88 88 88
6.91849995 -3.17429996 9.28129959 47 47 47
6.87570000 -3.30139995 9.30130005 111 111 111
6.86780024 -3.31879997 9.30200005 147 147 147
7.38149977 -3.68239999 10.06070042 194 194 194
8.78999996 -0.68300003 10.60970020 0 0 0
7.13149977 -2.98880005 9.34939957 31 31 31
7.07460022 -2.98589993 9.28479958 59 59 59
7.03989983 -2.99160004 9.24909973 51 51 51
7.01030016 -3.00049996 9.22070026 101 101 101
6.99090004 -3.01309991 9.20530033 108 108 108
6.97209978 -3.02509999 9.19040012 105 105 105
6.95349979 -3.03810000 9.17619991 93 93 93
6.93979979 -3.05320001 9.16870022 90 90 90
6.93410015 -3.07110000 9.17119980 119 119 119
7.06330013 -2.98639989 9.30140018 53 53 53
7.03310013 -2.99410009 9.27159977 48 48 48
7.00419998 -3.00270009 9.24359989 117 117 117
6.98350000 -3.01500010 9.22669983 92 92 92
6.96740007 -3.02850008 9.21539974 113 113 113
6.93790007 -3.05809999 9.19750023 122 122 122
6.93069983 -3.07540011 9.19820023 112 112 112
6.92630005 -3.09450006 9.20289993 106 106 106
6.91669989 -3.11080003 9.20049953 120 120 120
6.90399981 -3.12560010 9.19410038 101 101 101
6.89289999 -3.14179993 9.19019985 93 93 93
6.88740015 -3.16030002 9.19369984 81 81 81
6.88520002 -3.18009996 9.20139980 67 67 67
6.87270021 -3.30019999 9.25090027 148 148 148
6.84299994 -3.30699992 9.22220039 27 27 27
7.41060019 -3.69720006 10.05010033 0 0 0
8.10179996 -2.72490001 10.27589989 91 91 91
8.10219955 -2.74690008 10.28509998 38 38 38
7.09859991 -2.99620008 9.27009964 59 59 59
7.05179977 -2.99679995 9.21870041 59 59 59
7.02069998 -3.00510001 9.18840027 74 74 74
6.99709988 -3.01600003 9.16769981 109 109 109
6.97489977 -3.02649999 9.14840031 84 84 84
6.96029997 -3.04119992 9.13959980 122 122 122
6.94350004 -3.05500007 9.12800026 57 57 57
6.92999983 -3.06949997 9.12030029 116 116 116
7.09089994 -2.99839997 9.29119968 50 50 50
7.04419994 -2.99900007 9.23989964 77 77 77
7.01440001 -3.00729990 9.21100044 76 76 76
6.99200010 -3.01889992 9.19190025 116 116 116
6.97270012 -3.03110003 9.17650032 119 119 119
6.93860006 -3.05870008 9.15260029 99 99 99
6.92810011 -3.07450008 9.14890003 109 109 109
6.92210007 -3.09290004 9.15159988 112 112 112
6.91410017 -3.10990000 9.15139961 95 95 95
6.89919996 -3.12369990 9.14200020 127 127 127
6.88329983 -3.13770008 9.13179970 106 106 106
6.87150002 -3.15319991 9.12670040 78 78 78
6.86899996 -3.17289996 9.13409996 135 135 135
6.86780024 -3.19300008 9.14319992 120 120 120
6.86590004 -3.21320009 9.15159988 150 150 150
6.86129999 -3.23200011 9.15639973 68 68 68
6.89010000 -3.28810000 9.21710014 49 49 49
6.87410021 -3.30110002 9.20670033 159 159 159
6.88910007 -6.42269993 11.37839985 0 0 0
8.13160038 -2.73519993 10.26249981 102 102 102
7.14379978 -3.01550007 9.28289986 0 0 0
7.07390022 -3.00640011 9.20180035 79 79 79
7.03469992 -3.01130009 9.16110039 93 93 93
7.00549984 -3.01979995 9.13319969 96 96 96
6.98680019 -3.03180003 9.11859989 113 113 113
7.12720013 -3.01399994 9.29240036 40 40 40
7.06180000 -3.00679994 9.21700001 69 69 69
7.02360010 -3.01149988 9.17720032 58 58 58
6.99919987 -3.02230000 9.15559959 53 53 53
6.97770023 -3.03349996 9.13749981 131 131 131
6.94180012 -3.06030011 9.11130047 120 120 120
6.95319986 -3.08590007 9.13640022 93 93 93
6.90950012 -3.10800004 9.09980011 116 116 116
6.89970016 -3.12420011 9.09720039 128 128 128
6.87879992 -3.13590002 9.08030033 92 92 92
6.87080002 -3.15319991 9.08049965 118 118 118
6.86679983 -3.17210007 9.08580017 143 143 143
6.86560011 -3.19230008 9.09480000 139 139 139
6.87099981 -3.21580005 9.11289978 127 127 127
6.87440014 -3.23839998 9.12829971 82 82 82
6.89860010 -3.27080011 9.17129993 30 30 30
6.88320017 -3.28500009 9.16219997 167 167 167
6.88210011 -3.30520010 9.17160034 121 121 121
7.22450018 -6.21759987 11.45880032 0 0 0
8.62549973 -1.63460004 10.42889977 92 92 92
8.58399963 -1.64919996 10.38420010 80 80 80
7.13579988 -3.03290009 9.23630047 48 48 48
7.05789995 -3.02139997 9.14579964 85 85 85
6.97370005 -3.04749990 9.06669998 96 96 96
6.95370007 -3.05990005 9.05099964 89 89 89
6.93569994 -3.07229996 9.03750038 89 89 89
7.09359980 -3.02060008 9.21240044 60 60 60
7.04510021 -3.02099991 9.15950012 60 60 60
7.01009989 -3.02729988 9.12430000 74 74 74
6.93149996 -3.07649994 9.06270027 84 84 84
6.91620016 -3.09069991 9.05309963 92 92 92
6.90509987 -3.10630012 9.04880047 100 100 100
6.89540005 -3.12249994 9.04640007 131 131 131
6.88409996 -3.13860011 9.04220009 126 126 126
6.87190008 -3.15389991 9.03670025 123 123 123
6.86670017 -3.17230010 9.04049969 135 135 135
6.86840010 -3.19379997 9.05329990 132 132 132
6.87330008 -3.21709991 9.07059956 141 141 141
6.87979984 -3.24110007 9.09000015 106 106 106
6.87809992 -3.26139998 9.09869957 147 147 147
6.86180019 -3.27500010 9.08819962 188 188 188
6.84609985 -3.28810000 9.07830048 0 0 0
7.23939991 -6.16830015 11.37689972 0 0 0
8.87849998 -1.00240004 10.54740047 90 90 90
8.84360027 -1.04240000 10.51290035 0 0 0
8.66199970 -1.61889994 10.41569996 44 44 44
8.65610027 -1.64069998 10.41399956 105 105 105
8.60589981 -1.65380001 10.35910034 72 72 72
7.03910017 -3.03460002 9.08629990 85 85 85
7.00549984 -3.04029989 9.05259991 75 75 75
6.97840023 -3.04970002 9.02789974 90 90 90
6.95979977 -3.06270003 9.01410007 75 75 75
6.93970013 -3.07419991 8.99790001 90 90 90
7.08179998 -3.03699994 9.16160011 58 58 58
6.99749994 -3.04270005 9.07260036 55 55 55
6.97399998 -3.05320001 9.05220032 115 115 115
6.95270014 -3.06559992 9.03520012 76 76 76
6.93289995 -3.07739997 9.01949978 99 99 99
6.91699982 -3.09139991 9.00920010 137 137 137
6.90509987 -3.10649991 9.00380039 117 117 117
6.89489985 -3.12249994 9.00080013 131 131 131
6.88679981 -3.14010000 9.00090027 127 127 127
6.87370014 -3.15499997 8.99419975 124 124 124
6.86759996 -3.17300010 8.99680042 130 130 130
6.86429977 -3.19210005 9.00300026 125 125 125
6.87449980 -3.21790004 9.02709961 115 115 115
6.88450003 -3.24359989 9.05109978 120 120 120
6.90999985 -3.27670002 9.09549999 102 102 102
7.55240011 -3.81719995 10.06630039 135 135 135
8.69919968 -1.62619996 10.40869999 30 30 30
8.64070034 -1.63820004 10.34420013 144 144 144
8.63609982 -1.65999997 10.34410000 107 107 107
8.22150040 -2.74349999 10.21389961 74 74 74
7.06769991 -3.04710007 9.07810020 60 60 60
7.01919985 -3.04640007 9.02550030 65 65 65
6.99109983 -3.05539989 8.99950027 59 59 59
6.96350002 -3.06450009 8.97420025 77 77 77
6.94409990 -3.07640004 8.95909977 78 78 78
7.05219984 -3.04600000 9.08819962 69 69 69
7.01030016 -3.04850006 9.04409981 63 63 63
6.98140001 -3.05669999 9.01690006 70 70 70
6.95909977 -3.06870008 8.99870014 102 102 102
6.93820000 -3.07999992 8.98159981 91 91 91
6.91790009 -3.09200001 8.96560001 100 100 100
6.90350008 -3.10610008 8.95709991 84 84 84
6.89389992 -3.12229991 8.95479965 131 131 131
6.88649988 -3.14019990 8.95580006 113 113 113
6.87739992 -3.15689993 8.95440006 134 134 134
6.86770010 -3.17319989 8.95219994 126 126 126
6.86409998 -3.19230008 8.95800018 131 131 131
6.87039995 -3.21630001 8.97700024 96 96 96
6.89540005 -3.24889994 9.02040005 91 91 91
7.00699997 -4.10930014 9.61810017 0 0 0
8.91499996 -1.34539998 10.54520035 121 121 121
8.66289997 -1.64279997 10.31949997 0 0 0
7.03830004 -3.05489993 9.00529957 85 85 85
6.99900007 -3.05900002 8.96520042 79 79 79
6.96999979 -3.06750011 8.93820000 99 99 99
6.95009995 -3.07920003 8.92259979 114 114 114
7.02899981 -3.05679989 9.02320004 97 97 97
6.99359989 -3.06229997 8.98789978 68 68 68
6.96589994 -3.07200003 8.96280003 134 134 134
6.94469976 -3.08310008 8.94540024 92 92 92
6.92170000 -3.09400010 8.92619991 83 83 83
6.90530014 -3.10710001 8.91499996 105 105 105
6.89370012 -3.12240005 8.91009998 126 126 126
6.88570023 -3.14000010 8.91040039 107 107 107
6.87809992 -3.15750003 8.91100025 123 123 123
6.86759996 -3.17339993 8.90769958 167 167 167
6.86369991 -3.19230008 8.91310024 141 141 141
6.86740017 -3.21510005 8.92860031 113 113 113
6.88329983 -3.24349999 8.95989990 89 89 89
7.12900019 -3.38100004 9.29090023 124 124 124
7.03280020 -4.12449980 9.60560036 136 136 136
8.95880032 -1.32959998 10.54020023 109 109 109
8.69799995 -1.64979994 10.31009960 73 73 73
7.06230021 -3.06550002 8.99139977 96 96 96
7.01569986 -3.06649995 8.94209957 64 64 64
6.97779989 -3.07110000 8.90400028 72 72 72
6.95529985 -3.08170009 8.88510036 118 118 118
7.04949999 -3.06599998 9.00469971 203 203 203
7.00519991 -3.06760001 8.95810032 72 72 72
6.97119999 -3.07450008 8.92510033 81 81 81
6.94869995 -3.08509994 8.90629959 116 116 116
6.92840004 -3.09719992 8.89050007 100 100 100
6.90959978 -3.10929990 8.87639999 131 131 131
6.89480019 -3.12319994 8.86740017 124 124 124
6.88609982 -3.14039993 8.86670017 140 140 140
6.87949991 -3.15829992 8.86859989 142 142 142
6.86789989 -3.17379999 8.86410046 140 140 140
6.86159992 -3.19160008 8.86629963 150 150 150
6.86630011 -3.21479988 8.88290024 108 108 108
6.87860012 -3.24149990 8.90939999 99 99 99
6.92229986 -3.28320003 8.97679996 60 60 60
6.53660011 -3.81240010 8.87100029 179 179 179
7.05730009 -4.13910007 9.59130001 147 147 147
7.03140020 -3.07349992 8.91800022 83 83 83
6.98850012 -3.07599998 8.87370014 66 66 66
6.96140003 -3.08450007 8.84899998 88 88 88
7.02150011 -3.07500005 8.93449974 72 72 72
6.97819996 -3.07789993 8.88990021 70 70 70
6.95310020 -3.08730006 8.86779976 81 81 81
6.93200016 -3.09899998 8.85109997 92 92 92
6.91160011 -3.11039996 8.83500004 99 99 99
6.89650011 -3.12420011 8.82569981 99 99 99
6.88630009 -3.14080000 8.82310009 121 121 121
6.87839985 -3.15809989 8.82339954 125 125 125
6.87209988 -3.17600012 8.82559967 125 125 125
6.86240005 -3.19219995 8.82339954 131 131 131
6.86409998 -3.21399999 8.83619976 120 120 120
6.87179995 -3.23850012 8.85659981 100 100 100
6.89589977 -3.27090001 8.89830017 109 109 109
7.08430004 -3.64910007 9.29290009 148 148 148
7.04899979 -3.08139992 8.89610004 58 58 58
6.99420023 -3.07870007 8.83710003 60 60 60
6.96210003 -3.08500004 8.80630016 117 117 117
7.03980017 -3.08330011 8.91359997 68 68 68
6.98799992 -3.08249998 8.85840034 69 69 69
6.95730019 -3.08949995 8.82929993 65 65 65
6.93459988 -3.10039997 8.81060028 92 92 92
6.91260004 -3.11120009 8.79259968 87 87 87
6.89599991 -3.12420011 8.78149986 146 146 146
6.88500023 -3.14039993 8.77779961 115 115 115
6.87750006 -3.15790009 8.77849960 125 125 125
6.87190008 -3.17610002 8.78160000 135 135 135
6.86210012 -3.19230008 8.77939987 165 165 165
6.86079979 -3.21269989 8.78810024 130 130 130
6.86499977 -3.23559999 8.80410004 114 114 114
6.88390017 -3.26550007 8.83899975 100 100 100
7.70809984 -3.92109990 10.03460026 0 0 0
8.78709984 -1.66789997 10.26249981 82 82 82
7.00180006 -3.08220005 8.80309963 52 52 52
6.96059990 -3.08450007 8.76089954 84 84 84
6.99630022 -3.08640003 8.82499981 51 51 51
6.95749998 -3.08979988 8.78600025 66 66 66
6.93039989 -3.09879994 8.76179981 68 68 68
6.91050005 -3.11050010 8.74650002 110 110 110
6.89389992 -3.12350011 8.73540020 107 107 107
6.88180017 -3.13919997 8.73040009 131 131 131
6.87360001 -3.15630007 8.73019981 90 90 90
6.87050009 -3.17569995 8.73639965 105 105 105
6.86189985 -3.19239998 8.73579979 145 145 145
6.85699987 -3.21110010 8.73989964 100 100 100
6.85830021 -3.23259997 8.75199986 88 88 88
6.87519979 -3.26160002 8.78419971 108 108 108
6.88730001 -3.28880000 8.81040001 90 90 90
7.74639988 -3.91669989 10.02190018 0 0 0
4.79829979 -2.96110010 6.51280022 192 192 192
6.96390009 -6.68879986 11.15270042 31 31 31
8.81849957 -1.67420006 10.24839973 89 89 89
6.99989986 -3.08150005 8.75739956 75 75 75
6.96010017 -3.08450007 8.71730042 88 88 88
7.00309992 -3.08960009 8.79010010 34 34 34
6.95819998 -3.09030008 8.74339962 83 83 83
6.93230009 -3.09990001 8.72089958 115 115 115
6.91349983 -3.11199999 8.70709991 108 108 108
6.89489985 -3.12420011 8.69349957 130 130 130
6.88149977 -3.13930011 8.68690014 143 143 143
6.87519979 -3.15730000 8.68900013 138 138 138
6.86740017 -3.17449999 8.68929958 138 138 138
6.86280012 -3.19309998 8.69379997 137 137 137
6.85680008 -3.21129990 8.69649982 167 167 167
6.86019993 -3.23370004 8.71119976 133 133 133
6.86770010 -3.25819993 8.73120022 115 115 115
6.88059998 -3.28579998 8.75829983 97 97 97
7.75320005 -3.92039990 9.98099995 81 81 81
7.78270006 -3.95959997 10.03190041 95 95 95
8.84920025 -1.68040001 10.23349953 105 105 105
8.85289955 -1.98109996 10.31210041 1 1 1
7.00869989 -3.08559990 8.72519970 73 73 73
6.96379995 -3.08620000 8.67889977 110 110 110
6.99949980 -3.08829999 8.74209976 104 104 104
6.95870018 -3.09080005 8.70079994 97 97 97
6.93319988 -3.10050011 8.67899990 128 128 128
6.91219997 -3.11170006 8.66240025 125 125 125
6.89319992 -3.12369990 8.64850044 144 144 144
6.88030005 -3.13899994 8.64249992 154 154 154
6.87260008 -3.15630007 8.64290047 147 147 147
6.86679983 -3.17449999 8.64570045 144 144 144
6.86119986 -3.19250011 8.64879990 150 150 150
6.85550022 -3.21090007 8.65200043 154 154 154
6.85790014 -3.23280001 8.66520023 140 140 140
6.86700010 -3.25810003 8.68719959 115 115 115
6.88250017 -3.28690004 8.71749973 123 123 123
6.89270020 -3.31250000 8.74090004 116 116 116
8.87679958 -1.68599999 10.21490002 114 114 114
8.88910007 -1.96619999 10.29720020 0 0 0
7.01440001 -3.08820009 8.68929958 66 66 66
6.96210003 -3.08559990 8.63409996 101 101 101
7.00829983 -3.09240007 8.70989990 73 73 73
6.95970011 -3.09150004 8.65919971 110 110 110
6.92869997 -3.09879994 8.63059998 132 132 132
6.90929985 -3.11059999 8.61610031 139 139 139
6.88999987 -3.12240005 8.60190010 160 160 160
6.87750006 -3.13790011 8.59640026 163 163 163
6.86789989 -3.15440011 8.59449959 157 157 157
6.86380005 -3.17330003 8.59930038 142 142 142
6.85920000 -3.19190001 8.60369968 154 154 154
6.85459995 -3.21070004 8.60820007 148 148 148
6.85640001 -3.23239994 8.62069988 122 122 122
6.86700010 -3.25830007 8.64430046 104 104 104
6.89830017 -3.29469991 8.69449997 126 126 126
8.90859985 -1.69250000 10.20110035 67 67 67
7.01289988 -3.08769989 8.64480019 66 66 66
6.95319986 -3.08189988 8.58069992 114 114 114
7.01200008 -3.09430003 8.67160034 53 53 53
6.95349979 -3.08899999 8.60890007 104 104 104
6.92449999 -3.09710002 8.58279991 147 147 147
6.90220022 -3.10759997 8.56480026 141 141 141
6.88420010 -3.11999989 8.55220032 150 150 150
6.87349987 -3.13630009 8.54899979 169 169 169
6.86539984 -3.15350008 8.54889965 168 168 168
6.86110020 -3.17230010 8.55360031 147 147 147
6.85769987 -3.19140005 8.55939960 159 159 159
6.85340023 -3.21029997 8.56420040 167 167 167
6.85400009 -3.23149991 8.57509995 126 126 126
6.86409998 -3.25720000 8.59809971 104 104 104
6.90579987 -3.29850006 8.66100025 96 96 96
4.86000013 -3.01580000 6.47690010 152 152 152
7.00790024 -3.08570004 8.59619999 23 23 23
6.94519997 -3.07850003 8.52869987 127 127 127
7.00540018 -3.09159994 8.62069988 43 43 43
6.94390011 -3.08500004 8.55459976 117 117 117
6.91510010 -3.09310007 8.52890015 123 123 123
6.89599991 -3.10509992 8.51500034 137 137 137
6.88089991 -3.11879992 8.50609970 172 172 172
6.86810017 -3.13409996 8.50020027 149 149 149
6.86180019 -3.15199995 8.50230026 173 173 173
6.85750008 -3.17090011 8.50699997 173 173 173
6.85599995 -3.19079995 8.51509953 179 179 179
6.85179996 -3.20980000 8.52000046 144 144 144
6.85540009 -3.23239994 8.53470039 143 143 143
6.86399984 -3.25740004 8.55560017 110 110 110
6.90929985 -3.30040002 8.62269974 68 68 68
6.97429991 -3.07110000 8.51299953 44 44 44
6.93599987 -3.07459998 8.47560024 125 125 125
6.99310017 -3.08640003 8.56330013 0 0 0
6.93580008 -3.08159995 8.50259972 106 106 106
6.90990019 -3.09100008 8.48050022 122 122 122
6.89270020 -3.10380006 8.46899986 141 141 141
6.87680006 -3.11710000 8.45909977 146 146 146
6.86630011 -3.13350010 8.45610046 153 153 153
6.85970020 -3.15129995 8.45790005 158 158 158
6.85809994 -3.17129993 8.46580029 162 162 162
6.85669994 -3.19129992 8.47399998 157 157 157
6.85080004 -3.20950007 8.47679996 160 160 160
6.85440016 -3.23210001 8.49129963 133 133 133
6.86770010 -3.25929999 8.51809978 95 95 95
7.89109993 -3.96609998 9.89780045 0 0 0
6.95930004 -3.06459999 8.45300007 72 72 72
6.92719984 -3.07080007 8.42329979 140 140 140
6.96439981 -3.07399988 8.48610020 44 44 44
6.92710018 -3.07789993 8.44999981 122 122 122
6.90310001 -3.08820009 8.43050003 178 178 178
6.88759995 -3.10179996 8.42109966 165 165 165
6.87270021 -3.11549997 8.41240025 165 165 165
6.86269999 -3.13210011 8.41020012 160 160 160
6.85629988 -3.15000010 8.41209984 137 137 137
6.85540009 -3.17030001 8.42090034 147 147 147
6.85379982 -3.19020009 8.42879963 146 146 146
6.84959984 -3.20919991 8.43369961 126 126 126
6.85519981 -3.23270011 8.45059967 102 102 102
6.87060022 -3.26090002 8.47980022 78 78 78
4.86409998 -3.01869988 6.38700008 157 157 157
6.94500017 -3.05850005 8.39420033 112 112 112
6.92030001 -3.06789994 8.37370014 152 152 152
6.94670010 -3.06640005 8.42290020 83 83 83
6.91800022 -3.07410002 8.39750004 140 140 140
6.89830017 -3.08629990 8.38329983 164 164 164
6.88269997 -3.09980011 8.37370014 170 170 170
6.86959982 -3.11430001 8.36730003 177 177 177
6.85790014 -3.13010001 8.36289978 186 186 186
6.85510015 -3.14969993 8.36929989 182 182 182
6.85370016 -3.16980004 8.37740040 153 153 153
6.85220003 -3.18969989 8.38539982 161 161 161
6.85120010 -3.21020007 8.39410019 146 146 146
6.85650015 -3.23350000 8.41059971 99 99 99
6.87360001 -3.26259995 8.44169998 86 86 86
6.99620008 -3.05990005 8.40509987 0 0 0
6.93739986 -3.05530000 8.34399986 131 131 131
6.91450024 -3.06550002 8.32559967 163 163 163
6.93580008 -3.06180000 8.36839962 120 120 120
6.91340017 -3.07229996 8.35070038 158 158 158
6.89300013 -3.08410001 8.33549976 172 172 172
6.87739992 -3.09759998 8.32610035 172 172 172
6.86600018 -3.11290002 8.32180023 179 179 179
6.85640001 -3.12960005 8.31989956 187 187 187
6.85449982 -3.14960003 8.32740021 180 180 180
6.85389996 -3.17009997 8.33650017 156 156 156
6.85230017 -3.18989992 8.34420013 171 171 171
6.85139990 -3.21050000 8.35309982 172 172 172
6.85780001 -3.23440003 8.37090015 128 128 128
6.96960020 -3.04839993 8.33209991 24 24 24
6.93030024 -3.05229998 8.29450035 154 154 154
6.90920019 -3.06329989 8.27849960 176 176 176
6.97459984 -3.05730009 8.36400032 0 0 0
6.92969990 -3.05929995 8.31989956 130 130 130
6.90649986 -3.06949997 8.30130005 163 163 163
6.88859987 -3.08240008 8.28940010 169 169 169
6.87449980 -3.09660006 8.28180027 181 181 181
6.86299992 -3.11179996 8.27729988 183 183 183
6.85589981 -3.12960005 8.27849960 187 187 187
6.85319996 -3.14919996 8.28499985 180 180 180
6.85430002 -3.17039990 8.29590034 153 153 153
6.85279989 -3.19039989 8.30379963 174 174 174
6.85279989 -3.21140003 8.31369972 169 169 169
4.90320015 -3.01049995 6.32480001 162 162 162
6.95469999 -3.04209995 8.27359962 93 93 93
6.92570019 -3.05040002 8.24839973 140 140 140
6.90350008 -3.06089997 8.23120022 162 162 162
6.95699978 -3.04990005 8.30189991 49 49 49
6.92420006 -3.05719995 8.27260017 129 129 129
6.90049982 -3.06699991 8.25339985 153 153 153
6.88450003 -3.08080006 8.24370003 173 173 173
6.87160015 -3.09540009 8.23750019 177 177 177
6.86019993 -3.11069989 8.23330021 184 184 184
6.85400009 -3.12899995 8.23560047 187 187 187
6.85340023 -3.14949989 8.24440002 169 169 169
6.85500002 -3.17100000 8.25609970 170 170 170
6.85370016 -3.19109988 8.26420021 181 181 181
6.85629988 -3.21320009 8.27709961 160 160 160
5.03649998 -2.95560002 6.38719988 77 77 77
6.94640017 -3.03859997 8.22329998 107 107 107
6.89849997 -3.05890012 8.18490028 148 148 148
6.94659996 -3.04559994 8.24890041 132 132 132
6.91540003 -3.05349994 8.22150040 106 106 106
6.89650011 -3.06550002 8.20810032 144 144 144
6.88030005 -3.07920003 8.19830036 156 156 156
6.86709976 -3.09369993 8.19180012 165 165 165
6.85769987 -3.10980010 8.18980026 178 178 178
6.84950018 -3.12709999 8.18970013 163 163 163
6.84789991 -3.14720011 8.19740009 120 120 120
6.85239983 -3.17000008 8.21240044 142 142 142
6.85169983 -3.19029999 8.22119999 175 175 175
6.85680008 -3.21370006 8.23709965 148 148 148
6.86899996 -3.24029994 8.26159954 84 84 84
5.05830002 -2.96840000 6.38329983 134 134 134
6.97959995 -3.03220010 8.21280003 60 60 60
6.94829988 -3.03959990 8.18519974 129 129 129
6.90140009 -3.06030011 8.14830017 158 158 158
6.97200012 -3.03620005 8.22920036 4 4 4
6.94099998 -3.04329991 8.20180035 90 90 90
6.89349985 -3.06439996 8.16429996 144 144 144
6.86679983 -3.09369993 8.15120029 166 166 166
6.85769987 -3.10999990 8.14970016 178 178 178
6.85059977 -3.12789989 8.15089989 186 186 186
6.84779978 -3.14739990 8.15699959 170 170 170
6.84980011 -3.16899991 8.16899967 167 167 167
6.84910011 -3.18930006 8.17770004 185 185 185
6.85559988 -3.21329999 8.19519997 147 147 147
6.87080002 -3.24130011 8.22319984 99 99 99
5.09359980 -2.98930001 6.39629984 167 167 167
6.98400021 -3.03430009 8.17780018 64 64 64
6.93440008 -3.05469990 8.13809967 117 117 117
6.98129988 -3.04049993 8.19979954 73 73 73
6.89650011 -3.06590009 8.12769985 137 137 137
6.88089991 -3.07990003 8.11870003 158 158 158
6.86560011 -3.09340000 8.10980034 154 154 154
6.85629988 -3.10960007 8.10799980 162 162 162
6.84899998 -3.12730002 8.10890007 154 154 154
6.84740019 -3.14739990 8.11660004 168 168 168
6.85179996 -3.17020011 8.13129997 150 150 150
6.85120010 -3.19050002 8.14009953 169 169 169
6.85540009 -3.21339989 8.15480042 144 144 144
6.87239981 -3.24230003 8.18470001 72 72 72
6.98689985 -3.03570008 8.14120007 92 92 92
6.92280006 -3.04970002 8.08479977 124 124 124
6.97930002 -3.03979993 8.15719986 76 76 76
6.91909981 -3.05579996 8.10540009 115 115 115
6.88040018 -3.07990003 8.07830048 132 132 132
6.85599995 -3.10969996 8.06789970 172 172 172
6.84929991 -3.12770009 8.06960011 170 170 170
6.86679983 -3.21900010 8.12829971 127 127 127
6.87639999 -3.24440002 8.14929962 46 46 46
5.22319984 -2.99710011 6.45769978 156 156 156
6.92150021 -3.04929996 8.04380035 140 140 140
6.98699999 -3.04340005 8.12619972 88 88 88
6.91720009 -3.05520010 8.06350040 108 108 108
6.84280014 -3.12500000 8.02239990 148 148 148
6.85200024 -3.21230006 8.07100010 120 120 120
5.24170017 -3.00780010 6.44869995 139 139 139
6.95480013 -3.04299998 8.03380013 83 83 83
6.92220020 -3.04979992 8.00520039 128 128 128
6.90030003 -3.06040001 7.98869991 100 100 100
6.95020008 -3.04830003 8.05270004 85 85 85
6.91739988 -3.05550003 8.02410030 94 94 94
6.89529991 -3.06609988 8.00749969 137 137 137
6.86940002 -3.22059989 8.05189991 108 108 108
5.51130009 -2.91170001 6.61740017 9 9 9
6.91779995 -3.05590010 7.98530006 97 97 97
6.83979988 -3.16540003 7.95900011 130 130 130
6.84490013 -3.18840003 7.97429991 144 144 144
8.73019981 -2.91969991 9.63790035 174 174 174
6.92010021 -3.04920006 7.92479992 139 139 139
6.89860010 -3.05990005 7.90899992 131 131 131
6.91629982 -3.05550003 7.94449997 123 123 123
6.89429998 -3.06599998 7.92799997 123 123 123
6.87599993 -3.07879996 7.91599989 138 138 138
5.53809977 -2.96199989 6.60239983 116 116 116
6.92210007 -3.05019999 7.88850021 129 129 129
6.89729977 -3.05949998 7.86880016 138 138 138
6.91730022 -3.05609989 7.90670013 135 135 135
6.89419985 -3.06620002 7.88899994 147 147 147
6.87480021 -3.07850003 7.87589979 108 108 108
6.86170006 -3.09299994 7.86980009 133 133 133
6.84999990 -3.10800004 7.86530018 104 104 104
6.83669996 -3.12299991 7.85930014 94 94 94
6.83199978 -3.14159989 7.86310005 143 143 143
6.83139992 -3.16199994 7.87160015 109 109 109
6.24109983 -2.98399997 7.23449993 2 2 2
5.72940016 -2.79220009 6.66580009 127 127 127
5.55089998 -2.98629999 6.59390020 166 166 166
8.77260017 -2.86269999 9.56630039 173 173 173
6.96350002 -3.04740000 7.88780022 111 111 111
6.89860010 -3.06019998 7.83190012 132 132 132
6.95690012 -3.05209994 7.90369987 89 89 89
6.89300013 -3.06590009 7.84899998 100 100 100
6.87419987 -3.07839990 7.83659983 116 116 116
6.85760021 -3.09130001 7.82660007 116 116 116
6.84480000 -3.10590005 7.82089996 121 121 121
6.83440018 -3.12220001 7.81820011 131 131 131
6.82830000 -3.14010000 7.82030010 146 146 146
6.82520008 -3.15930009 7.82600021 118 118 118
6.82709980 -3.18070006 7.83729982 101 101 101
5.75920010 -2.80690002 6.66760015 149 149 149
5.84200001 -3.12479997 6.89669991 91 91 91
5.83319998 -3.13829994 6.89529991 101 101 101
6.96770000 -3.04940009 7.85410023 94 94 94
6.92579985 -3.05209994 7.81570005 108 108 108
6.89760017 -3.05990005 7.79250002 96 96 96
6.96010017 -3.05369997 7.86859989 71 71 71
6.91909981 -3.05730009 7.83150005 102 102 102
6.89130020 -3.06539989 7.80880022 102 102 102
6.87150002 -3.07739997 7.79519987 117 117 117
6.85550022 -3.09060001 7.78590012 139 139 139
6.84270000 -3.10509992 7.78020000 154 154 154
6.83209991 -3.12129998 7.77729988 147 147 147
6.82210016 -3.13750005 7.77500010 153 153 153
6.81659985 -3.15549994 7.77780008 143 143 143
6.81939983 -3.17729998 7.79010010 119 119 119
6.82600021 -3.20129991 7.80700016 132 132 132
6.83080006 -3.22429991 7.82180023 109 109 109
5.83330011 -3.12030005 6.85270023 66 66 66
5.83150005 -3.13750005 6.85949993 134 134 134
5.60550022 -3.10700011 6.63940001 149 149 149
6.97389984 -3.05229998 7.82270002 76 76 76
6.92770004 -3.05310011 7.77979994 66 66 66
6.89879990 -3.06060004 7.75579977 136 136 136
6.96400023 -3.05570006 7.83459997 83 83 83
6.91940022 -3.05769992 7.79349995 94 94 94
6.89219999 -3.06599998 7.77150011 135 135 135
6.87099981 -3.07739997 7.75649977 131 131 131
6.85410023 -3.09010005 7.74609995 143 143 143
6.84049988 -3.10430002 7.73960018 141 141 141
6.82579994 -3.11859989 7.73210001 147 147 147
6.81570005 -3.13470006 7.72970009 138 138 138
6.81080008 -3.15310001 7.73320007 118 118 118
6.80910015 -3.17280006 7.74030018 110 110 110
6.81909990 -3.19819999 7.76090002 102 102 102
6.82170010 -3.22020006 7.77320004 109 109 109
5.84200001 -3.12509990 6.82929993 140 140 140
5.63500023 -3.12350011 6.64160013 158 158 158
8.83559990 -2.83529997 9.47869968 190 190 190
6.97739983 -3.05399990 7.78840017 74 74 74
6.93149996 -3.05489993 7.74599981 87 87 87
6.89809990 -3.06040001 7.71719980 135 135 135
6.97009993 -3.05859995 7.80310011 72 72 72
6.92100000 -3.05859995 7.75719976 41 41 41
6.89109993 -3.06570005 7.73220015 137 137 137
6.86719990 -3.07590008 7.71430016 114 114 114
6.85120010 -3.08909988 7.70499992 122 122 122
6.83440018 -3.10179996 7.69490004 142 142 142
6.81899977 -3.11570001 7.68660021 134 134 134
6.80639982 -3.13070011 7.68139982 129 129 129
6.79909992 -3.14779997 7.68209982 116 116 116
6.79780006 -3.16770005 7.68970013 129 129 129
6.80159998 -3.19020009 7.70310020 91 91 91
6.84340000 -3.23060012 7.75969982 98 98 98
5.84539986 -3.12709999 6.79979992 121 121 121
5.66940022 -3.14269996 6.64949989 137 137 137
5.55100012 -3.27740002 6.61359978 64 64 64
6.98990011 -3.05960011 7.76429987 43 43 43
6.93459988 -3.05640006 7.71169996 48 48 48
6.89659977 -3.05990005 7.67789984 121 121 121
6.97679996 -3.06170011 7.77229977 55 55 55
6.92710018 -3.06150007 7.72599983 67 67 67
6.88850021 -3.06480002 7.69150019 115 115 115
6.86549997 -3.07529998 7.67469978 113 113 113
6.84439993 -3.08620000 7.65969992 114 114 114
6.82690001 -3.09859991 7.64879990 122 122 122
6.81250000 -3.11299992 7.64169979 142 142 142
6.79930019 -3.12759995 7.63579988 110 110 110
6.79209995 -3.14479995 7.63670015 111 111 111
6.79099989 -3.16470003 7.64429998 145 145 145
6.79680014 -3.18820000 7.65999985 89 89 89
6.80859995 -3.23519993 7.69159985 109 109 109
5.83869982 -3.12360001 6.75869989 101 101 101
5.70149994 -3.16059995 6.65439987 165 165 165
5.57240009 -3.29010010 6.60650015 168 168 168
6.93779993 -3.05800009 7.67749977 71 71 71
6.89429998 -3.05900002 7.63780022 87 87 87
6.97230005 -3.05990005 7.72930002 0 0 0
6.93310022 -3.06439996 7.69490004 63 63 63
6.88819981 -3.06489992 7.65360022 99 99 99
6.86070013 -3.07340002 7.63180017 109 109 109
6.84079981 -3.08480000 7.61819983 115 115 115
6.82539988 -3.09809995 7.60970020 128 128 128
6.80749989 -3.11089993 7.59870005 103 103 103
6.79780006 -3.12709999 7.59679985 161 161 161
6.79199982 -3.14490008 7.59910011 149 149 149
6.80530024 -3.17160010 7.62290001 133 133 133
5.80340004 -3.14199996 6.70310020 113 113 113
5.78179979 -3.14930010 6.68750000 127 127 127
5.76709986 -3.15960002 6.67939997 144 144 144
5.74819994 -3.16829991 6.66690016 139 139 139
6.94379997 -3.06080008 7.64669991 77 77 77
6.89519978 -3.05960011 7.60160017 70 70 70
6.93510008 -3.06550002 7.65939999 68 68 68
6.89010000 -3.06590009 7.61819983 97 97 97
6.85930014 -3.07299995 7.59280014 92 92 92
6.83659983 -3.08310008 7.57630014 109 109 109
6.81930017 -3.09549999 7.56570005 119 119 119
6.80760002 -3.11109996 7.56160021 148 148 148
6.79479980 -3.12590003 7.55620003 121 121 121
6.79029989 -3.20619988 7.58699989 90 90 90
6.79650021 -3.22979999 7.60300016 118 118 118
6.80900002 -3.25699997 7.62639999 81 81 81
6.16200018 -3.19819999 7.01630020 10 10 10
6.13549995 -3.20390010 6.99529982 180 180 180
5.86369991 -3.17479992 6.73960018 0 0 0
5.83979988 -3.18109989 6.72149992 132 132 132
6.94619989 -3.06200004 7.61210012 102 102 102
6.89449978 -3.05940008 7.56379986 71 71 71
6.94049978 -3.06809998 7.62779999 64 64 64
6.88789988 -3.06509995 7.57849979 71 71 71
6.85739994 -3.07229996 7.55359983 110 110 110
6.86180019 -3.09470010 7.56699991 91 91 91
6.81790018 -3.09509993 7.52710009 113 113 113
6.81020021 -3.11249995 7.52750015 130 130 130
6.78660011 -3.14289999 7.51910019 151 151 151
6.78079987 -3.16059995 7.52139997 133 133 133
6.79080009 -3.22729993 7.55950022 113 113 113
6.80049992 -3.25309992 7.57959986 79 79 79
6.82350016 -3.28449988 7.61420012 64 64 64
6.15850019 -3.19650006 6.97800016 51 51 51
6.14440012 -3.20869994 6.97130013 185 185 185
5.84880018 -3.18610001 6.69890022 0 0 0
5.84000015 -3.19980001 6.69789982 160 160 160
6.95209980 -3.06469989 7.58139992 71 71 71
6.89879990 -3.06139994 7.53149986 62 62 62
6.94420004 -3.06990004 7.59460020 73 73 73
6.89060020 -3.06649995 7.54440022 72 72 72
6.81330013 -3.11420012 7.49410009 144 144 144
6.79360008 -3.12579989 7.48120022 146 146 146
6.78520012 -3.14240003 7.48059988 163 163 163
6.77740002 -3.15919995 7.48089981 154 154 154
6.77699995 -3.17969990 7.48929977 140 140 140
6.77899981 -3.20120001 7.50040007 135 135 135
6.82730007 -3.28649998 7.58109999 69 69 69
6.16319990 -3.19910002 6.94910002 124 124 124
6.15570021 -3.21479988 6.94990015 155 155 155
5.86450005 -3.21339989 6.69299984 0 0 0
5.85690022 -3.22860003 6.69379997 165 165 165
6.95779991 -3.06730008 7.55049992 13 13 13
6.95030022 -3.07279992 7.56409979 57 57 57
6.92110014 -3.08030009 7.54069996 52 52 52
6.83769989 -3.08419991 7.46680021 143 143 143
6.81920004 -3.09610009 7.45510006 135 135 135
6.80520010 -3.11069989 7.44859982 163 163 163
6.79320002 -3.12570000 7.44409990 152 152 152
6.78270006 -3.14140010 7.44140005 147 147 147
6.77580023 -3.15860009 7.44239998 154 154 154
6.77299976 -3.17799997 7.44829988 125 125 125
6.77449989 -3.19930005 7.45870018 124 124 124
6.78109980 -3.22309995 7.47489977 106 106 106
6.78730011 -3.24710011 7.49100018 88 88 88
6.17240000 -3.20409989 6.92549992 185 185 185
6.18330002 -3.22930002 6.94680023 118 118 118
5.87139988 -3.25550008 6.68660021 165 165 165
5.65730000 -3.69160008 6.73010015 81 81 81
6.91239977 -3.06769991 7.47289991 57 57 57
6.91300011 -3.07690001 7.49510002 71 71 71
6.86059999 -3.07439995 7.44680023 114 114 114
6.83690023 -3.08400011 7.42939997 145 145 145
6.81729984 -3.09540009 7.41650009 147 147 147
6.80249977 -3.10960007 7.40920019 145 145 145
6.79139996 -3.12509990 7.40570021 161 161 161
6.78009987 -3.14039993 7.40210009 148 148 148
6.77320004 -3.15759993 7.40320015 138 138 138
6.76819992 -3.17589998 7.40660000 133 133 133
6.76870012 -3.19670010 7.41590023 121 121 121
6.77689981 -3.22129989 7.43380022 124 124 124
6.78340006 -3.24539995 7.45009995 89 89 89
6.85830021 -3.30180001 7.54129982 57 57 57
6.19980001 -3.17880011 6.90390015 179 179 179
6.19589996 -3.19709992 6.90889978 139 139 139
5.89309978 -3.26760006 6.67840004 148 148 148
6.91660023 -3.06970000 7.44099998 76 76 76
6.90420008 -3.07319999 7.44890022 69 69 69
6.86560011 -3.07680011 7.41569996 81 81 81
6.83430004 -3.08310008 7.39020014 155 155 155
6.81710005 -3.09549999 7.38000011 147 147 147
6.80100012 -3.10910010 7.37130022 128 128 128
6.78989983 -3.12470007 7.36789989 148 148 148
6.77880001 -3.14000010 7.36450005 103 103 103
6.77059984 -3.15660000 7.36420012 133 133 133
6.76709986 -3.17560005 7.36910009 144 144 144
6.76420021 -3.19479990 7.37470007 84 84 84
6.77019978 -3.21830010 7.39010000 117 117 117
6.77640009 -3.24230003 7.40600014 137 137 137
6.81199980 -3.27970004 7.45370007 60 60 60
6.22860003 -3.15479994 6.88439989 155 155 155
6.22069979 -3.17020011 6.88450003 182 182 182
5.89979982 -3.29049993 6.66260004 180 180 180
6.91699982 -3.06999993 7.40500021 68 68 68
6.90740013 -3.07480001 7.41580009 74 74 74
6.86429977 -3.07649994 7.37809992 87 87 87
6.83620024 -3.08410001 7.35610008 132 132 132
6.81519985 -3.09489989 7.34189987 136 136 136
6.80079985 -3.10920000 7.33500004 138 138 138
6.78649998 -3.12319994 7.32810020 155 155 155
6.77650023 -3.13910007 7.32600021 163 163 163
6.76700020 -3.15510011 7.32420015 150 150 150
6.76420021 -3.17440009 7.32989979 157 157 157
6.76189995 -3.19390011 7.33610010 125 125 125
6.76359987 -3.21530008 7.34679985 130 130 130
6.77260017 -3.24060011 7.36560011 108 108 108
6.79169989 -3.27010012 7.39510012 69 69 69
6.24770021 -3.14479995 6.86289978 180 180 180
5.95139980 -3.30019999 6.67869997 114 114 114
6.92829990 -3.07520008 7.38100004 82 82 82
6.90560007 -3.07419991 7.37769985 92 92 92
6.86920023 -3.07890010 7.34719992 51 51 51
6.83680010 -3.08459997 7.32079983 126 126 126
6.81680012 -3.09579992 7.30760002 143 143 143
6.79729986 -3.10780001 7.29530001 101 101 101
6.78310013 -3.12190008 7.28859997 129 129 129
6.77339983 -3.13790011 7.28669977 138 138 138
6.76520014 -3.15440011 7.28639984 156 156 156
6.76000023 -3.17260003 7.28950024 146 146 146
6.75610018 -3.19129992 7.29400015 134 134 134
6.75969982 -3.21359992 7.30660009 137 137 137
6.76900005 -3.23909998 7.32569981 117 117 117
6.77379990 -3.26169991 7.33960009 106 106 106
6.27510023 -3.11940002 6.84180021 204 204 204
6.26709986 -3.13459992 6.84149981 170 170 170
6.93470001 -3.07820010 7.35169983 62 62 62
6.91769981 -3.07979989 7.35440016 89 89 89
6.87360001 -3.08100009 7.31589985 72 72 72
6.83620024 -3.08450007 7.28429985 113 113 113
6.81239986 -3.09400010 7.26730013 138 138 138
6.79740000 -3.10800004 7.25969982 154 154 154
6.78380013 -3.12240005 7.25379992 143 143 143
6.77190018 -3.13739991 7.24949980 166 166 166
6.76219988 -3.15319991 7.24760008 172 172 172
6.75509977 -3.17050004 7.24849987 159 159 159
6.75430012 -3.19070005 7.25629997 154 154 154
6.75600004 -3.21210003 7.26690006 128 128 128
6.76329994 -3.23659992 7.28369999 116 116 116
6.77139997 -3.26069999 7.30109978 93 93 93
6.30210018 -3.09299994 6.82019997 149 149 149
6.29330015 -3.10840011 6.81920004 211 211 211
6.92420006 -3.07369995 7.30480003 20 20 20
6.47949982 -2.82640004 6.83160019 156 156 156
6.92740011 -3.08430004 7.32859993 48 48 48
6.87419987 -3.08150005 7.28070021 130 130 130
6.83960009 -3.08629990 7.25229979 93 93 93
6.81339979 -3.09459996 7.23260021 145 145 145
6.79680014 -3.10800004 7.22359991 154 154 154
6.78039980 -3.12100005 7.21460009 167 167 167
6.76830006 -3.13590002 7.21019983 159 159 159
6.76109982 -3.15289998 7.21089983 169 169 169
6.75430012 -3.17030001 7.21220016 165 165 165
6.74940014 -3.18849993 7.21560001 139 139 139
6.75110006 -3.20989990 7.22609997 136 136 136
6.75790024 -3.23420000 7.24219990 100 100 100
6.76469994 -3.25769997 7.25810003 110 110 110
6.31799984 -3.08179998 6.79559994 168 168 168
6.18410015 -3.49020004 6.86730003 55 55 55
6.84060001 -3.08690000 7.21780014 103 103 103
6.81320000 -3.09470010 7.19700003 151 151 151
6.79400015 -3.10689998 7.18529987 124 124 124
6.77950001 -3.12080002 7.17829990 128 128 128
6.76739979 -3.13569999 7.17379999 150 150 150
6.75719976 -3.15129995 7.17150021 162 162 162
6.74860001 -3.16790009 7.17089987 150 150 150
6.74459982 -3.18650007 7.17519999 143 143 143
6.74620008 -3.20779991 7.18540001 133 133 133
6.75019979 -3.23070002 7.19850016 108 108 108
6.33790016 -3.07179999 6.77519989 151 151 151
6.20599985 -3.50270009 6.85780001 188 188 188
5.90939999 -3.39359999 6.55810022 161 161 161
6.88070011 -3.08480000 7.21640015 98 98 98
6.75519991 -3.10980010 7.11749983 142 142 142
6.76380014 -3.13420010 7.13490009 132 132 132
6.75409985 -3.15000010 7.13299990 131 131 131
6.74639988 -3.16700006 7.13339996 136 136 136
6.74230003 -3.18560004 7.13759995 127 127 127
6.70340014 -3.18759990 7.10489988 81 81 81
6.36229992 -3.04520011 6.75159979 151 151 151
6.35540009 -3.06089997 6.75239992 124 124 124
6.21740007 -3.50929999 6.83669996 0 0 0
6.06750011 -3.81150007 6.86299992 89 89 89
6.88079977 -3.08500004 7.18120003 95 95 95
6.84250021 -3.08809996 7.14930010 69 69 69
6.80810022 -3.09279990 7.12139988 96 96 96
6.78770018 -3.10439992 7.10850000 120 120 120
6.62970018 -3.11240005 6.97559977 85 85 85
6.43870020 -3.04229999 6.78280020 105 105 105
6.37860012 -3.03329992 6.72749996 156 156 156
6.75040007 -3.25130010 7.13679981 103 103 103
6.77190018 -3.28250003 7.16830015 63 63 63
6.87709999 -3.08360004 7.14209986 84 84 84
6.84159994 -3.08789992 7.11329985 61 61 61
6.80779982 -3.09290004 7.08620024 95 95 95
6.78690004 -3.10419989 7.07280016 137 137 137
6.77309990 -3.11840010 7.06659985 148 148 148
6.39860010 -3.00410008 6.69950008 141 141 141
6.39379978 -3.02119994 6.70249987 136 136 136
6.73299980 -3.22300005 7.07520008 129 129 129
6.74420023 -3.24850011 7.09539986 113 113 113
6.76009989 -3.27699995 7.12080002 77 77 77
6.26450014 -3.51530004 6.81150007 169 169 169
6.88259983 -3.08620000 7.11280012 57 57 57
6.84130001 -3.08800006 7.07810020 53 53 53
6.80649996 -3.09249997 7.05009985 114 114 114
6.78429985 -3.10319996 7.03539991 128 128 128
6.76760006 -3.11610007 7.02629995 139 139 139
6.48839998 -3.00710011 6.74429989 109 109 109
6.41260004 -2.99130011 6.67329979 147 147 147
6.40990019 -3.00950003 6.67840004 144 144 144
6.40969992 -3.02889991 6.68620014 124 124 124
6.72590017 -3.19889998 7.02449989 132 132 132
6.72559977 -3.21959996 7.03280020 109 109 109
6.73769999 -3.24550009 7.05369997 101 101 101
6.74900007 -3.27169991 7.07420015 102 102 102
6.88670015 -3.08820009 7.08209991 87 87 87
6.83939981 -3.08730006 7.04139996 63 63 63
6.80550003 -3.09220004 7.01450014 127 127 127
6.78410006 -3.10330009 7.00070000 136 136 136
6.44890022 -2.96950006 6.66260004 124 124 124
6.42999983 -2.98020005 6.65089989 167 167 167
6.46509981 -3.01589990 6.69500017 119 119 119
6.73299980 -3.16140008 6.98070002 137 137 137
6.72660017 -3.17880011 6.98239994 168 168 168
6.71670008 -3.21550012 6.98899984 139 139 139
6.73799992 -3.24589992 7.01949978 107 107 107
6.75199986 -3.27340007 7.04269981 108 108 108
5.69409990 -4.22489977 6.65969992 0 0 0
6.88570023 -3.08800006 7.04640007 34 34 34
6.83729982 -3.08660007 7.00479984 76 76 76
6.80299997 -3.09130001 6.97760010 98 98 98
6.46180010 -2.95600009 6.63539982 119 119 119
6.44350004 -2.96720004 6.62430000 174 174 174
6.54400015 -3.03320003 6.73549986 71 71 71
6.72020006 -3.13509989 6.92500019 118 118 118
6.72639990 -3.17890000 6.94789982 157 157 157
6.72240019 -3.19749999 6.95209980 155 155 155
6.75089979 -3.27300000 7.00699997 118 118 118
6.77360010 -3.30520010 7.03929996 72 72 72
6.33890009 -3.53699994 6.78200006 191 191 191
6.88129997 -3.08620000 7.00729990 97 97 97
6.83890009 -3.08750010 6.97209978 57 57 57
6.50080013 -2.95409989 6.63490009 70 70 70
6.45949984 -2.95519996 6.60059977 173 173 173
6.62690020 -3.05180001 6.77950001 74 74 74
6.73559999 -3.12220001 6.89870024 140 140 140
6.73619986 -3.14269996 6.90740013 138 138 138
6.62130022 -3.10929990 6.79769993 169 169 169
6.72300005 -3.17750001 6.91029978 153 153 153
6.72259998 -3.19779992 6.91820002 140 140 140
6.72359991 -3.21919990 6.92770004 136 136 136
6.74930000 -3.27239990 6.97100019 114 114 114
6.76859999 -3.30299997 6.99970007 36 36 36
6.88710022 -3.08899999 6.97879982 57 57 57
6.82429981 -3.08100009 6.92299986 70 70 70
6.47349977 -2.94190001 6.57460022 164 164 164
6.75489998 -3.11100006 6.87650013 104 104 104
6.74209976 -3.12540007 6.87150002 127 127 127
6.73150015 -3.14070010 6.86870003 122 122 122
6.72289991 -3.15720010 6.86819983 125 125 125
6.64410019 -3.14039993 6.79570007 139 139 139
6.71680021 -3.19519997 6.87830019 153 153 153
6.72030020 -3.21770000 6.89029980 124 124 124
6.73159981 -3.24329996 6.91009998 106 106 106
5.92609978 -3.86829996 6.54890013 159 159 159
5.77379990 -4.19479990 6.60489988 52 52 52
6.87779999 -3.08500004 6.93520021 47 47 47
6.49310017 -2.93169999 6.55459976 139 139 139
6.48409986 -2.94689989 6.55299997 176 176 176
6.76879978 -3.09699988 6.84880018 112 112 112
6.75099993 -3.10940003 6.83879995 134 134 134
6.73909998 -3.12420011 6.83470011 135 135 135
6.72790003 -3.13930011 6.83139992 118 118 118
6.72189999 -3.15689993 6.83339977 128 128 128
6.71460009 -3.17389989 6.83409977 121 121 121
6.68130016 -3.17849994 6.80840015 158 158 158
6.71969986 -3.21770000 6.85589981 110 110 110
6.72690010 -3.24119997 6.87139988 154 154 154
5.93839979 -3.75139999 6.46770000 142 142 142
5.98950005 -3.90980005 6.58650017 141 141 141
6.77190018 -3.03769994 6.79489994 0 0 0
6.50050020 -2.93519998 6.53000021 182 182 182
6.76270008 -3.09439993 6.80910015 127 127 127
6.74889994 -3.10859990 6.80310011 142 142 142
6.73559999 -3.12280011 6.79769993 99 99 99
6.72480011 -3.13800001 6.79470015 124 124 124
6.71869993 -3.15560007 6.79659986 125 125 125
6.71379995 -3.17370009 6.79969978 130 130 130
6.71210003 -3.19330001 6.80609989 134 134 134
6.69239998 -3.20469999 6.79449987 177 177 177
6.72800016 -3.24189997 6.83879995 141 141 141
6.74399996 -3.27029991 6.86339998 121 121 121
6.49809980 -3.17149997 6.62150002 193 193 193
6.52069998 -2.92519999 6.51060009 123 123 123
6.50950003 -2.93950009 6.50680017 158 158 158
6.78599977 -3.08450007 6.79090023 99 99 99
6.76140022 -3.09400010 6.77430010 118 118 118
6.74459982 -3.10680008 6.76539993 112 112 112
6.73169994 -3.12109995 6.76030016 153 153 153
6.72160006 -3.13660002 6.75799990 129 129 129
6.71439981 -3.15380001 6.75890017 108 108 108
6.71019983 -3.17219996 6.76270008 149 149 149
6.70699978 -3.19109988 6.76760006 125 125 125
6.71420002 -3.21539998 6.78319979 123 123 123
6.71960020 -3.23799992 6.79670000 166 166 166
6.72520018 -3.26139998 6.81069994 144 144 144
6.51569986 -3.18020010 6.60669994 152 152 152
6.42059994 -3.90179992 6.84980011 165 165 165
6.52790022 -2.92860007 6.48579979 138 138 138
6.52339983 -2.94589996 6.48859978 135 135 135
6.78350019 -3.08349991 6.75509977 130 130 130
6.75589991 -3.09170008 6.73549986 146 146 146
6.73969984 -3.10470009 6.72720003 152 152 152
6.72910023 -3.12010002 6.72450018 173 173 173
6.71740007 -3.13490009 6.72060013 161 161 161
6.71220016 -3.15289998 6.72349977 128 128 128
6.70849991 -3.17149997 6.72770023 148 148 148
6.70620012 -3.19090009 6.73350000 107 107 107
6.71169996 -3.21429992 6.74730015 101 101 101
6.72450018 -3.24060011 6.76819992 146 146 146
6.74249983 -3.26990008 6.79460001 107 107 107
6.72609997 -3.28309989 6.78660011 0 0 0
6.44820023 -3.91860008 6.84530020 134 134 134
6.53520012 -2.93199992 6.46110010 145 145 145
6.75769997 -3.05189991 6.68870020 73 73 73
6.77759981 -3.08100009 6.71600008 100 100 100
6.75110006 -3.08960009 6.69759989 132 132 132
6.73559999 -3.10299993 6.69010019 146 146 146
6.72410011 -3.11789989 6.68639994 155 155 155
6.71530008 -3.13409996 6.68550014 142 142 142
6.70809984 -3.15109992 6.68629980 152 152 152
6.70499992 -3.17009997 6.69119978 146 146 146
