-5.73869991 -5.51219988 10.04909992 62 62 62 -1055.000000
-5.72130013 -5.51480007 10.02330017 80 80 80 -767.000000
-5.70149994 -5.51669979 9.99590015 109 109 109 -303.000000
-5.69049978 -5.51529980 9.98429966 88 88 88 -639.000000
-5.67350006 -5.51240015 9.96780014 87 87 87 -655.000000
-5.66169977 -5.50969982 9.95740032 97 97 97 -495.000000
-5.64669991 -5.50670004 9.94359970 108 108 108 -319.000000
-5.63479996 -5.50269985 9.93509960 120 120 120 -127.000000
-5.62309980 -5.49650002 9.93039989 95 95 95 -527.000000
-5.61350012 -5.48880005 9.93060017 135 135 135 113.000000
-5.60290003 -5.48199987 9.92829990 121 121 121 -111.000000
-5.59200001 -5.47469997 9.92640018 105 105 105 -367.000000
-5.58370018 -5.46579981 9.93019962 113 113 113 -239.000000
-5.57340002 -5.45779991 9.93029976 137 137 137 145.000000
-5.56529999 -5.44829988 9.93529987 100 100 100 -447.000000
-5.55509996 -5.44119978 9.93420029 103 103 103 -399.000000
-5.54799986 -5.42969990 9.94369984 95 95 95 -527.000000
-5.54120016 -5.41790009 9.95409966 184 184 184 897.000000
-5.53660011 -5.40369987 9.97089958 92 92 92 -575.000000
-5.53210020 -5.38929987 9.98830032 94 94 94 -543.000000
-5.52540016 -5.37639999 10.00070000 127 127 127 -15.000000
-5.52519989 -5.35620022 10.03219986 158 158 158 481.000000
-5.52549982 -5.33419991 10.06729984 91 91 91 -591.000000
-5.53259993 -5.30359983 10.12419987 100 100 100 -447.000000
-7.79090023 -6.26830006 12.07699966 65 65 65 -1007.000000
-7.78959990 -6.25000000 12.09360027 75 75 75 -847.000000
-7.78119993 -6.20170021 12.12909985 86 86 86 -671.000000
-7.77309990 -6.17100000 12.14739990 75 75 75 -847.000000
-7.76060009 -6.12419987 12.17580032 97 97 97 -495.000000
-7.74240017 -6.08020020 12.19239998 93 93 93 -559.000000
-7.73740005 -6.06419992 12.20119953 93 93 93 -559.000000
-7.73050022 -6.04990005 12.20530033 106 106 106 -351.000000
-7.72370005 -6.03569984 12.20940018 114 114 114 -223.000000
-7.71579981 -6.02360010 12.20969963 114 114 114 -223.000000
-7.70100021 -5.99450016 12.21720028 96 96 96 -511.000000
-7.69309998 -5.98220015 12.21759987 80 80 80 -767.000000
-7.68629980 -5.96689987 12.22329998 103 103 103 -399.000000
-7.67880011 -5.95510006 12.22420025 121 121 121 -111.000000
-7.39370012 -5.66289997 12.11050034 85 85 85 -687.000000
-7.38189983 -5.65170002 12.10569954 82 82 82 -735.000000
-7.37020016 -5.64179993 12.09969997 91 91 91 -591.000000
-7.35739994 -5.63149977 12.09249973 91 91 91 -591.000000
-7.34709978 -5.62130022 12.08909988 102 102 102 -415.000000
-7.32450008 -5.59919977 12.08180046 123 123 123 -79.000000
-7.31260014 -5.58920002 12.07579994 112 112 112 -255.000000
-7.29960012 -5.57940006 12.06799984 113 113 113 -239.000000
-7.28789997 -5.56939983 12.06270027 99 99 99 -463.000000
-7.27409983 -5.56099987 12.05220032 89 89 89 -623.000000
-7.25899982 -5.55280018 12.03960037 81 81 81 -751.000000
-7.22840023 -5.53830004 12.01159954 74 74 74 -863.000000
-7.21519995 -5.53119993 12.00080013 62 62 62 -1055.000000
-7.20120001 -5.52209997 11.99129963 74 74 74 -863.000000
-7.19180012 -5.51100016 11.99110031 76 76 76 -831.000000
-7.19070005 -5.49170017 12.01379967 55 55 55 -1167.000000
-5.76959991 -5.49529982 10.05160046 80 80 80 -767.000000
-5.74480009 -5.50500011 10.00629997 109 109 109 -303.000000
-5.72419977 -5.51130009 9.97119999 70 70 70 -927.000000
-5.70440006 -5.51319981 9.94400024 119 119 119 -143.000000
-5.69269991 -5.51280022 9.93019962 114 114 114 -223.000000
-5.67469978 -5.51109982 9.91059971 108 108 108 -319.000000
-5.66340017 -5.50769997 9.90200043 94 94 94 -543.000000
-5.64879990 -5.50419998 9.88930035 101 101 101 -431.000000
-5.63560009 -5.50180006 9.87699986 106 106 106 -351.000000
-5.62309980 -5.49660015 9.86979961 116 116 116 -191.000000
-5.61329985 -5.48920012 9.86940002 110 110 110 -287.000000
-5.60419989 -5.48040009 9.87189960 151 151 151 369.000000
-5.59369993 -5.47270012 9.87119961 108 108 108 -319.000000
-5.58540010 -5.46369982 9.87500000 114 114 114 -223.000000
-5.57569981 -5.45489979 9.87699986 146 146 146 289.000000
-5.56669998 -5.44659996 9.87909985 111 111 111 -271.000000
-5.55660009 -5.43940020 9.87829971 109 109 109 -303.000000
-5.54869986 -5.42889977 9.88529968 145 145 145 273.000000
-5.54080009 -5.41860008 9.89200020 105 105 105 -367.000000
-5.53660011 -5.40390015 9.90999985 149 149 149 337.000000
-5.53200006 -5.38959980 9.92689991 100 100 100 -447.000000
-5.52699995 -5.37440014 9.94489956 155 155 155 433.000000
-5.52069998 -5.36240005 9.95629978 102 102 102 -415.000000
-5.51980019 -5.34200001 9.98729992 98 98 98 -479.000000
-5.52570009 -5.31320000 10.03940010 102 102 102 -415.000000
-5.53499985 -5.27780008 10.10589981 66 66 66 -991.000000
-9.34599972 -5.83799982 15.03929996 20 20 20 -1727.000000
-7.84509993 -6.37690020 11.98670006 69 69 69 -943.000000
-7.83750010 -6.36490011 11.98560047 94 94 94 -543.000000
-7.83160019 -6.35080004 11.98960018 78 78 78 -799.000000
-7.78690004 -6.05149984 12.22130013 0 0 0 -2047.000000
-7.75960016 -6.03100014 12.19869995 86 86 86 -671.000000
-7.75909996 -6.01240015 12.21780014 75 75 75 -847.000000
-7.75990009 -5.99450016 12.23820019 135 135 135 113.000000
-7.29769993 -5.54169989 12.03849983 72 72 72 -895.000000
-7.27750015 -5.53770018 12.01299953 74 74 74 -863.000000
-7.25759983 -5.53539991 11.98610020 73 73 73 -879.000000
-7.22020006 -5.52710009 11.94060040 75 75 75 -847.000000
-7.20349979 -5.52019978 11.92440033 64 64 64 -1023.000000
-7.19169998 -5.51109982 11.91819954 61 61 61 -1071.000000
-7.18109989 -5.49980021 11.91670036 60 60 60 -1087.000000
-7.17640018 -5.48420000 11.92940044 58 58 58 -1119.000000
-7.20949984 -5.23010015 12.30259991 76 76 76 -831.000000
-5.77610016 -5.48759985 10.01029968 65 65 65 -1007.000000
-5.74949980 -5.49940014 9.95979977 89 89 89 -623.000000
-5.72879982 -5.50579977 9.92479992 76 76 76 -831.000000
-5.70669985 -5.51060009 9.89039993 126 126 126 -31.000000
-5.69449997 -5.51070023 9.87530041 108 108 108 -319.000000
-5.67600012 -5.50960016 9.85429955 102 102 102 -415.000000
-5.66359997 -5.50750017 9.84259987 104 104 104 -383.000000
-5.65030003 -5.50250006 9.83390045 111 111 111 -271.000000
-5.63859987 -5.49800014 9.82660007 103 103 103 -399.000000
-5.62629986 -5.49280024 9.81960011 131 131 131 49.000000
-5.61600018 -5.48589993 9.81770039 108 108 108 -319.000000
-5.60589981 -5.47830009 9.81719971 125 125 125 -47.000000
-5.59789991 -5.46740007 9.82429981 117 117 117 -175.000000
-5.58979988 -5.45809984 9.82900047 120 120 120 -127.000000
-5.57969999 -5.44990015 9.82960033 117 117 117 -175.000000
-5.57000017 -5.44239998 9.82960033 116 116 116 -191.000000
-5.56020021 -5.43489981 9.82960033 111 111 111 -271.000000
-5.55049992 -5.42670012 9.83100033 116 116 116 -191.000000
-5.54320002 -5.41550016 9.83959961 134 134 134 97.000000
-5.53630018 -5.40439987 9.84869957 93 93 93 -559.000000
-5.52969980 -5.39270020 9.85919952 113 113 113 -239.000000
-5.52419996 -5.37839985 9.87510014 103 103 103 -399.000000
-5.52050018 -5.36280012 9.89509964 134 134 134 97.000000
-5.51630020 -5.34700012 9.91479969 121 121 121 -111.000000
-5.51889992 -5.32259989 9.95600033 99 99 99 -463.000000
-5.52430010 -5.29269981 10.00920010 115 115 115 -207.000000
-9.39970016 -5.82910013 15.04800034 91 91 91 -591.000000
-9.38910007 -5.81510019 15.04269981 84 84 84 -703.000000
-7.86990023 -6.36250019 11.96959972 81 81 81 -751.000000
-7.86289978 -6.34999990 11.97019958 88 88 88 -639.000000
-7.79740000 -6.02519989 12.19229984 115 115 115 -207.000000
-7.79230022 -6.00960016 12.20059967 37 37 37 -1455.000000
-7.28259993 -5.51480007 11.97630024 25 25 25 -1647.000000
-7.25220013 -5.51859999 11.92650032 56 56 56 -1151.000000
-7.22860003 -5.52019978 11.88959980 65 65 65 -1007.000000
-7.19099998 -5.51170015 11.84459972 64 64 64 -1023.000000
-7.17710018 -5.50330019 11.83450031 71 71 71 -911.000000
-7.16930008 -5.49039984 11.83920002 66 66 66 -991.000000
-5.77960014 -5.48339987 9.96030045 81 81 81 -751.000000
-5.75349998 -5.49450016 9.91199970 84 84 84 -703.000000
-5.73220015 -5.50180006 9.87479973 84 84 84 -703.000000
-5.70959997 -5.50710011 9.83940029 99 99 99 -463.000000
-5.69850016 -5.50579977 9.82779980 134 134 134 97.000000
-5.67670012 -5.50869989 9.79710007 90 90 90 -607.000000
-5.66569996 -5.50500011 9.78919983 108 108 108 -319.000000
-5.65259981 -5.49970007 9.78149986 89 89 89 -623.000000
-5.64029980 -5.49599981 9.77239990 106 106 106 -351.000000
-5.62830019 -5.49030018 9.76659966 102 102 102 -415.000000
-5.61649990 -5.48530006 9.76000023 108 108 108 -319.000000
-5.60799980 -5.47580004 9.76439953 133 133 133 81.000000
-5.59989977 -5.46500015 9.77099991 108 108 108 -319.000000
-5.59110022 -5.45660019 9.77330017 110 110 110 -287.000000
-5.58169985 -5.44729996 9.77649975 113 113 113 -239.000000
-5.57259989 -5.43919992 9.77820015 113 113 113 -239.000000
-5.56199980 -5.43260002 9.77589989 106 106 106 -351.000000
-5.55189991 -5.42490005 9.77589989 131 131 131 49.000000
-5.54260015 -5.41639996 9.77820015 136 136 136 129.000000
-5.53560019 -5.40549994 9.78680038 95 95 95 -527.000000
-5.53119993 -5.39080000 9.80440044 89 89 89 -623.000000
-5.52430010 -5.37830019 9.81569958 95 95 95 -527.000000
-5.51929998 -5.36450005 9.83139992 153 153 153 401.000000
-5.51590014 -5.34759998 9.85359955 151 151 151 369.000000
-5.51410007 -5.32919979 9.88020039 105 105 105 -367.000000
-5.51819992 -5.30109978 9.92860031 126 126 126 -31.000000
-5.52880001 -5.26630020 9.99489975 102 102 102 -415.000000
-9.43200016 -5.81199980 15.02770042 121 121 121 -111.000000
-7.90159988 -6.36250019 11.95030022 90 90 90 -607.000000
-7.89480019 -6.34810019 11.95289993 94 94 94 -543.000000
-7.83720016 -6.01889992 12.18949986 56 56 56 -1151.000000
-7.82849979 -6.00500011 12.19009972 77 77 77 -815.000000
-7.14940023 -5.46859980 11.76630020 56 56 56 -1151.000000
-7.08559990 -4.91039991 12.40340042 74 74 74 -863.000000
-7.07079983 -4.90059996 12.39640045 106 106 106 -351.000000
-7.06330013 -4.88969994 12.40110016 121 121 121 -111.000000
-5.79099989 -5.46969986 9.93459988 68 68 68 -959.000000
-5.75890017 -5.48799992 9.86839962 77 77 77 -815.000000
-5.73559999 -5.49770021 9.82559967 101 101 101 -431.000000
-5.71369982 -5.50220013 9.79249954 78 78 78 -799.000000
-5.69960022 -5.50460005 9.77180004 119 119 119 -143.000000
-5.67869997 -5.50640011 9.74390030 103 103 103 -399.000000
-5.66750002 -5.50279999 9.73589993 93 93 93 -559.000000
-5.65259981 -5.49970007 9.72259998 115 115 115 -207.000000
-5.64090014 -5.49529982 9.71520042 99 99 99 -463.000000
-5.62909985 -5.48950005 9.70989990 114 114 114 -223.000000
-5.61899996 -5.48220015 9.70890045 115 115 115 -207.000000
-5.60930014 -5.47429991 9.70930004 134 134 134 97.000000
-5.59940004 -5.46570015 9.71070004 95 95 95 -527.000000
-5.59110022 -5.45669985 9.71440029 112 112 112 -255.000000
-5.58249998 -5.44640017 9.72010040 115 115 115 -207.000000
-5.57320023 -5.43849993 9.72109985 121 121 121 -111.000000
-5.56309986 -5.43120003 9.72049999 111 111 111 -271.000000
-5.55359983 -5.42280006 9.72220039 107 107 107 -335.000000
-5.54440022 -5.41410017 9.72480011 146 146 146 289.000000
-5.53700018 -5.40369987 9.73219967 99 99 99 -463.000000
-5.52930021 -5.39359999 9.73890018 99 99 99 -463.000000
-5.52239990 -5.38100004 9.75039959 98 98 98 -479.000000
-5.51830006 -5.36600018 9.76869965 155 155 155 433.000000
-5.51310015 -5.35150003 9.78520012 131 131 131 49.000000
-5.51079988 -5.33389997 9.80970001 97 97 97 -495.000000
-5.51340008 -5.30789995 9.85280037 102 102 102 -415.000000
-5.51749992 -5.28210020 9.89739990 115 115 115 -207.000000
-5.52229977 -5.25239992 9.94890022 2 2 2 -2015.000000
-7.92920017 -6.36439991 11.92240047 91 91 91 -591.000000
-7.92719984 -6.34770012 11.93500042 80 80 80 -767.000000
-7.87830019 -6.01039982 12.19099998 0 0 0 -2047.000000
-7.86359978 -6.00190020 12.17640018 102 102 102 -415.000000
-8.51900005 -4.61730003 14.74009991 126 126 126 -31.000000
-7.20550013 -5.49959993 11.73890018 62 62 62 -1055.000000
-7.18429995 -5.49730015 11.71090031 79 79 79 -783.000000
-7.16750002 -5.49200010 11.69299984 81 81 81 -751.000000
-7.15380001 -5.48379993 11.68340015 62 62 62 -1055.000000
-7.13000011 -5.48530006 11.64700031 74 74 74 -863.000000
-7.13670015 -5.45909977 11.68929958 62 62 62 -1055.000000
-5.82390022 -5.42999983 9.97319984 32 32 32 -1535.000000
-5.76739979 -5.47779989 9.83450031 89 89 89 -623.000000
-5.74060011 -5.49179983 9.78149986 102 102 102 -415.000000
-5.71589994 -5.49949980 9.74020004 77 77 77 -815.000000
-5.70240021 -5.50120020 9.72150040 90 90 90 -607.000000
-5.68170023 -5.50279999 9.69429970 111 111 111 -271.000000
-5.66940022 -5.50059986 9.68290043 131 131 131 49.000000
-5.65360022 -5.49860001 9.66720009 99 99 99 -463.000000
-5.64260006 -5.49340010 9.66180038 92 92 92 -575.000000
-5.63079977 -5.48740005 9.65670013 117 117 117 -175.000000
-5.61990023 -5.48120022 9.65320015 126 126 126 -31.000000
-5.61049986 -5.47289991 9.65460014 109 109 109 -303.000000
-5.60050011 -5.46430016 9.65569973 106 106 106 -351.000000
-5.59110022 -5.45690012 9.65590000 142 142 142 225.000000
-5.58239985 -5.44670010 9.66110039 108 108 108 -319.000000
-5.57410002 -5.43730021 9.66559982 108 108 108 -319.000000
-5.56470013 -5.42929983 9.66679955 108 108 108 -319.000000
-5.55490017 -5.42129993 9.66769981 103 103 103 -399.000000
-5.54440022 -5.41419983 9.66629982 116 116 116 -191.000000
-5.53599977 -5.40520000 9.67039967 105 105 105 -367.000000
-5.53020000 -5.39249992 9.68319988 96 96 96 -511.000000
-5.52139997 -5.38250017 9.68840027 93 93 93 -559.000000
-5.51730013 -5.36749983 9.70670033 154 154 154 417.000000
-5.51300001 -5.35179996 9.72599983 138 138 138 161.000000
-5.50680017 -5.33949995 9.73779964 97 97 97 -495.000000
-5.50649977 -5.31739998 9.77140045 112 112 112 -255.000000
-5.51119995 -5.29090023 9.81750011 102 102 102 -415.000000
-5.52869987 -5.24359989 9.91009998 94 94 94 -543.000000
-7.89989996 -5.99660015 12.16679955 93 93 93 -559.000000
-7.89359999 -5.98250008 12.17140007 85 85 85 -687.000000
-7.19600010 -5.48740005 11.66989994 53 53 53 -1199.000000
-7.17199993 -5.48820019 11.63440037 62 62 62 -1055.000000
-7.15310001 -5.48439980 11.61180019 77 77 77 -815.000000
-7.14219999 -5.47489977 11.60779953 78 78 78 -799.000000
-7.12849998 -5.46619987 11.59910011 53 53 53 -1199.000000
-7.12370014 -5.45060015 11.61139965 41 41 41 -1391.000000
-7.12099981 -5.43149996 11.63150024 27 27 27 -1615.000000
-7.01249981 -4.70639992 12.43500042 116 116 116 -191.000000
-7.00169992 -4.69369984 12.43830013 112 112 112 -255.000000
-6.99039984 -4.67889977 12.44400024 110 110 110 -287.000000
-6.98260021 -4.67019987 12.44610023 103 103 103 -399.000000
-6.97139978 -4.65430021 12.45349979 88 88 88 -639.000000
-5.77370024 -5.47030020 9.79430008 74 74 74 -863.000000
-5.74650002 -5.48449993 9.74079990 100 100 100 -447.000000
-5.72049999 -5.49389982 9.69579983 141 141 141 209.000000
-5.70450020 -5.49879980 9.66950035 105 105 105 -367.000000
-5.68410015 -5.49989986 9.64350033 124 124 124 -63.000000
-5.67180014 -5.49770021 9.63210011 103 103 103 -399.000000
-5.65539980 -5.49639988 9.61470032 120 120 120 -127.000000
-5.64419985 -5.49149990 9.60869980 103 103 103 -399.000000
-5.63240004 -5.48549986 9.60369968 148 148 148 321.000000
-5.62160015 -5.47919989 9.60050011 96 96 96 -511.000000
-5.61030006 -5.47310019 9.59630013 96 96 96 -511.000000
-5.59980011 -5.46540022 9.59549999 102 102 102 -415.000000
-5.59189987 -5.45590019 9.60050011 150 150 150 353.000000
-5.58239985 -5.44670010 9.60340023 106 106 106 -351.000000
-5.57299995 -5.43900013 9.60410023 115 115 115 -207.000000
-5.56479979 -5.42929983 9.60919952 105 105 105 -367.000000
-5.55499983 -5.42119980 9.61009979 109 109 109 -303.000000
-5.54479980 -5.41379976 9.60960007 118 118 118 -159.000000
-5.53669977 -5.40450001 9.61450005 110 110 110 -287.000000
-5.52939987 -5.39359999 9.62269974 102 102 102 -415.000000
-5.52040005 -5.38390017 9.62720013 110 110 110 -287.000000
-5.51719999 -5.36770010 9.64820004 164 164 164 577.000000
-5.51210022 -5.35319996 9.66460037 125 125 125 -47.000000
-5.50479984 -5.34240007 9.67280006 133 133 133 81.000000
-5.50400019 -5.32100010 9.70470047 112 112 112 -255.000000
-5.50470018 -5.30000019 9.73770046 110 110 110 -287.000000
-5.51270008 -5.26590014 9.79880047 86 86 86 -671.000000
-7.94899988 -5.98409986 12.18500042 0 0 0 -2047.000000
-7.92859983 -5.97809982 12.15890026 108 108 108 -319.000000
-7.18330002 -5.47860003 11.59300041 75 75 75 -847.000000
-7.16109991 -5.47760010 11.56250000 83 83 83 -719.000000
-7.14519978 -5.47230005 11.54619980 88 88 88 -639.000000
-7.12419987 -5.46999979 11.51910019 84 84 84 -703.000000
-7.11660004 -5.45679998 11.52470016 65 65 65 -1007.000000
-7.10470009 -5.44579983 11.52130032 69 69 69 -943.000000
-7.41130018 -4.38940001 13.31190014 120 120 120 -127.000000
-6.89769983 -4.51660013 12.47780037 99 99 99 -463.000000
-5.78520012 -5.45639992 9.76990032 81 81 81 -751.000000
-5.74849987 -5.48220015 9.68840027 101 101 101 -431.000000
-5.72559977 -5.48780012 9.65289974 128 128 128 1.000000
-5.70809984 -5.49440002 9.62259960 115 115 115 -207.000000
-5.68769979 -5.49550009 9.59679985 145 145 145 273.000000
-5.67259979 -5.49679995 9.57699966 92 92 92 -575.000000
-5.65710020 -5.49440002 9.56229973 117 117 117 -175.000000
-5.64559984 -5.48969984 9.55580044 89 89 89 -623.000000
-5.63259983 -5.48530006 9.54699993 94 94 94 -543.000000
-5.62130022 -5.47970009 9.54220009 109 109 109 -303.000000
-5.61079979 -5.47259998 9.54049969 112 112 112 -255.000000
-5.60050011 -5.46470022 9.54020023 94 94 94 -543.000000
-5.59149981 -5.45650005 9.54189968 129 129 129 17.000000
-5.58169985 -5.44780016 9.54360008 109 109 109 -303.000000
-5.57429981 -5.43730021 9.55090046 114 114 114 -223.000000
-5.56459999 -5.42969990 9.55109978 114 114 114 -223.000000
-5.55490017 -5.42140007 9.55249977 114 114 114 -223.000000
-5.54540014 -5.41319990 9.55399990 112 112 112 -255.000000
-5.53779984 -5.40299988 9.56070042 112 112 112 -255.000000
-5.52890015 -5.39440012 9.56369972 98 98 98 -479.000000
-5.52199984 -5.38189983 9.57470036 146 146 146 289.000000
-5.51490021 -5.37090015 9.58339977 103 103 103 -399.000000
-5.50769997 -5.35930014 9.59280014 111 111 111 -271.000000
-5.50519991 -5.34180021 9.61660004 138 138 138 161.000000
-5.50139999 -5.32480001 9.63819981 104 104 104 -383.000000
-5.50790024 -5.27269983 9.72469997 96 96 96 -511.000000
-5.51700020 -5.23839998 9.78730011 17 17 17 -1775.000000
-7.96689987 -5.97270012 12.15240002 96 96 96 -511.000000
-7.95959997 -5.95809984 12.15579987 81 81 81 -751.000000
-7.17329979 -5.46729994 11.52379990 26 26 26 -1631.000000
-7.13269997 -5.46269989 11.47179985 84 84 84 -703.000000
-7.11439991 -5.45879984 11.45059967 63 63 63 -1039.000000
-7.09079981 -5.41890001 11.46669960 71 71 71 -911.000000
-7.09509993 -5.39499998 11.50220013 67 67 67 -975.000000
-7.44280005 -4.35710001 13.31739998 0 0 0 -2047.000000
-7.42570019 -4.34670019 13.30920029 0 0 0 -2047.000000
-6.89919996 -4.46360016 12.47990036 113 113 113 -239.000000
-5.79309988 -5.44689989 9.73509979 0 0 0 -2047.000000
-5.76009989 -5.46820021 9.66489983 86 86 86 -671.000000
-5.73059988 -5.48180008 9.61019993 126 126 126 -31.000000
-5.71409988 -5.48710012 9.58310032 90 90 90 -607.000000
-5.68879986 -5.49429989 9.54279995 81 81 81 -751.000000
-5.67609978 -5.49249983 9.53050041 93 93 93 -559.000000
-5.66069984 -5.48999977 9.51609993 145 145 145 273.000000
-5.64830017 -5.48649979 9.50679970 97 97 97 -495.000000
-5.63609982 -5.48099995 9.50070000 94 94 94 -543.000000
-5.62270021 -5.47800016 9.48960018 144 144 144 257.000000
-5.61079979 -5.47279978 9.48349953 112 112 112 -255.000000
-5.60050011 -5.46470022 9.48359966 104 104 104 -383.000000
-5.59189987 -5.45609999 9.48630047 107 107 107 -335.000000
-5.58069992 -5.44920015 9.48379993 147 147 147 305.000000
-5.57270002 -5.43959999 9.48890018 104 104 104 -383.000000
-5.56409979 -5.43030024 9.49289989 108 108 108 -319.000000
-5.55560017 -5.42059994 9.49759960 110 110 110 -287.000000
-5.54559994 -5.41300011 9.49779987 109 109 109 -303.000000
-5.53779984 -5.40320015 9.50349998 101 101 101 -431.000000
-5.52850008 -5.39510012 9.50520039 109 109 109 -303.000000
-5.51919985 -5.38570023 9.50889969 94 94 94 -543.000000
-5.51490021 -5.37109995 9.52610016 161 161 161 529.000000
-5.50920010 -5.35729980 9.54049969 136 136 136 129.000000
-5.50220013 -5.34609985 9.54959965 120 120 120 -127.000000
-5.49840021 -5.32900000 9.57129955 116 116 116 -191.000000
-5.49989986 -5.30679989 9.60649967 127 127 127 -15.000000
-5.50360012 -5.27890015 9.65279961 97 97 97 -495.000000
-5.51730013 -5.23810005 9.72980022 111 111 111 -271.000000
-5.68440008 -4.98140001 10.30270004 143 143 143 241.000000
-5.67850018 -4.96579981 10.32019997 144 144 144 257.000000
-7.99739981 -5.95319986 12.14789963 80 80 80 -767.000000
-8.71990013 -4.55579996 14.75699997 92 92 92 -575.000000
-8.70619965 -4.54309988 14.75170040 78 78 78 -799.000000
-7.16639996 -5.45429993 11.46160030 52 52 52 -1215.000000
-7.14060020 -5.45590019 11.42329979 93 93 93 -559.000000
-7.12020016 -5.45389986 11.39710045 103 103 103 -399.000000
-7.10389996 -5.44659996 11.38309956 90 90 90 -607.000000
-7.09210014 -5.43820000 11.37689972 78 78 78 -799.000000
-7.08290005 -5.42589998 11.37919998 81 81 81 -751.000000
-7.07740021 -5.41079998 11.39009953 80 80 80 -767.000000
-5.77540016 -5.46850014 9.62549973 0 0 0 -2047.000000
-5.77190018 -5.45389986 9.64220047 71 71 71 -911.000000
-5.73610020 -5.47510004 9.56960011 60 60 60 -1087.000000
-5.71950006 -5.48050022 9.54220009 124 124 124 -63.000000
-5.69390011 -5.48810005 9.50119972 90 90 90 -607.000000
-5.67969990 -5.48810005 9.48470020 132 132 132 65.000000
-5.66200018 -5.48839998 9.46360016 139 139 139 177.000000
-5.64940023 -5.48519993 9.45380020 88 88 88 -639.000000
-5.63609982 -5.48110008 9.44419956 92 92 92 -575.000000
-5.62410021 -5.47629976 9.43739986 108 108 108 -319.000000
-5.61159992 -5.47179985 9.42969990 105 105 105 -367.000000
-5.60069990 -5.46460009 9.42780018 143 143 143 241.000000
-5.58979988 -5.45889997 9.42380047 110 110 110 -287.000000
-5.58059978 -5.44950008 9.42700005 131 131 131 49.000000
-5.57219982 -5.44029999 9.43109989 114 114 114 -223.000000
-5.56339979 -5.43139982 9.43420029 115 115 115 -207.000000
-5.55520010 -5.42129993 9.43990040 108 108 108 -319.000000
-5.54549980 -5.41319990 9.44099998 109 109 109 -303.000000
-5.53669977 -5.40479994 9.44369984 109 109 109 -303.000000
-5.52750015 -5.39650011 9.44589996 104 104 104 -383.000000
-5.51830006 -5.38710022 9.44960022 94 94 94 -543.000000
-5.51340008 -5.37330008 9.46469975 149 149 149 337.000000
-5.50610018 -5.36159992 9.47410011 123 123 123 -79.000000
-5.50029993 -5.34880018 9.48700047 130 130 130 33.000000
-5.49560022 -5.33290005 9.50570011 118 118 118 -159.000000
-5.49690008 -5.31110001 9.53999996 125 125 125 -47.000000
-5.49889994 -5.28550005 9.58059978 97 97 97 -495.000000
-5.50939989 -5.24930000 9.64669991 111 111 111 -271.000000
-8.04510021 -5.96159983 12.14249992 63 63 63 -1039.000000
-8.03549957 -5.94939995 12.13969994 92 92 92 -575.000000
-8.76860046 -4.54360008 14.75489998 98 98 98 -479.000000
-8.75940037 -4.52460003 14.76329994 23 23 23 -1679.000000
-7.15990019 -5.43930006 11.40320015 49 49 49 -1263.000000
-7.13070011 -5.44469976 11.35579967 87 87 87 -655.000000
-7.11129999 -5.44019985 11.33409977 88 88 88 -639.000000
-7.09520006 -5.43559980 11.31739998 86 86 86 -671.000000
-7.08330011 -5.42570019 11.31299973 106 106 106 -351.000000
-7.07259989 -5.41499996 11.31120014 87 87 87 -655.000000
-7.06519985 -5.40150023 11.31760025 91 91 91 -591.000000
-5.68100023 -5.48659992 9.43249989 87 87 87 -655.000000
-5.66309977 -5.48719978 9.41069984 111 111 111 -271.000000
-5.65019989 -5.48430014 9.40009975 145 145 145 273.000000
-5.63740015 -5.47959995 9.39220047 85 85 85 -687.000000
-5.62410021 -5.47639990 9.38160038 90 90 90 -607.000000
-5.61199999 -5.47149992 9.37489986 143 143 143 241.000000
-5.60059977 -5.46479988 9.37170029 111 111 111 -271.000000
-5.59019995 -5.45849991 9.36909962 112 112 112 -255.000000
-5.58029985 -5.44990015 9.37040043 143 143 143 241.000000
-5.57200003 -5.44070005 9.37460041 105 105 105 -367.000000
-5.56230021 -5.43300009 9.37489986 118 118 118 -159.000000
-5.55520010 -5.42140007 9.38409996 114 114 114 -223.000000
-5.54489994 -5.41419983 9.38319969 106 106 106 -351.000000
-5.53700018 -5.40450001 9.38869953 108 108 108 -319.000000
-5.52619982 -5.39839983 9.38570023 106 106 106 -351.000000
-5.51739979 -5.38850021 9.39070034 106 106 106 -351.000000
-5.50890017 -5.37939978 9.39490032 122 122 122 -95.000000
-5.50400019 -5.36469984 9.41129971 117 117 117 -175.000000
-5.49800014 -5.35200024 9.42370033 118 118 118 -159.000000
-5.49429989 -5.33489990 9.44509983 138 138 138 161.000000
-5.49259996 -5.31710005 9.46990013 128 128 128 1.000000
-5.49350023 -5.29320002 9.50669956 124 124 124 -63.000000
-5.50279999 -5.25860023 9.56869984 97 97 97 -495.000000
-5.70109987 -4.83939981 10.41399956 52 52 52 -1215.000000
-5.68120003 -4.81860018 10.42450047 81 81 81 -751.000000
-5.67600012 -4.80170012 10.44480038 0 0 0 -2047.000000
-8.07009983 -5.94579983 12.12559986 102 102 102 -415.000000
-8.06569958 -5.93020010 12.13420010 25 25 25 -1647.000000
-8.82369995 -4.52510023 14.76920033 119 119 119 -143.000000
-7.15360022 -5.42500019 11.34469986 41 41 41 -1391.000000
-7.12020016 -5.43249989 11.28929996 97 97 97 -495.000000
-7.10239983 -5.42929983 11.26860046 91 91 91 -591.000000
-7.08519983 -5.42399979 11.25119972 90 90 90 -607.000000
-7.07149982 -5.41610003 11.24190044 92 92 92 -575.000000
-7.06209993 -5.40430021 11.24330044 95 95 95 -527.000000
-7.05700016 -5.38910007 11.25510025 87 87 87 -655.000000
-7.06969976 -5.35629988 11.31270027 0 0 0 -2047.000000
-5.73019981 -5.46759987 9.46090031 78 78 78 -799.000000
-5.70200014 -5.47819996 9.41310024 88 88 88 -639.000000
-5.68529987 -5.48140001 9.38930035 127 127 127 -15.000000
-5.66690016 -5.48260021 9.36629963 98 98 98 -479.000000
-5.65170002 -5.48250008 9.34920025 134 134 134 97.000000
-5.63730001 -5.47980022 9.33650017 95 95 95 -527.000000
-5.62410021 -5.47650003 9.32629967 121 121 121 -111.000000
-5.61210012 -5.47139978 9.31999969 146 146 146 289.000000
-5.59950018 -5.46630001 9.31309986 105 105 105 -367.000000
-5.59070015 -5.45790005 9.31529999 122 122 122 -95.000000
-5.57910013 -5.45160007 9.31140041 139 139 139 177.000000
-5.56990004 -5.44350004 9.31309986 106 106 106 -351.000000
-5.56199980 -5.43349981 9.31879997 117 117 117 -175.000000
-5.55380011 -5.42339993 9.32450008 121 121 121 -111.000000
-5.54339981 -5.41620016 9.32330036 112 112 112 -255.000000
-5.53609991 -5.40579987 9.33049965 113 113 113 -239.000000
-5.52650023 -5.39809990 9.33119965 99 99 99 -463.000000
-5.51639986 -5.38980007 9.33240032 104 104 104 -383.000000
-5.50740004 -5.38159990 9.33460045 106 106 106 -351.000000
-5.50080013 -5.36910009 9.34609985 123 123 123 -79.000000
-5.49420023 -5.35739994 9.35599995 101 101 101 -431.000000
-5.49090004 -5.33970022 9.37880039 132 132 132 65.000000
-5.48820019 -5.32340002 9.40009975 111 111 111 -271.000000
-5.49109983 -5.29659986 9.44309998 111 111 111 -271.000000
-5.49630022 -5.26779985 9.49160004 90 90 90 -607.000000
-5.50729990 -5.23010015 9.55980015 0 0 0 -2047.000000
-5.70030022 -4.76620007 10.46259975 65 65 65 -1007.000000
-8.10990047 -5.93979979 12.12199974 60 60 60 -1087.000000
-8.10019970 -5.92679977 12.11970043 93 93 93 -559.000000
-8.87559986 -4.51109982 14.77340031 105 105 105 -367.000000
-7.10529995 -5.42679977 11.20960045 83 83 83 -719.000000
-7.08869982 -5.42100000 11.19369984 86 86 86 -671.000000
-7.07280016 -5.41499996 11.17920017 75 75 75 -847.000000
-7.06099987 -5.40530014 11.17479992 90 90 90 -607.000000
-7.05289984 -5.39279985 11.17899990 84 84 84 -703.000000
-7.05089998 -5.37330008 11.20020008 83 83 83 -719.000000
-5.75729990 -5.44939995 9.46249962 52 52 52 -1215.000000
-5.70679998 -5.47230005 9.37189960 78 78 78 -799.000000
-5.68830013 -5.47770023 9.34280014 143 143 143 241.000000
-5.66830015 -5.48089981 9.31540012 90 90 90 -607.000000
-5.65380001 -5.48000002 9.30020046 127 127 127 -15.000000
-5.61339998 -5.46980000 9.26900005 126 126 126 -31.000000
-5.59999990 -5.46570015 9.25990009 109 109 109 -303.000000
-5.58939981 -5.45970011 9.25669956 126 126 126 -31.000000
-5.57800007 -5.45310020 9.25339985 121 121 121 -111.000000
-5.57009983 -5.44339991 9.25870037 147 147 147 305.000000
-5.56139994 -5.43429995 9.26220036 118 118 118 -159.000000
-5.55229998 -5.42539978 9.26509953 121 121 121 -111.000000
-5.54269981 -5.41720009 9.26650047 112 112 112 -255.000000
-5.53459978 -5.40789986 9.27110004 111 111 111 -271.000000
-5.52460003 -5.40070009 9.27070045 105 105 105 -367.000000
-5.51539993 -5.39139986 9.27420044 105 105 105 -367.000000
-5.50549984 -5.38430023 9.27390003 100 100 100 -447.000000
-5.49770021 -5.37349987 9.28129959 140 140 140 193.000000
-5.49259996 -5.35970020 9.29619980 130 130 130 33.000000
-5.48559999 -5.34700012 9.30720043 117 117 117 -175.000000
-5.48360014 -5.32980013 9.33059978 123 123 123 -79.000000
-5.48360014 -5.30709982 9.36419964 111 111 111 -271.000000
-5.49090004 -5.27540016 9.41909981 106 106 106 -351.000000
-5.50509977 -5.23320007 9.49689960 27 27 27 -1615.000000
-5.69449997 -4.70139980 10.49330044 92 92 92 -575.000000
-5.68410015 -4.68779993 10.50329971 101 101 101 -431.000000
-5.67519999 -4.67549992 10.51280022 5 5 5 -1967.000000
-8.13589954 -5.92350006 12.10690022 108 108 108 -319.000000
-8.13300037 -5.90600014 12.11960030 31 31 31 -1551.000000
-7.12139988 -5.41270018 11.18299961 41 41 41 -1391.000000
-7.08710003 -5.42250013 11.12430000 75 75 75 -847.000000
-7.07189989 -5.41580009 11.11180019 93 93 93 -559.000000
-7.04979992 -5.39559984 11.10610008 95 95 95 -527.000000
-7.04510021 -5.37860012 11.12049961 82 82 82 -735.000000
-7.04729986 -5.35729980 11.14939976 69 69 69 -943.000000
-5.76779985 -5.43660021 9.43729973 81 81 81 -751.000000
-5.74090004 -5.45450020 9.38119984 45 45 45 -1327.000000
-5.71129990 -5.46689987 9.32970047 68 68 68 -959.000000
-5.69070005 -5.47489977 9.29500008 90 90 90 -607.000000
-5.67059994 -5.47809982 9.26760006 109 109 109 -303.000000
-5.64120007 -5.47499990 9.23880005 100 100 100 -447.000000
-5.62699986 -5.47300005 9.22560024 131 131 131 49.000000
-5.59969997 -5.46619987 9.20470047 127 127 127 -15.000000
-5.58790016 -5.46180010 9.19779968 120 120 120 -127.000000
-5.57660007 -5.45499992 9.19499969 114 114 114 -223.000000
-5.56710005 -5.44740009 9.19550037 126 126 126 -31.000000
-5.55760002 -5.43940020 9.19659996 113 113 113 -239.000000
-5.54960012 -5.42910004 9.20259953 118 118 118 -159.000000
-5.54069996 -5.42010021 9.20590019 107 107 107 -335.000000
-5.53160000 -5.41200018 9.20769978 110 110 110 -287.000000
-5.52299976 -5.40299988 9.21140003 108 108 108 -319.000000
-5.51259995 -5.39519978 9.21150017 104 104 104 -383.000000
-5.50099993 -5.39039993 9.20590019 99 99 99 -463.000000
-5.49550009 -5.37650013 9.22029972 119 119 119 -143.000000
-5.48969984 -5.36380005 9.23250008 113 113 113 -239.000000
-5.48299980 -5.35069990 9.24460030 120 120 120 -127.000000
-5.48019981 -5.33459997 9.26529980 134 134 134 97.000000
-5.47709990 -5.31619978 9.28919983 116 116 116 -191.000000
-5.48339987 -5.28599977 9.34020042 125 125 125 -47.000000
-5.49630022 -5.24569988 9.41359997 99 99 99 -463.000000
-5.69000006 -4.62939978 10.53610039 39 39 39 -1423.000000
-5.68009996 -4.61740017 10.54430008 77 77 77 -815.000000
-8.17140007 -5.92180014 12.09249973 93 93 93 -559.000000
-7.08930016 -5.42059994 11.06490040 75 75 75 -847.000000
-7.07280016 -5.41510010 11.04899979 91 91 91 -591.000000
-7.05849981 -5.40770006 11.03870010 102 102 102 -415.000000
-7.04689980 -5.39830017 11.03429985 88 88 88 -639.000000
-7.04029989 -5.38290024 11.04409981 101 101 101 -431.000000
-7.03980017 -5.36409998 11.06599998 81 81 81 -751.000000
-7.05380011 -5.33080006 11.12530041 0 0 0 -2047.000000
-5.69670010 -5.46740007 9.25809956 117 117 117 -175.000000
-5.67290020 -5.47539997 9.22000027 89 89 89 -623.000000
-5.65749979 -5.47550011 9.20240021 89 89 89 -623.000000
-5.64150000 -5.47480011 9.18550014 97 97 97 -495.000000
-5.62459993 -5.47609997 9.16469955 106 106 106 -351.000000
-5.61259985 -5.47100019 9.15859985 117 117 117 -175.000000
-5.59759998 -5.46899986 9.14470005 111 111 111 -271.000000
-5.58790016 -5.46190023 9.14410019 121 121 121 -111.000000
-5.57579994 -5.45629978 9.13869953 122 122 122 -95.000000
-5.56589985 -5.44899988 9.13829994 120 120 120 -127.000000
-5.55429983 -5.44390011 9.13290024 114 114 114 -223.000000
-5.54750013 -5.43200016 9.14260006 113 113 113 -239.000000
-5.53789997 -5.42390013 9.14369965 109 109 109 -303.000000
-5.52880001 -5.41580009 9.14560032 108 108 108 -319.000000
-5.51870012 -5.40880013 9.14470005 112 112 112 -255.000000
-5.50920010 -5.39989996 9.14719963 128 128 128 1.000000
-5.49970007 -5.39230013 9.14799976 134 134 134 97.000000
-5.49329996 -5.37970018 9.15950012 145 145 145 273.000000
-5.48670006 -5.36800003 9.16940022 114 114 114 -223.000000
-5.47849989 -5.35699987 9.17669964 108 108 108 -319.000000
-5.47569990 -5.34100008 9.19709969 133 133 133 81.000000
-5.47300005 -5.32200003 9.22210026 134 134 134 97.000000
-5.47160006 -5.30249977 9.24919987 107 107 107 -335.000000
-5.48229980 -5.26550007 9.31490040 106 106 106 -351.000000
-5.66960001 -4.52680016 10.60970020 107 107 107 -335.000000
-8.20479965 -5.93949986 12.05640030 42 42 42 -1375.000000
-8.20370007 -5.92059994 12.07260036 108 108 108 -319.000000
-7.10300016 -5.40859985 11.03330040 92 92 92 -575.000000
-7.07989979 -5.40889978 11.00179958 96 96 96 -511.000000
-7.06440020 -5.40250015 10.98869991 91 91 91 -591.000000
-7.04990005 -5.39569998 10.97739983 105 105 105 -367.000000
-7.04050016 -5.38280010 10.98029995 90 90 90 -607.000000
-7.03560019 -5.36800003 10.99160004 81 81 81 -751.000000
-7.03929996 -5.34410000 11.02550030 84 84 84 -703.000000
-5.75759983 -5.43410015 9.31960011 72 72 72 -895.000000
-5.71880007 -5.45779991 9.24260044 93 93 93 -559.000000
-5.69719982 -5.46689987 9.20559978 74 74 74 -863.000000
-5.65759993 -5.47550011 9.14910030 94 94 94 -543.000000
-5.64219999 -5.47399998 9.13389969 118 118 118 -159.000000
-5.62540007 -5.47520018 9.11359978 103 103 103 -399.000000
-5.61040020 -5.47399998 9.09860039 121 121 121 -111.000000
-5.58699989 -5.46309996 9.08829975 151 151 151 369.000000
-5.57469988 -5.45779991 9.08230019 126 126 126 -31.000000
-5.56559992 -5.44960022 9.08399963 118 118 118 -159.000000
-5.55620003 -5.44150019 9.08520031 125 125 125 -47.000000
-5.54580021 -5.43429995 9.08430004 119 119 119 -143.000000
-5.53789997 -5.42399979 9.09039974 123 123 123 -79.000000
-5.52899981 -5.41569996 9.09270000 120 120 120 -127.000000
-5.52019978 -5.40700006 9.09570026 104 104 104 -383.000000
-5.51000023 -5.39900017 9.09619999 113 113 113 -239.000000
-5.49989986 -5.39209986 9.09529972 120 120 120 -127.000000
-5.49350023 -5.37949991 9.10680008 170 170 170 673.000000
-5.48589993 -5.36910009 9.11369991 130 130 130 33.000000
-5.48040009 -5.35449982 9.12909985 146 146 146 289.000000
-5.47370005 -5.34380007 9.13749981 137 137 137 145.000000
-5.46710014 -5.33029985 9.15009975 132 132 132 65.000000
-5.46229982 -5.31570005 9.16639996 122 122 122 -95.000000
-5.46700001 -5.28700018 9.21339989 108 108 108 -319.000000
-5.48680019 -5.23689985 9.30729961 93 93 93 -559.000000
-8.25489998 -5.94759989 12.05510044 56 56 56 -1151.000000
-8.24380016 -5.93580008 12.04930019 83 83 83 -719.000000
-8.24069977 -5.91720009 12.06210041 36 36 36 -1471.000000
-7.11959982 -5.39400005 11.00899982 0 0 0 -2047.000000
-7.09219980 -5.39799976 10.96759987 88 88 88 -639.000000
-7.06930017 -5.39820004 10.93669987 108 108 108 -319.000000
-7.05249977 -5.39330006 10.92020035 95 95 95 -527.000000
-7.03859997 -5.38460016 10.91219997 92 92 92 -575.000000
-7.02880001 -5.37410021 10.91170025 106 106 106 -351.000000
-7.02379990 -5.35820007 10.92409992 96 96 96 -511.000000
-5.76679993 -5.42290020 9.29150009 11 11 11 -1871.000000
-5.71929979 -5.45730019 9.19050026 74 74 74 -863.000000
-5.67770004 -5.46950006 9.12689972 121 121 121 -111.000000
-5.65819979 -5.47489977 9.09759998 94 94 94 -543.000000
-5.62879992 -5.47100019 9.07050037 102 102 102 -415.000000
-5.61399984 -5.46950006 9.05630016 121 121 121 -111.000000
-5.59880018 -5.46780014 9.04189968 151 151 151 369.000000
-5.57499981 -5.45749998 9.03040028 130 130 130 33.000000
-5.56430006 -5.45139980 9.02740002 118 118 118 -159.000000
-5.55560017 -5.44250011 9.03050041 123 123 123 -79.000000
-5.54629993 -5.43380022 9.03289986 114 114 114 -223.000000
-5.53770018 -5.42439985 9.03689957 121 121 121 -111.000000
-5.52839994 -5.41650009 9.03810024 115 115 115 -207.000000
-5.51949978 -5.40789986 9.04090023 119 119 119 -143.000000
-5.50969982 -5.39940023 9.04259968 105 105 105 -367.000000
-5.50129986 -5.39029980 9.04669952 116 116 116 -191.000000
-5.49380016 -5.37919998 9.05459976 161 161 161 529.000000
-5.48589993 -5.36920023 9.06070042 122 122 122 -95.000000
-5.48089981 -5.35389996 9.07759953 143 143 143 241.000000
-5.47679996 -5.33970022 9.09370041 119 119 119 -143.000000
-5.47249985 -5.32289982 9.11359978 153 153 153 401.000000
-5.46659994 -5.30980015 9.12629986 128 128 128 1.000000
-5.46379995 -5.29160023 9.14990044 152 152 152 385.000000
-5.46080017 -5.27349997 9.17310047 125 125 125 -47.000000
-5.66239977 -4.37230015 10.71300030 87 87 87 -655.000000
-5.65170002 -4.36129999 10.71959972 0 0 0 -2047.000000
-8.40670013 -6.03329992 12.13860035 71 71 71 -911.000000
-8.28699970 -5.90920019 12.07009983 53 53 53 -1199.000000
-7.11709976 -5.37610006 10.96329975 49 49 49 -1263.000000
-7.08160019 -5.38730001 10.90289974 97 97 97 -495.000000
-7.05749989 -5.38889980 10.86909962 101 101 101 -431.000000
-7.04090023 -5.38259983 10.85449982 88 88 88 -639.000000
-7.02729988 -5.37559986 10.84500027 91 91 91 -591.000000
-7.01819992 -5.36339998 10.84749985 93 93 93 -559.000000
-7.01249981 -5.34639978 10.86040020 81 81 81 -751.000000
-5.67719984 -5.47020006 9.07269955 112 112 112 -255.000000
-5.65990019 -5.47279978 9.04990005 108 108 108 -319.000000
-5.64359999 -5.47240019 9.03240013 98 98 98 -479.000000
-5.62720013 -5.47310019 9.01340008 111 111 111 -271.000000
-5.61259985 -5.47139978 8.99969959 123 123 123 -79.000000
-5.59880018 -5.46789980 8.98950005 127 127 127 -15.000000
-5.58629990 -5.46430016 8.98099995 113 113 113 -239.000000
-5.56479979 -5.45079994 8.97649956 137 137 137 145.000000
-5.55389977 -5.44469976 8.97329998 139 139 139 177.000000
-5.54479980 -5.43590021 8.97599983 112 112 112 -255.000000
-5.53569984 -5.42710018 8.97869968 111 111 111 -271.000000
-5.52810001 -5.41699982 8.98490047 102 102 102 -415.000000
-5.51870012 -5.40920019 8.98589993 108 108 108 -319.000000
-5.50860023 -5.40110016 8.98680019 103 103 103 -399.000000
-5.50029993 -5.39179993 8.99120045 133 133 133 81.000000
-5.49160004 -5.38219976 8.99580002 110 110 110 -287.000000
-5.48699999 -5.36789989 9.01140022 163 163 163 561.000000
-5.48110008 -5.35370016 9.02560043 112 112 112 -255.000000
-5.47910023 -5.33659983 9.04810047 108 108 108 -319.000000
-5.47359991 -5.32149982 9.06400013 145 145 145 273.000000
-5.47030020 -5.30480003 9.08469963 144 144 144 257.000000
-5.46710014 -5.28709984 9.10700035 152 152 152 385.000000
-5.46719980 -5.26459980 9.13959980 143 143 143 241.000000
-5.47020006 -5.23850012 9.18050003 106 106 106 -351.000000
-5.67859983 -4.31829977 10.74790001 57 57 57 -1135.000000
-5.67030001 -4.30270004 10.76360035 47 47 47 -1295.000000
-8.31849957 -5.88980007 12.06610012 65 65 65 -1007.000000
-7.10059977 -5.37050009 10.88500023 0 0 0 -2047.000000
-7.06899977 -5.37869978 10.83370018 81 81 81 -751.000000
-7.04489994 -5.37909985 10.80150032 84 84 84 -703.000000
-7.02790022 -5.37510014 10.78400040 97 97 97 -495.000000
-7.01529980 -5.36609983 10.77820015 88 88 88 -639.000000
-7.00589991 -5.35249996 10.78209972 91 91 91 -591.000000
-7.00180006 -5.33850002 10.79329967 72 72 72 -895.000000
-5.72709990 -5.44780016 9.10639954 90 90 90 -607.000000
-5.70149994 -5.46180010 9.05869961 91 91 91 -591.000000
-5.67469978 -5.47349977 9.01309967 102 102 102 -415.000000
-5.65840006 -5.47469997 8.99339962 105 105 105 -367.000000
-5.64099979 -5.47569990 8.97290039 107 107 107 -335.000000
-5.62790012 -5.47230005 8.96329975 128 128 128 1.000000
-5.61289978 -5.47100019 8.94869995 112 112 112 -255.000000
-5.59829998 -5.46850014 8.93640041 143 143 143 241.000000
-5.58489990 -5.46619987 8.92500019 115 115 115 -207.000000
-5.57590008 -5.45650005 8.92879963 135 135 135 113.000000
-5.54799986 -5.45249987 8.90450001 114 114 114 -223.000000
-5.54400015 -5.43699980 8.92189980 135 135 135 113.000000
-5.52600002 -5.42000008 8.92679977 111 111 111 -271.000000
-5.51700020 -5.41149998 8.92920017 114 114 114 -223.000000
-5.50750017 -5.40259981 8.93179989 108 108 108 -319.000000
-5.49910021 -5.39359999 8.93560028 109 109 109 -303.000000
-5.49100018 -5.38320017 8.94190025 127 127 127 -15.000000
-5.48530006 -5.37029982 8.95429993 165 165 165 593.000000
-5.47930002 -5.35629988 8.96800041 108 108 108 -319.000000
-5.47609997 -5.34079981 8.98680019 108 108 108 -319.000000
-5.47279978 -5.32280016 9.00909996 132 132 132 65.000000
-5.47170019 -5.30289984 9.03649998 124 124 124 -63.000000
-5.46850014 -5.28529978 9.05850029 163 163 163 561.000000
-5.46859980 -5.26280022 9.09099960 145 145 145 273.000000
-5.47060013 -5.23810005 9.12860012 112 112 112 -255.000000
-5.69950008 -4.25559998 10.79959965 0 0 0 -2047.000000
-5.68629980 -4.24819994 10.79850006 71 71 71 -911.000000
-8.50660038 -5.99350023 12.18649960 61 61 61 -1071.000000
-8.35729980 -5.86590004 12.07689953 59 59 59 -1103.000000
-7.08960009 -5.36040020 10.81999969 0 0 0 -2047.000000
-7.03299999 -5.37060022 10.73400021 92 92 92 -575.000000
-7.01510000 -5.36630011 10.71590042 97 97 97 -495.000000
-7.00220013 -5.35589981 10.71150017 107 107 107 -335.000000
-6.99490023 -5.34490013 10.71500015 93 93 93 -559.000000
-6.98680019 -5.33029985 10.72179985 93 93 93 -559.000000
-6.90710020 -5.34350014 10.60350037 28 28 28 -1599.000000
-5.73070002 -5.44339991 9.06410027 100 100 100 -447.000000
-5.70139980 -5.46210003 9.00619984 91 91 91 -591.000000
-5.67689991 -5.47079992 8.96749973 140 140 140 193.000000
-5.65939999 -5.47359991 8.94429970 86 86 86 -671.000000
-5.64209986 -5.47450018 8.92430019 82 82 82 -735.000000
-5.62699986 -5.47359991 8.90909958 137 137 137 145.000000
-5.61210012 -5.47219992 8.89480019 126 126 126 -31.000000
-5.59789991 -5.46920013 8.88350010 133 133 133 81.000000
-5.58780003 -5.46250010 8.88189983 141 141 141 209.000000
-5.57539988 -5.45730019 8.87590027 137 137 137 145.000000
-5.56549978 -5.45009995 8.87530041 143 143 143 241.000000
-5.53359985 -5.42999983 8.86940002 124 124 124 -63.000000
-5.52559996 -5.42059994 8.87409973 157 157 157 465.000000
-5.51730013 -5.41120005 8.87860012 129 129 129 17.000000
-5.50759983 -5.40259981 8.88059998 122 122 122 -95.000000
-5.49930000 -5.39330006 8.88490009 110 110 110 -287.000000
-5.49160004 -5.38250017 8.89210033 114 114 114 -223.000000
-5.48530006 -5.37039995 8.90270042 149 149 149 337.000000
-5.47919989 -5.35650015 8.91609955 114 114 114 -223.000000
-5.47499990 -5.34250021 8.93159962 113 113 113 -239.000000
-5.47209978 -5.32380009 8.95520020 153 153 153 401.000000
-5.47030020 -5.30499983 8.98019981 135 135 135 113.000000
-5.46789980 -5.28630018 9.00450039 138 138 138 161.000000
-5.47020006 -5.26060009 9.04349995 135 135 135 113.000000
-5.47440004 -5.23269987 9.08769989 103 103 103 -399.000000
-5.70359993 -4.19070005 10.83850002 78 78 78 -799.000000
-5.69649982 -4.17329979 10.85809994 35 35 35 -1487.000000
-8.54940033 -5.96869993 12.20330048 35 35 35 -1487.000000
-7.07369995 -5.35330009 10.74580002 74 74 74 -863.000000
-7.03980017 -5.36439991 10.68869972 106 106 106 -351.000000
-7.01989985 -5.36199999 10.66569996 100 100 100 -447.000000
-7.00150013 -5.35659981 10.64840031 94 94 94 -543.000000
-6.98199987 -5.35680008 10.62300014 89 89 89 -623.000000
-6.93590021 -5.37729979 10.53950024 93 93 93 -559.000000
-6.92840004 -5.34520006 10.56789970 149 149 149 337.000000
-5.72989988 -5.44449997 9.00979996 102 102 102 -415.000000
-5.70100021 -5.46260023 8.95349979 94 94 94 -543.000000
-5.67619991 -5.47170019 8.91399956 123 123 123 -79.000000
-5.65859985 -5.47469997 8.89070034 93 93 93 -559.000000
-5.64209986 -5.47450018 8.87310028 108 108 108 -319.000000
-5.62820005 -5.47219992 8.86130047 132 132 132 65.000000
-5.61450005 -5.46929979 8.85039997 145 145 145 273.000000
-5.60129976 -5.46490002 8.84230042 130 130 130 33.000000
-5.59079981 -5.45879984 8.83950043 148 148 148 321.000000
-5.57840014 -5.45340014 8.83370018 129 129 129 17.000000
-5.56799984 -5.44700003 8.83150005 100 100 100 -447.000000
-5.55859995 -5.43879986 8.83279991 130 130 130 33.000000
-5.54689980 -5.43340015 8.82800007 127 127 127 -15.000000
-5.47450018 -5.34329987 8.87889957 113 113 113 -239.000000
-5.47170019 -5.32450008 8.90270042 126 126 126 -31.000000
-5.46939993 -5.30630016 8.92609978 141 141 141 209.000000
-5.46810007 -5.28609991 8.95320034 143 143 143 241.000000
-5.46950006 -5.26170015 8.98939991 113 113 113 -239.000000
-5.47499990 -5.23199987 9.03740025 105 105 105 -367.000000
-5.70620012 -4.12690020 10.87409973 87 87 87 -655.000000
-8.60459995 -5.95739985 12.22640038 62 62 62 -1055.000000
-8.42520046 -5.82420015 12.07779980 83 83 83 -719.000000
-7.05229998 -5.35319996 10.65699959 87 87 87 -655.000000
-7.02360010 -5.35869980 10.61359978 87 87 87 -655.000000
-7.00089979 -5.35729980 10.58609962 105 105 105 -367.000000
-6.95599985 -5.38070011 10.50109959 77 77 77 -815.000000
-6.93480015 -5.37839985 10.47669983 118 118 118 -159.000000
-6.96540022 -5.31080008 10.59549999 93 93 93 -559.000000
-5.72870016 -5.44600010 8.95489979 85 85 85 -687.000000
-5.70279980 -5.46049976 8.90709972 106 106 106 -351.000000
-5.67659998 -5.47139978 8.86390018 100 100 100 -447.000000
-5.66190004 -5.47060013 8.84920025 110 110 110 -287.000000
-5.64519978 -5.47079992 8.83080006 109 109 109 -303.000000
-5.63149977 -5.46810007 8.81970024 145 145 145 273.000000
-5.61719990 -5.46589994 8.80739975 128 128 128 1.000000
-5.60330009 -5.46239996 8.79740047 124 124 124 -63.000000
-5.59350014 -5.45529985 8.79660034 135 135 135 113.000000
-5.58239985 -5.44829988 8.79450035 142 142 142 225.000000
-5.57049990 -5.44379997 8.78800011 114 114 114 -223.000000
-5.56180000 -5.43480015 8.79119968 120 120 120 -127.000000
-5.55070019 -5.42859983 8.78820038 132 132 132 65.000000
-5.53849983 -5.42379999 8.78199959 117 117 117 -175.000000
-5.53030014 -5.41459990 8.78619957 124 124 124 -63.000000
-5.52099991 -5.40649986 8.78759956 101 101 101 -431.000000
-5.51119995 -5.39799976 8.78929996 117 117 117 -175.000000
-5.50199986 -5.38999987 8.79100037 108 108 108 -319.000000
-5.49410009 -5.37930012 8.79780006 157 157 157 465.000000
-5.48719978 -5.36810017 8.80630016 146 146 146 289.000000
-5.48050022 -5.35500002 8.81779957 134 134 134 97.000000
-5.47119999 -5.32530022 8.85009956 156 156 156 449.000000
-5.46759987 -5.30889988 8.86950016 118 118 118 -159.000000
-5.46519995 -5.29020023 8.89360046 132 132 132 65.000000
-5.46840000 -5.26340008 8.93459988 111 111 111 -271.000000
-5.47669983 -5.22980022 8.99050045 111 111 111 -271.000000
-8.66689968 -5.94169998 12.26379967 40 40 40 -1407.000000
-8.46510029 -5.79960012 12.09020042 37 37 37 -1455.000000
-7.03669977 -5.34689999 10.58370018 100 100 100 -447.000000
-6.95970011 -5.37729979 10.44999981 115 115 115 -207.000000
-6.94460011 -5.36940002 10.44009972 115 115 115 -207.000000
-6.92880011 -5.36320019 10.42730045 99 99 99 -463.000000
-6.94829988 -5.32679987 10.49470043 80 80 80 -767.000000
-6.95020008 -5.30329990 10.52490044 80 80 80 -767.000000
-5.73070002 -5.44369984 8.90929985 103 103 103 -399.000000
-5.70400000 -5.45909977 8.85970020 97 97 97 -495.000000
-5.68139982 -5.46549988 8.82660007 97 97 97 -495.000000
-5.64639997 -5.46929979 8.78390026 132 132 132 65.000000
-5.63299990 -5.46619987 8.77369976 116 116 116 -191.000000
-5.61990023 -5.46250010 8.76480007 103 103 103 -399.000000
-5.60710001 -5.45760012 8.75780010 154 154 154 417.000000
-5.59579992 -5.45249987 8.75279999 120 120 120 -127.000000
-5.58330011 -5.44729996 8.74670029 103 103 103 -399.000000
-5.57410002 -5.43919992 8.74810028 168 168 168 641.000000
