2.62400007 4.72860003 7.87090015 255 255 255 369.000000
2.60940003 4.73439980 7.87529993 255 255 255 497.000000
2.59220004 4.73649979 7.88549995 255 255 255 465.000000
2.56949997 4.72830009 7.91029978 255 255 255 337.000000
2.53460002 4.69980001 7.96470022 255 255 255 -655.000000
-1.02980006 3.42429996 12.23729992 255 255 255 -1215.000000
2.66840005 4.62200022 7.90959978 255 255 255 -751.000000
2.67540002 4.66569996 7.85960007 255 255 255 321.000000
2.67059994 4.68940020 7.83850002 255 255 255 465.000000
2.66330004 4.70730019 7.82530022 255 255 255 609.000000
2.65330005 4.72060013 7.81869984 255 255 255 577.000000
2.64059997 4.73000002 7.81799984 255 255 255 561.000000
2.62759995 4.73780012 7.81920004 255 255 255 529.000000
2.61330009 4.74389982 7.82310009 255 255 255 513.000000
2.59610009 4.74620008 7.83319998 255 255 255 449.000000
2.57480001 4.74009991 7.85459995 255 255 255 385.000000
2.53290009 4.69999981 7.92560005 255 255 255 -2047.000000
-1.06630003 3.39159989 12.23770046 255 255 255 -2047.000000
2.67370009 4.63460016 7.85319996 255 255 255 -175.000000
2.67860007 4.67430019 7.80910015 255 255 255 449.000000
2.67240000 4.69560003 7.79160023 255 255 255 641.000000
2.66459990 4.71250010 7.77969980 255 255 255 609.000000
2.65529990 4.72709990 7.77129984 255 255 255 609.000000
2.64359999 4.73820019 7.76830006 255 255 255 545.000000
2.63299990 4.74989986 7.76380014 255 255 255 577.000000
2.61879992 4.75610018 7.76749992 255 255 255 97.000000
2.60220003 4.75930023 7.77619982 255 255 255 97.000000
2.58360004 4.75780010 7.79099989 255 255 255 97.000000
2.55110002 4.73320007 7.83909988 255 255 255 -143.000000
2.67860007 4.67729998 7.76679993 255 255 255 433.000000
2.67230010 4.69840002 7.74959993 255 255 255 593.000000
2.66499996 4.71630001 7.73649979 255 255 255 577.000000
2.65660000 4.73220015 7.72620010 255 255 255 577.000000
2.64590001 4.74510002 7.72060013 255 255 255 577.000000
2.63610005 4.75820017 7.71420002 255 255 255 161.000000
2.62430000 4.76849985 7.71210003 255 255 255 -63.000000
2.57189989 4.77080011 7.74700022 255 255 255 -63.000000
2.67020011 4.69780016 7.71280003 255 255 255 609.000000
2.66450000 4.71840000 7.69589996 255 255 255 689.000000
2.64779997 4.75129986 7.67420006 255 255 255 465.000000
2.61350012 4.78420019 7.66520023 255 255 255 369.000000
2.59800005 4.78779984 7.67259979 255 255 255 817.000000
2.58130002 4.78929996 7.68300009 255 255 255 625.000000
2.55909991 4.78340006 7.70459986 255 255 255 65.000000
2.66779995 4.69649982 7.67710018 255 255 255 433.000000
2.66310000 4.71890020 7.65780020 255 255 255 257.000000
2.65700006 4.73880005 7.64200020 255 255 255 465.000000
2.63790011 4.76700020 7.62690020 255 255 255 737.000000
2.62610006 4.77729988 7.62480021 255 255 255 673.000000
2.61120009 4.78319979 7.62939978 255 255 255 817.000000
2.59389997 4.78380013 7.64099979 255 255 255 817.000000
2.57629991 4.78399992 7.65329981 255 255 255 561.000000
2.55730009 4.78319979 7.66750002 255 255 255 609.000000
2.52990007 4.76770020 7.70240021 255 255 255 -943.000000
2.64639997 4.75470018 7.59509993 255 255 255 657.000000
2.63709998 4.76859999 7.58769989 255 255 255 673.000000
2.62470007 4.77790022 7.58710003 255 255 255 913.000000
2.60929990 4.78299999 7.59270000 255 255 255 753.000000
2.59100008 4.78170013 7.60690022 255 255 255 753.000000
2.57200003 4.77950001 7.62239981 255 255 255 577.000000
2.55209994 4.77759981 7.63829994 255 255 255 721.000000
2.52679992 4.76550007 7.66820002 255 255 255 609.000000
2.66219997 4.69269991 7.60799980 255 255 255 321.000000
2.65650010 4.74370003 7.56110001 255 255 255 417.000000
2.64860010 4.76140022 7.54899979 255 255 255 785.000000
2.63860011 4.77400017 7.54330015 255 255 255 833.000000
2.62610006 4.78310013 7.54300022 255 255 255 785.000000
2.61059999 4.78789997 7.54899979 255 255 255 673.000000
2.59139991 4.78520012 7.56510019 255 255 255 481.000000
2.57019997 4.77950001 7.58549976 255 255 255 529.000000
2.54900002 4.77519989 7.60470009 255 255 255 513.000000
2.52080011 4.75850010 7.64090014 255 255 255 -479.000000
2.66210008 4.69540024 7.56750011 255 255 255 369.000000
2.65840006 4.74989986 7.51599979 255 255 255 609.000000
2.64919996 4.76529980 7.50689983 255 255 255 881.000000
2.63750005 4.77500010 7.50540018 255 255 255 929.000000
2.62360001 4.78170013 7.50829983 255 255 255 961.000000
2.60960007 4.78910017 7.51079988 255 255 255 849.000000
2.59190011 4.78889990 7.52320004 255 255 255 641.000000
2.57019997 4.78219986 7.54489994 255 255 255 577.000000
2.54629993 4.77349997 7.57019997 255 255 255 689.000000
2.51950002 4.75920010 7.60300016 255 255 255 -1455.000000
2.66680002 4.73689985 7.48540020 255 255 255 513.000000
2.65989995 4.75540018 7.47200012 255 255 255 785.000000
2.65039992 4.77029991 7.46369982 255 255 255 977.000000
2.63840008 4.77939987 7.46290016 255 255 255 929.000000
2.62439990 4.78579998 7.46630001 255 255 255 929.000000
2.60980010 4.79230022 7.46990013 255 255 255 817.000000
2.59220004 4.79220009 7.48220015 255 255 255 609.000000
2.56979990 4.78450012 7.50519991 255 255 255 577.000000
2.54500008 4.77419996 7.53259993 255 255 255 721.000000
2.51209998 4.74970007 7.57940006 255 255 255 -2047.000000
2.66930008 4.74410009 7.43940020 255 255 255 465.000000
2.66140008 4.76079988 7.42829990 255 255 255 769.000000
2.65190005 4.77559996 7.42019987 255 255 255 753.000000
2.63949990 4.78399992 7.42049980 255 255 255 817.000000
2.62570000 4.79080009 7.42329979 255 255 255 673.000000
2.60929990 4.79419994 7.43120003 255 255 255 881.000000
2.59130001 4.79339981 7.44430017 255 255 255 609.000000
2.56890011 4.78579998 7.46710014 255 255 255 609.000000
2.54209995 4.77220011 7.49900007 255 255 255 625.000000
2.67499995 4.72650003 7.41559982 255 255 255 353.000000
2.67179990 4.75110006 7.39379978 255 255 255 577.000000
2.66339993 4.76709986 7.38380003 255 255 255 929.000000
2.65280008 4.78000021 7.37839985 255 255 255 817.000000
2.64030004 4.78809977 7.37890005 255 255 255 961.000000
2.62630010 4.79470015 7.38210011 255 255 255 881.000000
2.60949993 4.79729986 7.39090014 255 255 255 833.000000
2.58969998 4.79349995 7.40819979 255 255 255 801.000000
2.56789994 4.78690004 7.42959976 255 255 255 769.000000
2.53800011 4.76819992 7.46829987 255 255 255 625.000000
2.67810011 4.73470020 7.36870003 255 255 255 625.000000
2.67300010 4.75610018 7.35129976 255 255 255 737.000000
2.66520000 4.77290010 7.34019995 255 255 255 817.000000
2.65339994 4.78359985 7.33769989 255 255 255 849.000000
2.64089990 4.79199982 7.33799982 255 255 255 929.000000
2.62610006 4.79710007 7.34299994 255 255 255 1025.000000
2.60789990 4.79750013 7.35510015 255 255 255 881.000000
2.58850002 4.79430008 7.37130022 255 255 255 737.000000
2.56660008 4.78739977 7.39289999 255 255 255 785.000000
2.53309989 4.76280022 7.43959999 255 255 255 97.000000
2.67890000 4.70699978 7.35830021 255 255 255 -31.000000
2.68179989 4.74380016 7.32079983 255 255 255 657.000000
2.67580009 4.76370001 7.30550003 255 255 255 737.000000
2.66599989 4.77699995 7.29920006 255 255 255 865.000000
2.65450001 4.78830004 7.29600000 255 255 255 881.000000
2.64229989 4.79699993 7.29570007 255 255 255 673.000000
2.62619996 4.80000019 7.30369997 255 255 255 801.000000
2.60750008 4.79939985 7.31689978 255 255 255 817.000000
2.58680010 4.79430008 7.33580017 255 255 255 737.000000
2.56419992 4.78609991 7.35900021 255 255 255 657.000000
2.52929997 4.75939989 7.40829992 255 255 255 -2047.000000
2.68580008 4.72200012 7.30270004 255 255 255 353.000000
2.68429995 4.75099993 7.27580023 255 255 255 769.000000
2.67750001 4.76949978 7.26240015 255 255 255 689.000000
2.66700006 4.78149986 7.25780010 255 255 255 865.000000
2.65510011 4.79220009 7.25549984 255 255 255 865.000000
2.64199996 4.79930019 7.25750017 255 255 255 849.000000
2.62579989 4.80210018 7.26560020 255 255 255 865.000000
2.60759997 4.80229998 7.27769995 255 255 255 929.000000
2.58640003 4.79619980 7.29769993 255 255 255 753.000000
2.56170011 4.78480005 7.32530022 255 255 255 833.000000
2.68639994 4.75750017 7.23199987 255 255 255 625.000000
2.67960000 4.77580023 7.21899986 255 255 255 897.000000
2.66849995 4.78679991 7.21570015 255 255 255 833.000000
2.65510011 4.79489994 7.21689987 255 255 255 977.000000
2.64150000 4.80119991 7.21990013 255 255 255 897.000000
2.62560010 4.80439997 7.22749996 255 255 255 833.000000
2.60710001 4.80420017 7.23999977 255 255 255 705.000000
2.58520007 4.79710007 7.26140022 255 255 255 929.000000
2.55809999 4.78149986 7.29449987 255 255 255 833.000000
2.68020010 4.77960014 7.17899990 255 255 255 609.000000
2.66890001 4.79020023 7.17640018 255 255 255 737.000000
2.65510011 4.79759979 7.17840004 255 255 255 977.000000
2.64219999 4.80520010 7.17980003 255 255 255 929.000000
2.62500000 4.80609989 7.19040012 255 255 255 1009.000000
2.60579991 4.80480003 7.20440006 255 255 255 689.000000
2.58430004 4.79820013 7.22499990 255 255 255 849.000000
2.55360007 4.77680016 7.26569986 255 255 255 609.000000
2.69350004 4.71309996 7.19799995 255 255 255 609.000000
2.69670010 4.74919987 7.16160011 255 255 255 657.000000
2.69070005 4.77040005 7.14529991 255 255 255 401.000000
2.67650008 4.80590010 7.12099981 255 255 255 577.000000
2.65700006 4.80359983 7.13590002 255 255 255 689.000000
2.64289999 4.80889988 7.14020014 255 255 255 849.000000
2.62509990 4.80900002 7.15180016 255 255 255 769.000000
2.60470009 4.80550003 7.16870022 255 255 255 817.000000
2.58249998 4.79790020 7.19059992 255 255 255 769.000000
2.54850006 4.77110004 7.23839998 255 255 255 -2047.000000
2.70000005 4.72709990 7.14489985 255 255 255 721.000000
2.69950008 4.75680017 7.11709976 255 255 255 1009.000000
2.69169998 4.77479982 7.10519981 255 255 255 881.000000
2.68179989 4.78770018 7.09940004 255 255 255 513.000000
2.64219999 4.81040001 7.10379982 255 255 255 513.000000
2.62520003 4.81190014 7.11359978 255 255 255 369.000000
2.60529995 4.80929995 7.12909985 255 255 255 833.000000
2.70460010 4.73789978 7.09630013 255 255 255 785.000000
2.70140004 4.76280022 7.07499981 255 255 255 945.000000
2.69339991 4.78049994 7.06339979 255 255 255 929.000000
2.68269992 4.79190016 7.05959988 255 255 255 881.000000
2.67160010 4.80280018 7.05660009 255 255 255 833.000000
2.65890002 4.81209993 7.05609989 255 255 255 401.000000
2.57850003 4.79650021 7.12340021 255 255 255 545.000000
2.69980001 4.70120001 7.09870005 255 255 255 -1855.000000
2.70770001 4.74599981 7.05170012 255 255 255 753.000000
2.70390010 4.76980019 7.03170013 255 255 255 865.000000
2.69519997 4.78620005 7.02190018 255 255 255 881.000000
2.68440008 4.79759979 7.01819992 255 255 255 593.000000
2.67260003 4.80730009 7.01679993 255 255 255 993.000000
2.65989995 4.81640005 7.01660013 255 255 255 913.000000
2.64510012 4.82060003 7.02220011 255 255 255 273.000000
2.58170009 4.80439997 7.07870007 255 255 255 225.000000
2.70090008 4.70580006 7.05849981 255 255 255 321.000000
2.70479989 4.77409983 6.99240017 255 255 255 897.000000
2.69569993 4.78970003 6.98369980 255 255 255 977.000000
2.68549991 4.80200005 6.97870016 255 255 255 961.000000
2.67409992 4.81250000 6.97620010 255 255 255 1041.000000
2.66020012 4.81960011 6.97870016 255 255 255 913.000000
2.64599991 4.82469988 6.98309994 255 255 255 769.000000
2.62800002 4.82429981 6.99510002 255 255 255 641.000000
2.70339990 4.71290016 7.01539993 255 255 255 449.000000
2.70609999 4.77909994 6.95230007 255 255 255 1041.000000
2.69600010 4.79279995 6.94600010 255 255 255 1073.000000
2.68610001 4.80579996 6.94029999 255 255 255 881.000000
2.67479992 4.81629992 6.93779993 255 255 255 849.000000
2.66149998 4.82429981 6.93900013 255 255 255 913.000000
2.64709997 4.82929993 6.94360018 255 255 255 817.000000
2.62930012 4.82910013 6.95520020 255 255 255 609.000000
2.60780001 4.82380009 6.97399998 255 255 255 625.000000
2.70059991 4.71350002 6.94740009 255 255 255 753.000000
2.71180010 4.76389980 6.89410019 255 255 255 897.000000
2.70560002 4.78340006 6.88009977 255 255 255 977.000000
2.69679999 4.79949999 6.87090015 255 255 255 977.000000
2.68740010 4.81320000 6.86429977 255 255 255 993.000000
2.67580009 4.82310009 6.86250019 255 255 255 865.000000
2.66330004 4.83260012 6.86180019 255 255 255 977.000000
2.64750004 4.83510017 6.86959982 255 255 255 961.000000
2.58439994 4.81920004 6.92439985 255 255 255 737.000000
2.70180011 4.71810007 6.90819979 255 255 255 465.000000
2.71120000 4.76550007 6.85900021 255 255 255 881.000000
2.70609999 4.78690004 6.84259987 255 255 255 1137.000000
2.69799995 4.80410004 6.83199978 255 255 255 1041.000000
2.68750000 4.81589985 6.82789993 255 255 255 1057.000000
2.67650008 4.82690001 6.82469988 255 255 255 1105.000000
2.66170001 4.83249998 6.82900000 255 255 255 1105.000000
2.64800000 4.83839989 6.83239985 255 255 255 1041.000000
2.63229990 4.84189987 6.83920002 255 255 255 961.000000
2.61150002 4.83769989 6.85629988 255 255 255 721.000000
2.70370007 4.72410011 6.86740017 255 255 255 -447.000000
2.71149993 4.76849985 6.82229996 255 255 255 801.000000
2.70499992 4.78760004 6.80889988 255 255 255 801.000000
2.69720006 4.80530024 6.79769993 255 255 255 1041.000000
2.68740010 4.81839991 6.79190016 255 255 255 1105.000000
2.67470002 4.82639980 6.79260015 255 255 255 1073.000000
2.66260004 4.83650017 6.79110003 255 255 255 1073.000000
2.64739990 4.84000015 6.79750013 255 255 255 897.000000
2.63260007 4.84490013 6.80249977 255 255 255 865.000000
2.61339998 4.84340000 6.81599998 255 255 255 785.000000
2.58540010 4.82600021 6.84950018 255 255 255 769.000000
2.70429993 4.72770023 6.82989979 255 255 255 -1327.000000
2.71140003 4.77099991 6.78639984 255 255 255 785.000000
2.70429993 4.78889990 6.77449989 255 255 255 1073.000000
2.69679999 4.80719995 6.76259995 255 255 255 1009.000000
2.68770003 4.82140017 6.75549984 255 255 255 977.000000
2.67540002 4.83020020 6.75519991 255 255 255 1121.000000
2.66269994 4.83920002 6.75509977 255 255 255 945.000000
2.64879990 4.84490013 6.75869989 255 255 255 929.000000
2.63280010 4.84770012 6.76630020 255 255 255 785.000000
2.61389995 4.84670019 6.77909994 255 255 255 833.000000
2.58829999 4.83330011 6.80740023 255 255 255 705.000000
2.71050000 4.77199984 6.75260019 255 255 255 881.000000
2.70429993 4.79160023 6.73869991 255 255 255 849.000000
2.69580007 4.80800009 6.72919989 255 255 255 897.000000
2.68639994 4.82180023 6.72270012 255 255 255 929.000000
2.67529988 4.83249998 6.71990013 255 255 255 977.000000
2.66280007 4.84180021 6.71939993 255 255 255 785.000000
2.64890003 4.84749985 6.72300005 255 255 255 881.000000
2.63350010 4.85129976 6.72930002 255 255 255 897.000000
2.61549997 4.85190010 6.74009991 255 255 255 865.000000
2.59109998 4.84049988 6.76560020 255 255 255 833.000000
2.70959997 4.77290010 6.71899986 255 255 255 833.000000
2.70359993 4.79279995 6.70489979 255 255 255 929.000000
2.69549990 4.80999994 6.69449997 255 255 255 785.000000
2.68580008 4.82310009 6.68870020 255 255 255 929.000000
2.67630005 4.83659983 6.68249989 255 255 255 961.000000
2.66400003 4.84639978 6.68139982 255 255 255 881.000000
2.65039992 4.85249996 6.68450022 255 255 255 817.000000
2.63479996 4.85599995 6.69110012 255 255 255 833.000000
2.61640000 4.85589981 6.70270014 255 255 255 929.000000
2.59240007 4.84509993 6.72730017 255 255 255 705.000000
2.70790005 4.77260017 6.68709993 255 255 255 785.000000
2.70390010 4.79580021 6.66900015 255 255 255 945.000000
2.69569993 4.81300020 6.65859985 255 255 255 913.000000
2.68630004 4.82660007 6.65229988 255 255 255 945.000000
2.67600012 4.83879995 6.64779997 255 255 255 961.000000
2.66510010 4.85069990 6.64400005 255 255 255 817.000000
2.65100002 4.85599995 6.64809990 255 255 255 593.000000
2.63590002 4.86040020 6.65360022 255 255 255 625.000000
2.61879992 4.86229992 6.66249990 255 255 255 513.000000
2.59439993 4.85080004 6.68790007 255 255 255 561.000000
2.70720005 4.77379990 6.65360022 255 255 255 721.000000
2.70320010 4.79710007 6.63539982 255 255 255 961.000000
2.69530010 4.81459999 6.62459993 255 255 255 977.000000
2.68600011 4.82840014 6.61810017 255 255 255 961.000000
2.67600012 4.84119987 6.61299992 255 255 255 769.000000
2.66540003 4.85360003 6.60850000 255 255 255 625.000000
2.65179992 4.85979986 6.61149979 255 255 255 673.000000
2.63779998 4.86600018 6.61469984 255 255 255 417.000000
2.61960006 4.86600018 6.62599993 255 255 255 321.000000
2.59629989 4.85640001 6.64890003 255 255 255 241.000000
2.70700002 4.77610016 6.61889982 255 255 255 705.000000
2.70379996 4.80060005 6.59919977 255 255 255 785.000000
2.69560003 4.81769991 6.58909988 255 255 255 833.000000
2.68740010 4.83339977 6.58020020 255 255 255 881.000000
2.67810011 4.84709978 6.57390022 255 255 255 1073.000000
2.66700006 4.85890007 6.57040024 255 255 255 1041.000000
2.65470004 4.86719990 6.57060003 255 255 255 481.000000
2.64089990 4.87349987 6.57359982 255 255 255 561.000000
2.62220001 4.87270021 6.58589983 255 255 255 273.000000
2.59949994 4.86420012 6.60739994 255 255 255 113.000000
2.70709991 4.77880001 6.58389997 255 255 255 897.000000
2.70250010 4.80100012 6.56710005 255 255 255 1057.000000
2.69589996 4.82070017 6.55389977 255 255 255 913.000000
2.68820000 4.83710003 6.54419994 255 255 255 1041.000000
2.67890000 4.85099983 6.53770018 255 255 255 993.000000
2.66840005 4.86369991 6.53299999 255 255 255 913.000000
2.65610003 4.87190008 6.53329992 255 255 255 673.000000
2.62639999 4.88219976 6.54269981 255 255 255 529.000000
2.60570002 4.87680006 6.56010008 255 255 255 129.000000
2.70510006 4.77769995 6.55359983 255 255 255 849.000000
2.70300007 4.80429983 6.53160000 255 255 255 1105.000000
2.69709992 4.82520008 6.51700020 255 255 255 945.000000
2.68910003 4.84110022 6.50790024 255 255 255 945.000000
2.68009996 4.85540009 6.50089979 255 255 255 897.000000
2.66969991 4.86829996 6.49599981 255 255 255 1121.000000
2.65730000 4.87639999 6.49660015 255 255 255 913.000000
2.64319992 4.88229990 6.50000000 255 255 255 865.000000
2.62579989 4.88360023 6.50960016 255 255 255 945.000000
2.60509992 4.87820005 6.52699995 255 255 255 641.000000
2.58299994 4.87069988 6.54699993 255 255 255 369.000000
2.70600009 4.81190014 6.49119997 255 255 255 785.000000
2.69819999 4.82950020 6.48050022 255 255 255 737.000000
2.69029999 4.84560013 6.47130013 255 255 255 945.000000
2.68090010 4.85930014 6.46509981 255 255 255 961.000000
2.66969991 4.87069988 6.46199989 255 255 255 1041.000000
2.65759993 4.87919998 6.46190023 255 255 255 1025.000000
2.64350009 4.88509989 6.46549988 255 255 255 1041.000000
2.62599993 4.88630009 6.47510004 255 255 255 913.000000
2.60170007 4.87480021 6.49980021 255 255 255 641.000000
2.58299994 4.87309980 6.51270008 255 255 255 657.000000
2.70569992 4.78369999 6.48369980 255 255 255 689.000000
2.69499993 4.85599995 6.42770004 255 255 255 833.000000
2.68230009 4.86390018 6.42850018 255 255 255 897.000000
2.67020011 4.87389994 6.42719984 255 255 255 817.000000
2.65779996 4.88189983 6.42780018 255 255 255 801.000000
2.64339995 4.88740015 6.43179989 255 255 255 1009.000000
2.62479997 4.88670015 6.44360018 255 255 255 769.000000
2.59829998 4.87169981 6.47259998 255 255 255 769.000000
2.57640004 4.86460018 6.49189997 255 255 255 881.000000
2.71690011 4.83559990 6.40059996 255 255 255 913.000000
2.70330000 4.84310007 6.40220022 255 255 255 817.000000
2.68330002 4.86810017 6.39270020 255 255 255 993.000000
2.67170000 4.87879992 6.39050007 255 255 255 833.000000
2.65930009 4.88689995 6.39099979 255 255 255 1025.000000
2.64499998 4.89239979 6.39489985 255 255 255 817.000000
2.62540007 4.88999987 6.40880013 255 255 255 641.000000
2.59540009 4.86920023 6.44460011 255 255 255 929.000000
2.57279992 4.86110020 6.46509981 255 255 255 817.000000
2.71289992 4.80100012 6.40100002 255 255 255 913.000000
2.71050000 4.82690001 6.38030005 255 255 255 849.000000
2.70390010 4.84660006 6.36740017 255 255 255 1089.000000
2.69460011 4.86009979 6.36140013 255 255 255 1041.000000
2.65969992 4.88980007 6.35680008 255 255 255 993.000000
2.64490008 4.89459991 6.36159992 255 255 255 1089.000000
2.62630010 4.89379978 6.37349987 255 255 255 641.000000
2.59319997 4.86800003 6.41520023 255 255 255 673.000000
2.56909990 4.85729980 6.43879986 255 255 255 913.000000
2.71519995 4.80740023 6.36280012 255 255 255 1121.000000
2.71140003 4.83090019 6.34509993 255 255 255 657.000000
2.70499992 4.85080004 6.33190012 255 255 255 945.000000
2.69569993 4.86439991 6.32579994 255 255 255 993.000000
2.68499994 4.87570000 6.32250023 255 255 255 929.000000
2.67510009 4.88920021 6.31699991 255 255 255 881.000000
2.64680004 4.90010023 6.32450008 255 255 255 1073.000000
2.62700009 4.89739990 6.33869982 255 255 255 929.000000
2.59610009 4.87500000 6.37599993 255 255 255 785.000000
2.56599998 4.85459995 6.41130018 255 255 255 545.000000
2.71210003 4.80439997 6.33580017 255 255 255 1009.000000
2.71219993 4.83470011 6.31010008 255 255 255 993.000000
2.70619988 4.85519981 6.29629993 255 255 255 913.000000
2.69650006 4.86810017 6.29110003 255 255 255 1009.000000
2.68680000 4.88110018 6.28579998 255 255 255 1025.000000
2.67580009 4.89270020 6.28249979 255 255 255 1057.000000
2.66269994 4.89949989 6.28450012 255 255 255 1025.000000
2.59879994 4.88189983 6.33729982 255 255 255 769.000000
2.56520009 4.85570002 6.37930012 255 255 255 -591.000000
2.70639992 4.85790014 6.26300001 255 255 255 993.000000
2.68810010 4.88560009 6.25040007 255 255 255 945.000000
2.67700005 4.89709997 6.24730015 255 255 255 945.000000
2.66440010 4.90460014 6.24840021 255 255 255 1089.000000
2.64940000 4.90899992 6.25360012 255 255 255 977.000000
2.63019991 4.90719986 6.26639986 255 255 255 977.000000
2.71339989 4.84140015 6.24200010 255 255 255 1057.000000
2.69869995 4.87650013 6.22109985 255 255 255 881.000000
2.68939996 4.89010000 6.21509981 255 255 255 865.000000
2.66599989 4.90950012 6.21260023 255 255 255 961.000000
2.65079999 4.91349983 6.21829987 255 255 255 1073.000000
2.63249993 4.91330004 6.22919989 255 255 255 1009.000000
2.71210003 4.84159994 6.21180010 255 255 255 1169.000000
2.69039989 4.89419985 6.18060017 255 255 255 929.000000
2.68039989 4.90740013 6.17549992 255 255 255 1057.000000
2.65269995 4.91900015 6.18200016 255 255 255 977.000000
2.61279988 4.91179991 6.21140003 255 255 255 913.000000
2.71600008 4.82060003 6.19649982 255 255 255 1025.000000
2.71560001 4.84989977 6.17240000 255 255 255 1057.000000
2.70980000 4.87069988 6.15850019 255 255 255 1185.000000
2.67300010 4.89729977 6.15770006 255 255 255 897.000000
2.66989994 4.92080021 6.14020014 255 255 255 977.000000
2.63630009 4.92409992 6.15700006 255 255 255 993.000000
2.61260009 4.91359997 6.17950010 255 255 255 849.000000
2.57209992 4.87610006 6.23400021 255 255 255 -271.000000
2.69449997 4.90560007 6.10830021 255 255 255 769.000000
2.68510008 4.91970015 6.10209990 255 255 255 705.000000
2.65669990 4.93009996 6.11000013 255 255 255 1137.000000
2.63829994 4.92959976 6.12109995 255 255 255 833.000000
2.61409998 4.91830015 6.14449978 255 255 255 609.000000
2.57489991 4.88280010 6.19630003 255 255 255 209.000000
2.72099996 4.83400011 6.12190008 255 255 255 1137.000000
2.71819997 4.85900021 6.10300016 255 255 255 881.000000
2.71180010 4.87879992 6.09030008 255 255 255 897.000000
2.67249990 4.92959976 6.07130003 255 255 255 977.000000
2.65829992 4.93510008 6.07499981 255 255 255 1025.000000
2.64050007 4.93550014 6.08500004 255 255 255 945.000000
2.61750007 4.92609978 6.10589981 255 255 255 897.000000
2.72119999 4.83669996 6.08949995 255 255 255 993.000000
2.72040009 4.86509991 6.06669998 255 255 255 1041.000000
2.71359992 4.88399982 6.05509996 255 255 255 977.000000
2.68700004 4.92749977 6.03480005 255 255 255 913.000000
2.67420006 4.93459988 6.03639984 255 255 255 881.000000
2.66059995 4.94099998 6.03900003 255 255 255 897.000000
2.64219999 4.94049978 6.05009985 255 255 255 881.000000
2.61879992 4.93039989 6.07170010 255 255 255 737.000000
2.70910001 4.90780020 6.00860023 255 255 255 929.000000
2.70140004 4.92390013 5.99989986 255 255 255 913.000000
2.69009995 4.93489981 5.99739981 255 255 255 977.000000
2.67740011 4.94220018 5.99870014 255 255 255 993.000000
2.66260004 4.94670010 6.00360012 255 255 255 961.000000
2.64420009 4.94600010 6.01480007 255 255 255 1025.000000
2.62129998 4.93680000 6.03520012 255 255 255 833.000000
2.58410001 4.90460014 6.08260012 255 255 255 129.000000
2.71120000 4.91370010 5.97310019 255 255 255 993.000000
2.70250010 4.92799997 5.96649981 255 255 255 945.000000
2.69190001 4.94000006 5.96280003 255 255 255 1137.000000
2.67869997 4.94649982 5.96509981 255 255 255 1089.000000
2.66400003 4.95100021 5.96980000 255 255 255 1025.000000
2.64590001 4.95100021 5.98019981 255 255 255 1137.000000
2.62220001 4.94049978 6.00209999 255 255 255 881.000000
2.57529998 4.89239979 6.06750011 255 255 255 -415.000000
2.72889996 4.85669994 5.97980022 255 255 255 913.000000
2.72020006 4.90199995 5.94810009 255 255 255 897.000000
2.71320009 4.91919994 5.93830013 255 255 255 945.000000
2.70469999 4.93389988 5.93120003 255 255 255 1009.000000
2.69339991 4.94479990 5.92880011 255 255 255 1073.000000
2.68079996 4.95219994 5.93009996 255 255 255 993.000000
2.66510010 4.95520020 5.93650007 255 255 255 1041.000000
2.64680004 4.95469999 5.94729996 255 255 255 945.000000
2.62420011 4.94589996 5.96719980 255 255 255 913.000000
2.73210001 4.86450005 5.94229984 255 255 255 993.000000
2.72869992 4.88819981 5.92519999 255 255 255 961.000000
2.71490002 4.92439985 5.90390015 255 255 255 1041.000000
2.70639992 4.93889999 5.89709997 255 255 255 1025.000000
2.69420004 4.94840002 5.89639997 255 255 255 913.000000
2.68169999 4.95580006 5.89750004 255 255 255 1089.000000
2.66599989 4.95879984 5.90399981 255 255 255 977.000000
2.64689994 4.95709991 5.91610003 255 255 255 833.000000
2.62260008 4.94540024 5.93919992 255 255 255 1025.000000
2.73510003 4.87179995 5.90570021 255 255 255 977.000000
2.73160005 4.89550018 5.88870001 255 255 255 1025.000000
2.71709991 4.93030024 5.86899996 255 255 255 1009.000000
2.70810008 4.94399977 5.86310005 255 255 255 993.000000
2.69589996 4.95330000 5.86250019 255 255 255 1009.000000
2.68249989 4.95940018 5.86520004 255 255 255 913.000000
2.66720009 4.96290016 5.87099981 255 255 255 1025.000000
2.64790010 4.96070004 5.88360023 255 255 255 913.000000
2.62290001 4.94799995 5.90770006 255 255 255 849.000000
2.73819995 4.87949991 5.86880016 255 255 255 1073.000000
2.73280001 4.89970016 5.85570002 255 255 255 1009.000000
2.72690010 4.92000008 5.84289980 255 255 255 1073.000000
2.70910001 4.94789982 5.83069992 255 255 255 1025.000000
2.69670010 4.95690012 5.83039999 255 255 255 945.000000
2.68319988 4.96269989 5.83330011 255 255 255 849.000000
2.66820002 4.96659994 5.83869982 255 255 255 961.000000
2.64840007 4.96379995 5.85190010 255 255 255 1137.000000
2.62290001 4.95030022 5.87690020 255 255 255 785.000000
2.73979998 4.88439989 5.83519983 255 255 255 961.000000
2.73629999 4.90770006 5.81869984 255 255 255 1025.000000
2.72950006 4.92649984 5.80760002 255 255 255 913.000000
2.71099997 4.95319986 5.79680014 255 255 255 913.000000
2.69819999 4.96150017 5.79729986 255 255 255 1041.000000
2.68449998 4.96689987 5.80070019 255 255 255 961.000000
2.66829991 4.96899986 5.80800009 255 255 255 897.000000
2.64779997 4.96490002 5.82259989 255 255 255 897.000000
2.62170005 4.95039988 5.84849977 255 255 255 1041.000000
2.74169993 4.85990000 5.82469988 255 255 255 577.000000
2.74280000 4.89169979 5.79909992 255 255 255 993.000000
2.73790002 4.91279984 5.78509998 255 255 255 1121.000000
2.73079991 4.93109989 5.77470016 255 255 255 929.000000
2.70799994 4.95039988 5.77199984 255 255 255 833.000000
2.69899988 4.96490002 5.76569986 255 255 255 1121.000000
2.68449998 4.96910000 5.77040005 255 255 255 1057.000000
2.66860008 4.97160006 5.77720022 255 255 255 881.000000
2.64790010 4.96719980 5.79209995 255 255 255 945.000000
2.61870003 4.94759989 5.82359982 255 255 255 769.000000
2.74589992 4.86950016 5.78620005 255 255 255 817.000000
2.74600005 4.89940023 5.76270008 255 255 255 1121.000000
2.74000001 4.91839981 5.75120020 255 255 255 1217.000000
2.73359990 4.93800020 5.73929977 255 255 255 1121.000000
2.72480011 4.95179987 5.73339987 255 255 255 977.000000
2.71329999 4.96129990 5.73229980 255 255 255 1009.000000
2.61730003 4.94740009 5.79589987 255 255 255 721.000000
2.75049996 4.87949991 5.74749994 255 255 255 945.000000
2.74810004 4.90520000 5.72879982 255 255 255 1025.000000
2.74259996 4.92509985 5.71619987 255 255 255 1185.000000
2.73550010 4.94329977 5.70590019 255 255 255 993.000000
2.72600007 4.95599985 5.70130014 255 255 255 961.000000
2.71449995 4.96549988 5.70020008 255 255 255 945.000000
2.70129991 4.97300005 5.70149994 255 255 255 1089.000000
2.68689990 4.97720003 5.70609999 255 255 255 1121.000000
2.67009997 4.97830009 5.71449995 255 255 255 977.000000
2.64890003 4.97300005 5.73029995 255 255 255 1249.000000
2.61439991 4.94479990 5.77089977 255 255 255 337.000000
2.75419998 4.88819981 5.71049976 255 255 255 977.000000
2.75099993 4.91219997 5.69360018 255 255 255 1041.000000
2.74449992 4.93039989 5.68300009 255 255 255 1233.000000
2.73769999 4.94899988 5.67229986 255 255 255 1233.000000
2.72609997 4.95830011 5.67129993 255 255 255 1121.000000
2.71490002 4.96820021 5.66970015 255 255 255 1041.000000
2.70140004 4.97529984 5.67159986 255 255 255 1201.000000
2.68770003 4.98070002 5.67500019 255 255 255 1121.000000
2.67079997 4.98150015 5.68349981 255 255 255 929.000000
2.64840007 4.97419977 5.70130014 255 255 255 1025.000000
2.61500001 4.94789982 5.73979998 255 255 255 33.000000
2.75839996 4.89750004 5.67290020 255 255 255 1121.000000
2.75320005 4.91820002 5.65969992 255 255 255 1041.000000
2.74629998 4.93569994 5.64989996 255 255 255 945.000000
2.73869991 4.95279980 5.64090014 255 255 255 929.000000
2.72729993 4.96239996 5.63959980 255 255 255 1057.000000
2.71499991 4.97060013 5.63990021 255 255 255 913.000000
2.70050001 4.97590017 5.64370012 255 255 255 1041.000000
2.68689990 4.98140001 5.64680004 255 255 255 1041.000000
2.67020011 4.98269987 5.65490007 255 255 255 881.000000
2.64809990 4.97580004 5.67220020 255 255 255 913.000000
2.60949993 4.94089985 5.71980000 255 255 255 449.000000
2.75850010 4.86929989 5.66660023 255 255 255 33.000000
2.75589991 4.92490005 5.62529993 255 255 255 1041.000000
2.74839997 4.94129992 5.61679983 255 255 255 1073.000000
2.74000001 4.95730019 5.60890007 255 255 255 833.000000
2.72930002 4.96789980 5.60659981 255 255 255 1137.000000
2.71650004 4.97510004 5.60790014 255 255 255 1217.000000
2.70269990 4.98159981 5.61040020 255 255 255 1185.000000
2.68759990 4.98470020 5.61609983 255 255 255 1025.000000
2.66950011 4.98360014 5.62669992 255 255 255 913.000000
2.64750004 4.97700024 5.64370012 255 255 255 769.000000
2.75710011 4.92910004 5.59380007 255 255 255 865.000000
2.74979997 4.94579983 5.58479977 255 255 255 913.000000
2.74070001 4.96040010 5.57859993 255 255 255 929.000000
2.72909999 4.96960020 5.57770014 255 255 255 1217.000000
2.71490002 4.97459984 5.58150005 255 255 255 1169.000000
2.70070004 4.98040009 5.58470011 255 255 255 1233.000000
2.68639994 4.98470020 5.58909988 255 255 255 1329.000000
2.66969991 4.98589993 5.59719992 255 255 255 913.000000
2.64599991 4.97650003 5.61700010 255 255 255 769.000000
2.76620007 4.88689995 5.59350014 255 255 255 609.000000
2.75950003 4.93540001 5.56010008 255 255 255 881.000000
2.75180006 4.95139980 5.55200005 255 255 255 1041.000000
2.74049997 4.96220016 5.54979992 255 255 255 1073.000000
2.72909999 4.97170019 5.54860020 255 255 255 1041.000000
2.71409988 4.97520018 5.55389977 255 255 255 1025.000000
2.69959998 4.98050022 5.55770016 255 255 255 1121.000000
2.68560004 4.98549986 5.56139994 255 255 255 1297.000000
2.66669989 4.98299980 5.57329988 255 255 255 817.000000
2.64420009 4.97559977 5.59100008 255 255 255 817.000000
2.76909995 4.89410019 5.55889988 255 255 255 433.000000
2.76110005 4.94010019 5.52829981 255 255 255 945.000000
2.75230002 4.95419979 5.52220011 255 255 255 993.000000
2.74160004 4.96610022 5.51889992 255 255 255 1073.000000
2.72900009 4.97349977 5.51989985 255 255 255 993.000000
2.71399999 4.97720003 5.52510023 255 255 255 1089.000000
2.69939995 4.98229980 5.52899981 255 255 255 1185.000000
2.68359995 4.98420000 5.53590012 255 255 255 1073.000000
2.66619992 4.98420000 5.54519987 255 255 255 993.000000
2.64100003 4.97240019 5.56750011 255 255 255 625.000000
2.77239990 4.90180016 5.52400017 255 255 255 641.000000
2.77029991 4.92859983 5.50489998 255 255 255 865.000000
2.76279998 4.94519997 5.49630022 255 255 255 1009.000000
2.75430012 4.95959997 5.48990011 255 255 255 1025.000000
2.74230003 4.96939993 5.48880005 255 255 255 1105.000000
2.72909999 4.97580004 5.49090004 255 255 255 993.000000
2.71429992 4.97959995 5.49590015 255 255 255 945.000000
2.69989991 4.98509979 5.49930000 255 255 255 1089.000000
2.68370008 4.98640013 5.50689983 255 255 255 1089.000000
2.66529989 4.98470020 5.51789999 255 255 255 817.000000
2.63720012 4.96829987 5.54500008 255 255 255 609.000000
2.77710009 4.88299990 5.50839996 255 255 255 1393.000000
2.77579999 4.90990019 5.48880005 255 255 255 561.000000
2.77270007 4.93470001 5.47189999 255 255 255 897.000000
2.76530004 4.95149994 5.46309996 255 255 255 977.000000
2.75539994 4.96369982 5.45909977 255 255 255 1233.000000
2.74359989 4.97359991 5.45790005 255 255 255 1121.000000
2.73009992 4.97949982 5.46049976 255 255 255 1233.000000
2.71469998 4.98239994 5.46640015 255 255 255 913.000000
2.70040011 4.98799992 5.46980000 255 255 255 1137.000000
2.68339992 4.98799992 5.47870016 255 255 255 1137.000000
2.66370010 4.98409986 5.49189997 255 255 255 801.000000
2.63330007 4.96390009 5.52299976 255 255 255 497.000000
2.77629995 4.88360023 5.48110008 255 255 255 993.000000
2.78040004 4.91989994 5.45190001 255 255 255 1041.000000
2.77390003 4.93900013 5.44099998 255 255 255 1153.000000
2.76620007 4.95499992 5.43310022 255 255 255 1393.000000
2.75550008 4.96579981 5.43060017 255 255 255 1137.000000
2.74309993 4.97480011 5.43030024 255 255 255 1121.000000
2.73009992 4.98150015 5.43209982 255 255 255 1121.000000
2.71539998 4.98549986 5.43680000 255 255 255 1089.000000
2.69950008 4.98850012 5.44290018 255 255 255 1233.000000
2.68289995 4.98909998 5.45109987 255 255 255 1153.000000
2.66210008 4.98350000 5.46610022 255 255 255 897.000000
2.62949991 4.95970011 5.50080013 255 255 255 -207.000000
2.77970004 4.89160013 5.44630003 255 255 255 737.000000
2.78090000 4.92269993 5.42269993 255 255 255 977.000000
2.77430010 4.94169998 5.41190004 255 255 255 977.000000
2.76659989 4.95779991 5.40390015 255 255 255 865.000000
2.75650001 4.96960020 5.40040016 255 255 255 1041.000000
2.74419999 4.97879982 5.39989996 255 255 255 1105.000000
2.73110008 4.98530006 5.40189981 255 255 255 1041.000000
2.71510005 4.98710012 5.40889978 255 255 255 993.000000
2.69919991 4.98999977 5.41499996 255 255 255 1169.000000
2.68079996 4.98759985 5.42630005 255 255 255 833.000000
2.66050005 4.98290014 5.44040012 255 255 255 801.000000
2.62579989 4.95559978 5.47849989 255 255 255 -2047.000000
2.77909994 4.89270020 5.41879988 255 255 255 673.000000
2.78250003 4.92770004 5.39130020 255 255 255 833.000000
2.77550006 4.94570017 5.38159990 255 255 255 929.000000
2.76810002 4.96239996 5.37309980 255 255 255 913.000000
2.75839996 4.97480011 5.36889982 255 255 255 1169.000000
2.74460006 4.98150015 5.37099981 255 255 255 1009.000000
2.73130012 4.98759985 5.37340021 255 255 255 1041.000000
2.71600008 4.99049997 5.37909985 255 255 255 865.000000
2.69799995 4.98999977 5.38889980 255 255 255 1217.000000
2.67899990 4.98659992 5.40119982 255 255 255 993.000000
2.65700006 4.97919989 5.41800022 255 255 255 1025.000000
2.78640008 4.90740013 5.37750006 255 255 255 353.000000
2.78460002 4.93330002 5.35939980 255 255 255 961.000000
2.77729988 4.95079994 5.35029984 255 255 255 945.000000
2.76900005 4.96589994 5.34350014 255 255 255 913.000000
2.75799990 4.97609997 5.34149981 255 255 255 1121.000000
2.74370003 4.98190022 5.34460020 255 255 255 1073.000000
2.73029995 4.98789978 5.34709978 255 255 255 1377.000000
2.71469998 4.99049997 5.35319996 255 255 255 1169.000000
2.69779992 4.99170017 5.36100006 255 255 255 1233.000000
2.67779994 4.98659992 5.37500000 255 255 255 945.000000
2.65319991 4.97489977 5.39620018 255 255 255 881.000000
2.78340006 4.87430000 5.37669992 255 255 255 1.000000
2.79189992 4.91900015 5.33970022 255 255 255 657.000000
2.78690004 4.93930006 5.32740021 255 255 255 1009.000000
2.77880001 4.95539999 5.31969976 255 255 255 929.000000
2.77049994 4.97060013 5.31279993 255 255 255 1041.000000
2.75819993 4.97849989 5.31320000 255 255 255 1105.000000
2.74390006 4.98420000 5.31629992 255 255 255 1041.000000
2.73000002 4.98950005 5.31960011 255 255 255 1105.000000
2.71289992 4.98939991 5.32830000 255 255 255 1217.000000
2.69519997 4.98939991 5.33750010 255 255 255 1089.000000
2.67540002 4.98460007 5.35099983 255 255 255 945.000000
2.64680004 4.96630001 5.37900019 255 255 255 369.000000
2.79500008 4.89669991 5.32800007 255 255 255 401.000000
2.79600000 4.92810011 5.30459976 255 255 255 881.000000
2.78889990 4.94469976 5.29610014 255 255 255 945.000000
2.78060007 4.96059990 5.28859997 255 255 255 1057.000000
2.77080011 4.97310019 5.28450012 255 255 255 993.000000
2.75869989 4.98140001 5.28459978 255 255 255 1073.000000
2.74429989 4.98699999 5.28779984 255 255 255 1473.000000
2.72959995 4.99069977 5.29250002 255 255 255 1201.000000
2.71309996 4.99160004 5.30030012 255 255 255 1169.000000
2.69350004 4.98839998 5.31260014 255 255 255 1121.000000
2.67129993 4.97980022 5.33010006 255 255 255 817.000000
2.64010000 4.95739985 5.36219978 255 255 255 -1471.000000
2.80139995 4.90980005 5.28889990 255 255 255 561.000000
2.79719996 4.93219995 5.27479982 255 255 255 977.000000
2.78999996 4.94869995 5.26639986 255 255 255 913.000000
2.78150010 4.96409988 5.25939989 255 255 255 1073.000000
2.77049994 4.97440004 5.25750017 255 255 255 1185.000000
2.75850010 4.98309994 5.25729990 255 255 255 1121.000000
2.74370003 4.98780012 5.26130009 255 255 255 1329.000000
2.72869992 4.99119997 5.26639986 255 255 255 1153.000000
2.71230006 4.99230003 5.27390003 255 255 255 1009.000000
2.69180012 4.98769999 5.28760004 255 255 255 1153.000000
2.66869998 4.97739983 5.30670023 255 255 255 721.000000
2.80320001 4.88390017 5.28039980 255 255 255 737.000000
2.80460000 4.91739988 5.25559998 255 255 255 657.000000
2.79870009 4.93690014 5.24440002 255 255 255 1009.000000
2.79110003 4.95260000 5.23689985 255 255 255 977.000000
2.78230000 4.96750021 5.23050022 255 255 255 1009.000000
2.77090001 4.97720003 5.22919989 255 255 255 1121.000000
2.75769997 4.98360014 5.23120022 255 255 255 1249.000000
2.74309993 4.98869991 5.23479986 255 255 255 1153.000000
2.72779989 4.99149990 5.24049997 255 255 255 1121.000000
2.70989990 4.99020004 5.25040007 255 255 255 1281.000000
2.69039989 4.98719978 5.26240015 255 255 255 1249.000000
2.66389990 4.97149992 5.28709984 255 255 255 561.000000
2.80769992 4.89379978 5.24490023 255 255 255 561.000000
2.80590010 4.92170000 5.22580004 255 255 255 737.000000
2.80019999 4.94150019 5.21430016 255 255 255 1153.000000
2.79200006 4.95609999 5.20790005 255 255 255 1281.000000
2.78279996 4.97030020 5.20230007 255 255 255 1137.000000
2.77080011 4.97889996 5.20209980 255 255 255 1393.000000
2.75780010 4.98570013 5.20370007 255 255 255 1329.000000
2.74280000 4.99020004 5.20790005 255 255 255 1281.000000
2.72650003 4.99139977 5.21519995 255 255 255 1121.000000
2.70799994 4.98899984 5.22620010 255 255 255 1297.000000
2.68580008 4.98150015 5.24259996 255 255 255 929.000000
2.65599990 4.96040010 5.27260017 255 255 255 17.000000
2.80920005 4.86889982 5.23600006 255 255 255 -1583.000000
2.81019998 4.90030003 5.21299982 255 255 255 481.000000
2.80760002 4.92670012 5.19540024 255 255 255 785.000000
2.80069995 4.94439983 5.18610001 255 255 255 1041.000000
2.79239988 4.95879984 5.17990017 255 255 255 1025.000000
2.78239989 4.97170019 5.17560005 255 255 255 1169.000000
2.77049994 4.98040009 5.17530012 255 255 255 1073.000000
2.75699997 4.98640013 5.17770004 255 255 255 1153.000000
2.74219990 4.99109983 5.18170023 255 255 255 1377.000000
2.72510004 4.99090004 5.19029999 255 255 255 1265.000000
2.70670009 4.98880005 5.20100021 255 255 255 1393.000000
2.68160009 4.97650003 5.22219992 255 255 255 817.000000
2.81209993 4.87599993 5.20349979 255 255 255 113.000000
2.81299996 4.90710020 5.18090010 255 255 255 721.000000
2.80789995 4.92910004 5.16779995 255 255 255 865.000000
2.80089998 4.94659996 5.15869999 255 255 255 977.000000
2.79340005 4.96250010 5.15100002 255 255 255 1041.000000
2.78259993 4.97389984 5.14820004 255 255 255 1185.000000
2.77020001 4.98190022 5.14860010 255 255 255 1265.000000
2.75670004 4.98780012 5.15110016 255 255 255 1201.000000
2.74079990 4.99069977 5.15689993 255 255 255 1041.000000
2.72379994 4.99069977 5.16529989 255 255 255 1057.000000
2.70460010 4.98719978 5.17729998 255 255 255 1473.000000
2.67750001 4.97170019 5.20160007 255 255 255 753.000000
2.81629992 4.88549995 5.16879988 255 255 255 1041.000000
2.81419992 4.91120005 5.15159988 255 255 255 561.000000
2.80789995 4.93109989 5.14060020 255 255 255 913.000000
2.80229998 4.95109987 5.12909985 255 255 255 929.000000
2.79369998 4.96490002 5.12360001 255 255 255 1169.000000
2.78360009 4.97760010 5.11950016 255 255 255 1201.000000
2.77080011 4.98479986 5.12069988 255 255 255 1249.000000
2.75690007 4.98999977 5.12379980 255 255 255 1457.000000
2.74020004 4.99160004 5.13089991 255 255 255 1345.000000
2.72289991 4.99119997 5.13969994 255 255 255 1153.000000
2.70190001 4.98460007 5.15469980 255 255 255 1249.000000
2.66729999 4.95669985 5.19129992 255 255 255 -335.000000
2.81509995 4.88530016 5.14370012 255 255 255 705.000000
2.81419992 4.91330004 5.12440014 255 255 255 721.000000
2.80920005 4.93540001 5.11129999 255 255 255 1025.000000
2.80170012 4.95190001 5.10330009 255 255 255 977.000000
2.79399991 4.96740007 5.09619999 255 255 255 1153.000000
2.78309989 4.97860003 5.09359980 255 255 255 1265.000000
2.76959991 4.98470020 5.09579992 255 255 255 1153.000000
2.75679994 4.99179983 5.09709978 255 255 255 1201.000000
2.73950005 4.99249983 5.10500002 255 255 255 1553.000000
2.72149992 4.99069977 5.11509991 255 255 255 1153.000000
2.69930005 4.98220015 5.13189983 255 255 255 1169.000000
2.81590009 4.88870001 5.11530018 255 255 255 897.000000
2.81550002 4.91760015 5.09530020 255 255 255 865.000000
2.80949998 4.93779993 5.08400011 255 255 255 961.000000
2.80259991 4.95550013 5.07499981 255 255 255 817.000000
2.79430008 4.96990013 5.06890011 255 255 255 1121.000000
2.78299999 4.98040009 5.06689978 255 255 255 1185.000000
2.76999998 4.98729992 5.06839991 255 255 255 1185.000000
2.75609994 4.99249983 5.07159996 255 255 255 1329.000000
2.73880005 4.99319983 5.07940006 255 255 255 1393.000000
2.71989989 4.98979998 5.09100008 255 255 255 1073.000000
2.69700003 4.98029995 5.10879993 255 255 255 1217.000000
2.81080008 4.85169983 5.11810017 255 255 255 -799.000000
2.81710005 4.89279985 5.08650017 255 255 255 785.000000
2.81629992 4.92080021 5.06729984 255 255 255 961.000000
2.80960011 4.94000006 5.05709982 255 255 255 849.000000
2.80360007 4.95909977 5.04659986 255 255 255 1105.000000
2.79480004 4.97259998 5.04150009 255 255 255 1185.000000
2.78329992 4.98290014 5.03980017 255 255 255 1249.000000
2.77029991 4.98979998 5.04129982 255 255 255 1249.000000
2.75559998 4.99370003 5.04570007 255 255 255 1489.000000
2.73790002 4.99350023 5.05429983 255 255 255 1025.000000
2.71819997 4.98899984 5.06699991 255 255 255 1009.000000
2.69560003 4.97980022 5.08430004 255 255 255 1217.000000
2.81990004 4.86980009 5.07569981 255 255 255 -79.000000
2.81859994 4.89739990 5.05709982 255 255 255 929.000000
2.81590009 4.92220020 5.04120016 255 255 255 1137.000000
2.81100011 4.94439983 5.02810001 255 255 255 1121.000000
2.80349994 4.96089983 5.02019978 255 255 255 1185.000000
2.79439998 4.97399998 5.01550007 255 255 255 1169.000000
2.78340006 4.98490000 5.01319981 255 255 255 1281.000000
2.76979995 4.99079990 5.01560020 255 255 255 1329.000000
2.75559998 4.99539995 5.01929998 255 255 255 1073.000000
2.73690009 4.99380016 5.02930021 255 255 255 1009.000000
2.71760011 4.98990011 5.04139996 255 255 255 1121.000000
2.69219995 4.97609997 5.06320000 255 255 255 993.000000
2.81990004 4.87190008 5.04890013 255 255 255 321.000000
2.81929994 4.90059996 5.02930021 255 255 255 849.000000
2.81550002 4.92339993 5.01529980 255 255 255 1105.000000
2.81119990 4.94670010 5.00129986 255 255 255 881.000000
2.80460000 4.96470022 4.99200010 255 255 255 1137.000000
2.79520011 4.97720003 4.98789978 255 255 255 1249.000000
2.78360009 4.98719978 4.98649979 255 255 255 1297.000000
2.76990008 4.99289989 4.98909998 255 255 255 1217.000000
2.75539994 4.99700022 4.99319983 255 255 255 1377.000000
2.73769999 4.99700022 5.00169992 255 255 255 1041.000000
2.71659994 4.98999977 5.01660013 255 255 255 1217.000000
2.68899989 4.97259998 5.04169989 255 255 255 1057.000000
2.82100010 4.87570000 5.02050018 255 255 255 481.000000
2.81990004 4.90360022 5.00180006 255 255 255 625.000000
2.81699991 4.92799997 4.98640013 255 255 255 1201.000000
2.81130004 4.94880009 4.97469997 255 255 255 1073.000000
2.80539989 4.96799994 4.96439981 255 255 255 1297.000000
2.79749990 4.98299980 4.95790005 255 255 255 1217.000000
2.78290009 4.98780012 4.96140003 255 255 255 1297.000000
2.76970005 4.99450016 4.96309996 255 255 255 1553.000000
2.75430012 4.99709988 4.96869993 255 255 255 1041.000000
2.73620009 4.99639988 4.97779989 255 255 255 1121.000000
2.68810010 4.97300005 5.01669979 255 255 255 913.000000
2.82130003 4.87820005 4.99350023 255 255 255 593.000000
2.82170010 4.90869999 4.97249985 255 255 255 897.000000
2.81649995 4.92910004 4.96089983 255 255 255 1041.000000
2.81229997 4.95240021 4.94700003 255 255 255 1185.000000
2.80559993 4.97039986 4.93779993 255 255 255 1057.000000
2.79579997 4.98199987 4.93450022 255 255 255 1073.000000
2.77040005 4.99760008 4.93580008 255 255 255 1521.000000
2.75390005 4.99819994 4.94329977 255 255 255 881.000000
2.73569989 4.99730015 4.95249987 255 255 255 785.000000
2.71259999 4.98710012 4.97039986 255 255 255 113.000000
2.68339992 4.96700001 4.99790001 255 255 255 897.000000
2.82259989 4.88240004 4.96500015 255 255 255 689.000000
2.82200003 4.91120005 4.94570017 255 255 255 689.000000
2.81859994 4.93450022 4.93139982 255 255 255 1393.000000
2.81450009 4.95819998 4.91720009 255 255 255 1169.000000
2.80629992 4.97340012 4.91069984 255 255 255 1169.000000
2.79620004 4.98449993 4.90789986 255 255 255 1585.000000
2.78419995 4.99380016 4.90719986 255 255 255 1329.000000
2.77110004 5.00059986 4.90869999 255 255 255 1441.000000
2.71569991 4.99420023 4.93919992 255 255 255 833.000000
2.82360005 4.88619995 4.93709993 255 255 255 753.000000
2.82279992 4.91450024 4.91820002 255 255 255 625.000000
2.81990004 4.93879986 4.90310001 255 255 255 1169.000000
2.81389999 4.95889997 4.89230013 255 255 255 1185.000000
2.80609989 4.97489977 4.88520002 255 255 255 1313.000000
2.79590011 4.98589993 4.88240004 255 255 255 1265.000000
2.78379989 4.99499989 4.88189983 255 255 255 1377.000000
2.77020001 5.00089979 4.88439989 255 255 255 1441.000000
2.75519991 5.00419998 4.88920021 255 255 255 1377.000000
2.73679996 5.00299978 4.89860010 255 255 255 1329.000000
2.82399988 4.88889980 4.91020012 255 255 255 545.000000
2.82439995 4.91930008 4.88959980 255 255 255 689.000000
2.81890011 4.93889999 4.87890005 255 255 255 1169.000000
2.81380010 4.96059990 4.86670017 255 255 255 1137.000000
2.80649996 4.97749996 4.85860014 255 255 255 1265.000000
2.79699993 4.98969984 4.85489988 255 255 255 1233.000000
2.78460002 4.99819994 4.85489988 255 255 255 1713.000000
2.77150011 5.00489998 4.85650015 255 255 255 1393.000000
2.75600004 5.00740004 4.86210012 255 255 255 1505.000000
2.73699999 5.00519991 4.87249994 255 255 255 1105.000000
2.71659994 4.99940014 4.88590002 255 255 255 1169.000000
2.82380009 4.89039993 4.88469982 255 255 255 929.000000
2.82389998 4.92019987 4.86460018 255 255 255 769.000000
2.81929994 4.94140005 4.85249996 255 255 255 1217.000000
2.81459999 4.96390009 4.83960009 255 255 255 1281.000000
2.80660009 4.97949982 4.83279991 255 255 255 1281.000000
