1.646400500000000022e+01 -2.061601299999999881e+01 -8.660130000000000328e-01
1.643998699999999857e+01 -2.061000100000000046e+01 -8.480069999999999553e-01
1.647599800000000059e+01 -2.062098699999999951e+01 -8.480069999999999553e-01
1.646998599999999868e+01 -2.061698900000000023e+01 -8.539889999999999981e-01
1.647700499999999835e+01 -2.061900299999999930e+01 -8.400119999999999809e-01
1.649800099999999858e+01 -2.062400799999999990e+01 -8.360140000000000349e-01
1.647599800000000059e+01 -2.061900299999999930e+01 -8.149870000000000170e-01
1.649699400000000082e+01 -2.062498499999999879e+01 -8.130039999999999489e-01
1.637501500000000121e+01 -2.061500500000000002e+01 -7.809909999999999908e-01
1.637998999999999938e+01 -2.061000100000000046e+01 -8.079990000000000228e-01
1.638999899999999954e+01 -2.060200499999999835e+01 -8.079990000000000228e-01
1.637800599999999918e+01 -2.061299100000000095e+01 -7.840120000000000422e-01
1.639299000000000106e+01 -2.060499599999999987e+01 -7.960049999999999626e-01
1.642698700000000045e+01 -2.059901400000000038e+01 -8.100129999999999830e-01
1.641801500000000047e+01 -2.061201499999999953e+01 -7.840120000000000422e-01
1.642298900000000117e+01 -2.060301199999999966e+01 -7.870030000000000081e-01
1.643501300000000143e+01 -2.060301199999999966e+01 -7.949979999999999825e-01
1.640400700000000001e+01 -2.060301199999999966e+01 -7.809909999999999908e-01
1.637998999999999938e+01 -2.061100800000000177e+01 -7.620090000000000474e-01
1.642100500000000096e+01 -2.060499599999999987e+01 -7.649989999999999846e-01
1.644300799999999896e+01 -2.061500500000000002e+01 -7.660059999999999647e-01
1.644300799999999896e+01 -2.061500500000000002e+01 -8.100129999999999830e-01
1.646800199999999847e+01 -2.061000100000000046e+01 -7.970120000000000537e-01
1.644499199999999917e+01 -2.061299100000000095e+01 -7.930150000000000254e-01
1.645100400000000107e+01 -2.060700999999999894e+01 -7.889859999999999651e-01
1.647801199999999966e+01 -2.062400799999999990e+01 -8.090060000000000029e-01
1.647801199999999966e+01 -2.062199400000000082e+01 -8.119960000000000511e-01
1.647300699999999907e+01 -2.061698900000000023e+01 -8.119960000000000511e-01
1.647898899999999855e+01 -2.062300099999999858e+01 -7.840120000000000422e-01
1.648600800000000177e+01 -2.060499599999999987e+01 -7.910000000000000364e-01
1.644898999999999845e+01 -2.062098699999999951e+01 -7.809909999999999908e-01
1.644200100000000120e+01 -2.061601299999999881e+01 -7.809909999999999908e-01
1.647898899999999855e+01 -2.061201499999999953e+01 -7.679899999999999505e-01
1.647401400000000038e+01 -2.061299100000000095e+01 -7.809909999999999908e-01
1.610301199999999966e+01 -2.097099299999999999e+01 -6.939849999999999630e-01
1.611000100000000046e+01 -2.097801199999999966e+01 -6.959990000000000343e-01
1.611201499999999953e+01 -2.097700499999999835e+01 -7.490080000000000071e-01
1.612199400000000082e+01 -2.098500100000000046e+01 -7.219999999999999751e-01
1.610301199999999966e+01 -2.097099299999999999e+01 -7.329860000000000264e-01
1.608299299999999832e+01 -2.088999899999999954e+01 -6.939849999999999630e-01
1.609300199999999847e+01 -2.092500300000000024e+01 -7.490080000000000071e-01
1.609300199999999847e+01 -2.093101499999999859e+01 -7.329860000000000264e-01
1.609599299999999999e+01 -2.091999799999999965e+01 -7.190090000000000092e-01
1.608799700000000144e+01 -2.089100600000000085e+01 -7.329860000000000264e-01
1.609001200000000154e+01 -2.092698700000000045e+01 -6.959990000000000343e-01
1.609901400000000038e+01 -2.093101499999999859e+01 -6.939849999999999630e-01
1.609599299999999999e+01 -2.089100600000000085e+01 -7.069849999999999746e-01
1.611399799999999871e+01 -2.096501200000000154e+01 -6.339869999999999672e-01
1.612199400000000082e+01 -2.098799100000000095e+01 -6.800079999999999458e-01
1.611000100000000046e+01 -2.096501200000000154e+01 -6.750030000000000197e-01
1.610798600000000036e+01 -2.097099299999999999e+01 -6.550139999999999851e-01
1.611399799999999871e+01 -2.097599800000000059e+01 -6.429899999999999505e-01
1.612098699999999951e+01 -2.099198900000000023e+01 -6.389920000000000044e-01
1.607499699999999976e+01 -2.088999899999999954e+01 -6.550139999999999851e-01
1.609400899999999979e+01 -2.092698700000000045e+01 -6.769870000000000054e-01
1.609700000000000131e+01 -2.091600000000000037e+01 -6.660000000000000364e-01
1.609098799999999940e+01 -2.093101499999999859e+01 -6.550139999999999851e-01
1.609400899999999979e+01 -2.092500300000000024e+01 -6.429899999999999505e-01
1.612001000000000062e+01 -2.093400600000000011e+01 -6.530000000000000249e-01
1.609400899999999979e+01 -2.093000800000000083e+01 -6.349949999999999761e-01
1.608900500000000022e+01 -2.089299000000000106e+01 -6.330109999999999904e-01
1.607798800000000128e+01 -2.083198499999999953e+01 -7.119900000000000118e-01
1.607701099999999883e+01 -2.082600400000000107e+01 -7.140050000000000008e-01
1.608198499999999953e+01 -2.087098699999999951e+01 -7.490080000000000071e-01
1.608100900000000166e+01 -2.085700999999999894e+01 -7.429959999999999898e-01
1.608100900000000166e+01 -2.085099800000000059e+01 -7.329860000000000264e-01
1.607899499999999904e+01 -2.083699000000000012e+01 -7.459869999999999557e-01
1.607301299999999955e+01 -2.082701099999999883e+01 -7.289889999999999981e-01
1.608500700000000094e+01 -2.086900299999999930e+01 -6.959990000000000343e-01
1.606999199999999917e+01 -2.084999099999999927e+01 -6.939849999999999630e-01
1.608799700000000144e+01 -2.081898500000000141e+01 -7.069849999999999746e-01
1.608601399999999870e+01 -2.077198800000000034e+01 -6.939849999999999630e-01
1.609199500000000072e+01 -2.080400099999999952e+01 -7.490080000000000071e-01
1.608500700000000094e+01 -2.081199600000000061e+01 -7.329860000000000264e-01
1.608799700000000144e+01 -2.077101100000000145e+01 -7.419890000000000096e-01
1.608601399999999870e+01 -2.077198800000000034e+01 -7.329860000000000264e-01
1.609800699999999907e+01 -2.075801099999999977e+01 -7.469940000000000468e-01
1.608000200000000035e+01 -2.081098899999999929e+01 -6.939849999999999630e-01
1.608299299999999832e+01 -2.080900600000000011e+01 -6.959990000000000343e-01
1.609800699999999907e+01 -2.075898700000000119e+01 -7.129969999999999919e-01
1.607600400000000107e+01 -2.081898500000000141e+01 -6.450040000000000218e-01
1.607301299999999955e+01 -2.084199500000000072e+01 -6.729889999999999484e-01
1.607301299999999955e+01 -2.082600400000000107e+01 -6.729889999999999484e-01
1.607701099999999883e+01 -2.082600400000000107e+01 -6.790009999999999657e-01
1.608699000000000012e+01 -2.086799600000000154e+01 -6.429899999999999505e-01
1.607099900000000048e+01 -2.084999099999999927e+01 -6.550139999999999851e-01
1.607499699999999976e+01 -2.083299299999999832e+01 -6.299900000000000500e-01
1.607701099999999883e+01 -2.082200599999999824e+01 -6.330109999999999904e-01
1.608900500000000022e+01 -2.077198800000000034e+01 -6.550139999999999851e-01
1.609800699999999907e+01 -2.078300499999999928e+01 -6.769870000000000054e-01
1.609800699999999907e+01 -2.075700399999999846e+01 -6.800079999999999458e-01
1.607701099999999883e+01 -2.081098899999999929e+01 -6.550139999999999851e-01
1.607200599999999824e+01 -2.080400099999999952e+01 -6.500089999999999479e-01
1.608000200000000035e+01 -2.081098899999999929e+01 -6.429899999999999505e-01
1.610200499999999835e+01 -2.096501200000000154e+01 -5.839999999999999636e-01
1.611100800000000177e+01 -2.097801199999999966e+01 -5.909879999999999578e-01
1.610099800000000059e+01 -2.097099299999999999e+01 -6.150050000000000239e-01
1.612098699999999951e+01 -2.099101299999999881e+01 -5.969999999999999751e-01
1.610099800000000059e+01 -2.097099299999999999e+01 -5.760039999999999605e-01
1.607301299999999955e+01 -2.088999899999999954e+01 -5.760039999999999605e-01
1.608699000000000012e+01 -2.093000800000000083e+01 -6.150050000000000239e-01
1.607600400000000107e+01 -2.088999899999999954e+01 -6.150050000000000239e-01
1.609001200000000154e+01 -2.092698700000000045e+01 -5.900119999999999809e-01
1.608500700000000094e+01 -2.093000800000000083e+01 -5.760039999999999605e-01
1.609400899999999979e+01 -2.092698700000000045e+01 -5.930020000000000291e-01
1.611900299999999930e+01 -2.099101299999999881e+01 -5.309909999999999908e-01
1.612300099999999858e+01 -2.098500100000000046e+01 -5.550079999999999458e-01
1.610798600000000036e+01 -2.097099299999999999e+01 -5.359949999999999992e-01
1.611500500000000002e+01 -2.097499099999999927e+01 -5.380099999999999882e-01
1.611799600000000154e+01 -2.096400500000000022e+01 -5.600129999999999830e-01
1.612098699999999951e+01 -2.099198900000000023e+01 -5.129850000000000243e-01
1.609400899999999979e+01 -2.093000800000000083e+01 -5.099949999999999761e-01
1.608900500000000022e+01 -2.092799400000000176e+01 -5.380099999999999882e-01
1.609498599999999868e+01 -2.092399599999999893e+01 -5.510099999999999998e-01
1.609599299999999999e+01 -2.093101499999999859e+01 -5.370030000000000081e-01
1.608500700000000094e+01 -2.089399699999999882e+01 -5.600129999999999830e-01
1.608100900000000166e+01 -2.088999899999999954e+01 -5.370030000000000081e-01
1.607701099999999883e+01 -2.082600400000000107e+01 -5.869900000000000118e-01
1.607798800000000128e+01 -2.083198499999999953e+01 -5.770110000000000516e-01
1.607499699999999976e+01 -2.085099800000000059e+01 -6.120149999999999757e-01
1.607301299999999955e+01 -2.084999099999999927e+01 -6.150050000000000239e-01
1.607798800000000128e+01 -2.082899499999999904e+01 -6.110079999999999956e-01
1.607200599999999824e+01 -2.082200599999999824e+01 -6.169890000000000096e-01
1.608799700000000144e+01 -2.087300099999999858e+01 -5.829929999999999835e-01
1.608799700000000144e+01 -2.086799600000000154e+01 -5.900119999999999809e-01
1.607099900000000048e+01 -2.084999099999999927e+01 -5.760039999999999605e-01
1.609300199999999847e+01 -2.077198800000000034e+01 -5.760039999999999605e-01
1.607398999999999845e+01 -2.081098899999999929e+01 -6.150050000000000239e-01
1.609700000000000131e+01 -2.078199800000000153e+01 -6.120149999999999757e-01
1.608900500000000022e+01 -2.077198800000000034e+01 -6.150050000000000239e-01
1.609700000000000131e+01 -2.075199900000000142e+01 -6.120149999999999757e-01
1.608900500000000022e+01 -2.080601499999999859e+01 -5.900119999999999809e-01
1.607798800000000128e+01 -2.081098899999999929e+01 -5.760039999999999605e-01
1.610301199999999966e+01 -2.078099100000000021e+01 -5.829929999999999835e-01
1.609999099999999927e+01 -2.076399199999999823e+01 -5.789950000000000374e-01
1.607899499999999904e+01 -2.083399999999999963e+01 -5.099949999999999761e-01
1.607600400000000107e+01 -2.085301199999999966e+01 -5.470120000000000537e-01
1.607701099999999883e+01 -2.087400799999999990e+01 -5.370030000000000081e-01
1.607200599999999824e+01 -2.085099800000000059e+01 -5.370030000000000081e-01
1.608299299999999832e+01 -2.081999199999999917e+01 -5.600129999999999830e-01
1.607899499999999904e+01 -2.083399999999999963e+01 -5.430150000000000254e-01
1.607798800000000128e+01 -2.082301299999999955e+01 -5.449979999999999825e-01
1.608699000000000012e+01 -2.077598599999999962e+01 -5.269930000000000447e-01
1.606300399999999939e+01 -2.079301500000000047e+01 -5.609889999999999599e-01
1.608198499999999953e+01 -2.081098899999999929e+01 -5.370030000000000081e-01
1.608500700000000094e+01 -2.080799899999999880e+01 -5.370030000000000081e-01
1.608900500000000022e+01 -2.077299500000000165e+01 -5.470120000000000537e-01
1.610099800000000059e+01 -2.077299500000000165e+01 -5.370030000000000081e-01
1.610099800000000059e+01 -2.077299500000000165e+01 -5.449979999999999825e-01
1.610398899999999855e+01 -2.075199900000000142e+01 -5.349880000000000191e-01
1.610099800000000059e+01 -2.076899699999999882e+01 -5.110019999999999563e-01
1.613798500000000047e+01 -2.069599900000000048e+01 -6.939849999999999630e-01
1.612300099999999858e+01 -2.071699500000000072e+01 -7.140050000000000008e-01
1.611201499999999953e+01 -2.073200999999999894e+01 -7.079929999999999835e-01
1.612199400000000082e+01 -2.072700499999999835e+01 -7.490080000000000071e-01
1.610798600000000036e+01 -2.074299600000000154e+01 -7.280119999999999925e-01
1.611100800000000177e+01 -2.073500100000000046e+01 -7.339940000000000353e-01
1.612300099999999858e+01 -2.071199000000000012e+01 -7.410130000000000328e-01
1.612300099999999858e+01 -2.071800199999999847e+01 -7.469940000000000468e-01
1.610200499999999835e+01 -2.073399399999999915e+01 -6.939849999999999630e-01
1.612001000000000062e+01 -2.072898899999999855e+01 -6.959990000000000343e-01
1.612199400000000082e+01 -2.071199000000000012e+01 -6.469880000000000075e-01
1.610301199999999966e+01 -2.072700499999999835e+01 -6.720120000000000537e-01
1.609400899999999979e+01 -2.074299600000000154e+01 -6.620030000000000081e-01
1.612199400000000082e+01 -2.071299700000000144e+01 -6.800079999999999458e-01
1.609599299999999999e+01 -2.074501000000000062e+01 -6.460110000000000019e-01
1.610200499999999835e+01 -2.073399399999999915e+01 -6.550139999999999851e-01
1.611799600000000154e+01 -2.072999599999999987e+01 -6.420139999999999736e-01
1.615199300000000093e+01 -2.069099399999999989e+01 -7.469940000000000468e-01
1.614601100000000145e+01 -2.069700599999999824e+01 -7.339940000000000353e-01
1.615098599999999962e+01 -2.068699600000000061e+01 -7.140050000000000008e-01
1.614799500000000165e+01 -2.068699600000000061e+01 -7.280119999999999925e-01
1.616600000000000037e+01 -2.066200299999999856e+01 -7.410130000000000328e-01
1.618699600000000061e+01 -2.065998799999999846e+01 -7.419890000000000096e-01
1.617900099999999952e+01 -2.065800499999999928e+01 -7.480010000000000270e-01
1.618101499999999859e+01 -2.066300999999999988e+01 -7.140050000000000008e-01
1.618598899999999929e+01 -2.065800499999999928e+01 -6.949920000000000542e-01
1.620799299999999832e+01 -2.064201399999999964e+01 -7.140050000000000008e-01
1.619200100000000120e+01 -2.065901200000000060e+01 -7.339940000000000353e-01
1.620899999999999963e+01 -2.064399699999999882e+01 -7.480010000000000270e-01
1.621501200000000154e+01 -2.063999899999999954e+01 -7.490080000000000071e-01
1.619599900000000048e+01 -2.065400700000000001e+01 -7.280119999999999925e-01
1.621101399999999870e+01 -2.064399699999999882e+01 -7.259980000000000322e-01
1.620600900000000166e+01 -2.065299999999999869e+01 -7.320100000000000495e-01
1.621800199999999847e+01 -2.063200399999999846e+01 -7.249910000000000521e-01
1.624299600000000154e+01 -2.063301099999999977e+01 -7.400050000000000239e-01
1.624299600000000154e+01 -2.063700899999999905e+01 -7.480010000000000270e-01
1.624800099999999858e+01 -2.063200399999999846e+01 -7.280119999999999925e-01
1.621199000000000012e+01 -2.064201399999999964e+01 -7.029879999999999463e-01
1.624299600000000154e+01 -2.063899199999999823e+01 -7.140050000000000008e-01
1.613798500000000047e+01 -2.069599900000000048e+01 -6.550139999999999851e-01
1.612501500000000121e+01 -2.071400500000000022e+01 -6.760099999999999998e-01
1.612901300000000049e+01 -2.072801199999999966e+01 -6.339869999999999672e-01
1.615098599999999962e+01 -2.068598899999999929e+01 -6.469880000000000075e-01
1.614698800000000034e+01 -2.068501300000000143e+01 -6.720120000000000537e-01
1.615098599999999962e+01 -2.068400600000000011e+01 -6.800079999999999458e-01
1.618000800000000083e+01 -2.065998799999999846e+01 -6.810150000000000370e-01
1.618699600000000061e+01 -2.065699800000000153e+01 -6.639859999999999651e-01
1.618000800000000083e+01 -2.065098599999999962e+01 -6.620030000000000081e-01
1.618000800000000083e+01 -2.066200299999999856e+01 -6.469880000000000075e-01
1.620799299999999832e+01 -2.064100600000000085e+01 -6.479949999999999877e-01
1.619499199999999917e+01 -2.065000900000000073e+01 -6.720120000000000537e-01
1.621299700000000144e+01 -2.065000900000000073e+01 -6.800079999999999458e-01
1.620799299999999832e+01 -2.064299000000000106e+01 -6.810150000000000370e-01
1.621699500000000072e+01 -2.063099700000000070e+01 -6.739960000000000395e-01
1.621699500000000072e+01 -2.063798500000000047e+01 -6.810150000000000370e-01
1.619999699999999976e+01 -2.064698800000000034e+01 -6.710049999999999626e-01
1.623399399999999915e+01 -2.064100600000000085e+01 -6.760099999999999998e-01
1.624800099999999858e+01 -2.063099700000000070e+01 -6.720120000000000537e-01
1.624198900000000023e+01 -2.063600200000000129e+01 -6.810150000000000370e-01
1.621998599999999868e+01 -2.063499499999999998e+01 -6.580049999999999510e-01
1.619300799999999896e+01 -2.065901200000000060e+01 -6.550139999999999851e-01
1.621699500000000072e+01 -2.063798500000000047e+01 -6.349949999999999761e-01
1.621998599999999868e+01 -2.062901300000000049e+01 -6.559909999999999908e-01
1.624198900000000023e+01 -2.063301099999999977e+01 -6.479949999999999877e-01
1.621998599999999868e+01 -2.062400799999999990e+01 -7.410130000000000328e-01
1.612300099999999858e+01 -2.072700499999999835e+01 -5.890050000000000008e-01
1.611299100000000095e+01 -2.073500100000000046e+01 -5.760039999999999605e-01
1.610600300000000118e+01 -2.073399399999999915e+01 -6.160130000000000328e-01
1.610398899999999855e+01 -2.072999599999999987e+01 -6.160130000000000328e-01
1.612199400000000082e+01 -2.071400500000000022e+01 -6.129909999999999526e-01
1.610600300000000118e+01 -2.073701499999999953e+01 -5.040130000000000443e-01
1.610499599999999987e+01 -2.073399399999999915e+01 -5.600129999999999830e-01
1.612001000000000062e+01 -2.072999599999999987e+01 -5.600129999999999830e-01
1.611601299999999881e+01 -2.073500100000000046e+01 -5.370030000000000081e-01
1.612400799999999990e+01 -2.072300699999999907e+01 -5.120090000000000474e-01
1.614299000000000106e+01 -2.069398500000000141e+01 -5.839999999999999636e-01
1.613700899999999905e+01 -2.069599900000000048e+01 -5.760039999999999605e-01
1.614299000000000106e+01 -2.069599900000000048e+01 -6.160130000000000328e-01
1.612501500000000121e+01 -2.072801199999999966e+01 -5.789950000000000374e-01
1.618699600000000061e+01 -2.065299999999999869e+01 -5.850070000000000547e-01
1.615098599999999962e+01 -2.068501300000000143e+01 -6.139980000000000437e-01
1.614500400000000013e+01 -2.067799400000000176e+01 -6.160130000000000328e-01
1.616700700000000168e+01 -2.066300999999999988e+01 -6.110079999999999956e-01
1.618000800000000083e+01 -2.066099499999999978e+01 -6.139980000000000437e-01
1.615098599999999962e+01 -2.068598899999999929e+01 -5.800020000000000175e-01
1.616099499999999978e+01 -2.067799400000000176e+01 -5.709990000000000343e-01
1.618400600000000011e+01 -2.065800499999999928e+01 -5.760039999999999605e-01
1.617900099999999952e+01 -2.065599100000000021e+01 -5.810089999999999977e-01
1.621000700000000094e+01 -2.065199300000000093e+01 -5.810089999999999977e-01
1.619300799999999896e+01 -2.065901200000000060e+01 -6.160130000000000328e-01
1.619300799999999896e+01 -2.064500400000000013e+01 -6.160130000000000328e-01
1.621299700000000144e+01 -2.064201399999999964e+01 -6.110079999999999956e-01
1.620698499999999953e+01 -2.064500400000000013e+01 -6.249850000000000128e-01
1.620799299999999832e+01 -2.064299000000000106e+01 -6.139980000000000437e-01
1.622499099999999927e+01 -2.063099700000000070e+01 -6.110079999999999956e-01
1.624900799999999990e+01 -2.063200399999999846e+01 -6.160130000000000328e-01
1.624198900000000023e+01 -2.062699900000000142e+01 -6.249850000000000128e-01
1.624101299999999881e+01 -2.062998999999999938e+01 -6.139980000000000437e-01
1.620600900000000166e+01 -2.064799500000000165e+01 -5.869900000000000118e-01
1.621699500000000072e+01 -2.063301099999999977e+01 -5.869900000000000118e-01
1.621299700000000144e+01 -2.064399699999999882e+01 -5.649870000000000170e-01
1.621199000000000012e+01 -2.064201399999999964e+01 -5.680079999999999574e-01
1.624198900000000023e+01 -2.063301099999999977e+01 -5.810089999999999977e-01
1.615199300000000093e+01 -2.068998699999999857e+01 -5.470120000000000537e-01
1.613398700000000119e+01 -2.072099299999999999e+01 -5.359949999999999992e-01
1.612501500000000121e+01 -2.072801199999999966e+01 -5.460049999999999626e-01
1.614201399999999964e+01 -2.071699500000000072e+01 -5.439910000000000023e-01
1.613999899999999954e+01 -2.069599900000000048e+01 -5.370030000000000081e-01
1.618699600000000061e+01 -2.065000900000000073e+01 -5.070040000000000102e-01
1.614601100000000145e+01 -2.068000800000000083e+01 -5.600129999999999830e-01
1.618000800000000083e+01 -2.065998799999999846e+01 -5.470120000000000537e-01
1.617900099999999952e+01 -2.065000900000000073e+01 -5.340120000000000422e-01
1.615000900000000073e+01 -2.068101499999999859e+01 -5.129850000000000243e-01
1.618101499999999859e+01 -2.066300999999999988e+01 -5.139920000000000044e-01
1.620399499999999904e+01 -2.065000900000000073e+01 -5.179899999999999505e-01
1.618800399999999939e+01 -2.065800499999999928e+01 -5.359949999999999992e-01
1.621101399999999870e+01 -2.065501400000000132e+01 -5.470120000000000537e-01
1.619801299999999955e+01 -2.063700899999999905e+01 -5.500030000000000197e-01
1.624101299999999881e+01 -2.063200399999999846e+01 -5.479889999999999484e-01
1.624900799999999990e+01 -2.063301099999999977e+01 -5.600129999999999830e-01
1.621101399999999870e+01 -2.064299000000000106e+01 -5.179899999999999505e-01
1.620698499999999953e+01 -2.064601100000000145e+01 -5.179899999999999505e-01
1.621101399999999870e+01 -2.065501400000000132e+01 -5.139920000000000044e-01
1.624299600000000154e+01 -2.063398700000000119e+01 -5.099949999999999761e-01
1.624198900000000023e+01 -2.063301099999999977e+01 -5.139920000000000044e-01
1.648701499999999953e+01 -2.063398700000000119e+01 -6.999969999999999803e-01
1.630500800000000083e+01 -2.062699900000000142e+01 -6.720120000000000537e-01
1.649198900000000023e+01 -2.062998999999999938e+01 -7.450099999999999500e-01
1.648298600000000036e+01 -2.063700899999999905e+01 -7.280119999999999925e-01
1.648701499999999953e+01 -2.063398700000000119e+01 -7.219999999999999751e-01
1.647898899999999855e+01 -2.063200399999999846e+01 -6.469880000000000075e-01
1.648399399999999915e+01 -2.064201399999999964e+01 -6.720120000000000537e-01
1.648200999999999894e+01 -2.062800599999999918e+01 -6.779939999999999856e-01
1.647801199999999966e+01 -2.062800599999999918e+01 -6.810150000000000370e-01
1.648899799999999871e+01 -2.063200399999999846e+01 -6.779939999999999856e-01
1.632798800000000128e+01 -2.061299100000000095e+01 -7.140050000000000008e-01
1.627000400000000013e+01 -2.062098699999999951e+01 -7.079929999999999835e-01
1.626298500000000047e+01 -2.061799600000000154e+01 -7.419890000000000096e-01
1.627500900000000073e+01 -2.062098699999999951e+01 -7.480010000000000270e-01
1.626600600000000085e+01 -2.062400799999999990e+01 -7.310029999999999584e-01
1.628599499999999978e+01 -2.062300099999999858e+01 -7.350010000000000154e-01
1.630299400000000176e+01 -2.061900299999999930e+01 -7.419890000000000096e-01
1.630799899999999880e+01 -2.061698900000000023e+01 -7.480010000000000270e-01
1.630299400000000176e+01 -2.062001000000000062e+01 -7.280119999999999925e-01
1.630101000000000155e+01 -2.062300099999999858e+01 -7.329860000000000264e-01
1.627500900000000073e+01 -2.062300099999999858e+01 -7.140050000000000008e-01
1.629301500000000047e+01 -2.061799600000000154e+01 -7.079929999999999835e-01
1.631001300000000143e+01 -2.062199400000000082e+01 -7.140050000000000008e-01
1.630699200000000104e+01 -2.061698900000000023e+01 -7.110140000000000349e-01
1.628300499999999928e+01 -2.062300099999999858e+01 -6.949920000000000542e-01
1.630799899999999880e+01 -2.061601299999999881e+01 -6.890110000000000401e-01
1.634001200000000154e+01 -2.060899399999999915e+01 -7.140050000000000008e-01
1.634001200000000154e+01 -2.061000100000000046e+01 -7.480010000000000270e-01
1.634098799999999940e+01 -2.060499599999999987e+01 -7.419890000000000096e-01
1.631898500000000141e+01 -2.061799600000000154e+01 -7.320100000000000495e-01
1.631300399999999939e+01 -2.060899399999999915e+01 -7.270050000000000123e-01
1.637400799999999990e+01 -2.061299100000000095e+01 -7.480010000000000270e-01
1.635200499999999835e+01 -2.060600300000000118e+01 -7.370149999999999757e-01
1.635899399999999915e+01 -2.060700999999999894e+01 -7.389980000000000437e-01
1.636399799999999871e+01 -2.061698900000000023e+01 -7.280119999999999925e-01
1.637400799999999990e+01 -2.061100800000000177e+01 -7.140050000000000008e-01
1.635099800000000059e+01 -2.060700999999999894e+01 -7.150119999999999809e-01
1.635200499999999835e+01 -2.060600300000000118e+01 -6.920009999999999772e-01
1.627400199999999941e+01 -2.061900299999999930e+01 -6.479949999999999877e-01
1.627500900000000073e+01 -2.062098699999999951e+01 -6.810150000000000370e-01
1.626701399999999964e+01 -2.062300099999999858e+01 -6.850129999999999830e-01
1.626399199999999823e+01 -2.061900299999999930e+01 -6.639859999999999651e-01
1.626899699999999882e+01 -2.062199400000000082e+01 -6.630099999999999882e-01
1.630500800000000083e+01 -2.062098699999999951e+01 -6.769870000000000054e-01
1.630900600000000011e+01 -2.061900299999999930e+01 -6.810150000000000370e-01
1.631199600000000061e+01 -2.061100800000000177e+01 -6.580049999999999510e-01
1.630699200000000104e+01 -2.061698900000000023e+01 -6.660000000000000364e-01
1.628001400000000132e+01 -2.062199400000000082e+01 -6.550139999999999851e-01
1.626799000000000106e+01 -2.062300099999999858e+01 -6.389920000000000044e-01
1.630900600000000011e+01 -2.062098699999999951e+01 -6.479949999999999877e-01
1.630799899999999880e+01 -2.061601299999999881e+01 -6.429899999999999505e-01
1.634001200000000154e+01 -2.060798600000000036e+01 -6.479949999999999877e-01
1.632398999999999845e+01 -2.060899399999999915e+01 -6.800079999999999458e-01
1.633900500000000022e+01 -2.060600300000000118e+01 -6.810150000000000370e-01
1.632499699999999976e+01 -2.060700999999999894e+01 -6.649929999999999453e-01
1.634098799999999940e+01 -2.060499599999999987e+01 -6.639859999999999651e-01
1.636201499999999953e+01 -2.061299100000000095e+01 -6.720120000000000537e-01
1.634700000000000131e+01 -2.060099800000000059e+01 -6.760099999999999998e-01
1.635600300000000118e+01 -2.060200499999999835e+01 -6.699979999999999825e-01
1.635099800000000059e+01 -2.060798600000000036e+01 -6.469880000000000075e-01
1.637400799999999990e+01 -2.060899399999999915e+01 -6.479949999999999877e-01
1.644200100000000120e+01 -2.061900299999999930e+01 -7.140050000000000008e-01
1.638499499999999998e+01 -2.060700999999999894e+01 -7.169950000000000490e-01
1.638099700000000070e+01 -2.061100800000000177e+01 -7.419890000000000096e-01
1.639100600000000085e+01 -2.060099800000000059e+01 -7.400050000000000239e-01
1.640400700000000001e+01 -2.060398899999999855e+01 -7.480010000000000270e-01
1.639601100000000145e+01 -2.060099800000000059e+01 -7.280119999999999925e-01
1.642100500000000096e+01 -2.060398899999999855e+01 -7.419890000000000096e-01
1.641999799999999965e+01 -2.061799600000000154e+01 -7.280119999999999925e-01
1.642100500000000096e+01 -2.060499599999999987e+01 -7.199860000000000149e-01
1.640400700000000001e+01 -2.060301199999999966e+01 -7.140050000000000008e-01
1.637901300000000049e+01 -2.061201499999999953e+01 -6.939849999999999630e-01
1.642100500000000096e+01 -2.060398899999999855e+01 -6.970060000000000144e-01
1.644300799999999896e+01 -2.061500500000000002e+01 -6.980129999999999946e-01
1.644099399999999989e+01 -2.061698900000000023e+01 -7.429959999999999898e-01
1.644200100000000120e+01 -2.061698900000000023e+01 -7.480010000000000270e-01
1.644099399999999989e+01 -2.061698900000000023e+01 -7.199860000000000149e-01
1.646998599999999868e+01 -2.061399799999999871e+01 -7.400050000000000239e-01
1.647401400000000038e+01 -2.061900299999999930e+01 -7.429959999999999898e-01
1.647499099999999927e+01 -2.061399799999999871e+01 -7.480010000000000270e-01
1.647898899999999855e+01 -2.061201499999999953e+01 -7.459869999999999557e-01
1.647801199999999966e+01 -2.061201499999999953e+01 -7.230069999999999553e-01
1.646998599999999868e+01 -2.060600300000000118e+01 -7.289889999999999981e-01
1.647499099999999927e+01 -2.061500500000000002e+01 -7.140050000000000008e-01
1.648500100000000046e+01 -2.061799600000000154e+01 -7.169950000000000490e-01
1.647700499999999835e+01 -2.061399799999999871e+01 -7.010039999999999605e-01
1.640299999999999869e+01 -2.059001200000000154e+01 -6.290130000000000443e-01
1.637501500000000121e+01 -2.061601299999999881e+01 -6.810150000000000370e-01
1.637699900000000142e+01 -2.060700999999999894e+01 -6.769870000000000054e-01
1.640400700000000001e+01 -2.060301199999999966e+01 -6.810150000000000370e-01
1.637998999999999938e+01 -2.061100800000000177e+01 -6.710049999999999626e-01
1.639601100000000145e+01 -2.059999099999999927e+01 -6.599880000000000191e-01
1.641899099999999834e+01 -2.061500500000000002e+01 -6.720120000000000537e-01
1.643598899999999929e+01 -2.061000100000000046e+01 -6.800079999999999458e-01
1.642298900000000117e+01 -2.060301199999999966e+01 -6.750030000000000197e-01
1.642100500000000096e+01 -2.060099800000000059e+01 -6.639859999999999651e-01
1.638301099999999977e+01 -2.060899399999999915e+01 -6.490019999999999678e-01
1.640299999999999869e+01 -2.059999099999999927e+01 -6.479949999999999877e-01
1.642601000000000155e+01 -2.059999099999999927e+01 -6.530000000000000249e-01
1.641398600000000130e+01 -2.061100800000000177e+01 -6.290130000000000443e-01
1.643998699999999857e+01 -2.061000100000000046e+01 -6.469880000000000075e-01
1.644801299999999955e+01 -2.061100800000000177e+01 -6.760099999999999998e-01
1.644200100000000120e+01 -2.061500500000000002e+01 -6.810150000000000370e-01
1.645500200000000035e+01 -2.060700999999999894e+01 -6.760099999999999998e-01
1.646299700000000144e+01 -2.061900299999999930e+01 -6.599880000000000191e-01
1.644099399999999989e+01 -2.059999099999999927e+01 -6.710049999999999626e-01
1.647401400000000038e+01 -2.061698900000000023e+01 -6.779939999999999856e-01
1.648399399999999915e+01 -2.060700999999999894e+01 -6.569979999999999709e-01
1.646800199999999847e+01 -2.059199500000000072e+01 -6.569979999999999709e-01
1.646800199999999847e+01 -2.062199400000000082e+01 -6.320040000000000102e-01
1.645399499999999904e+01 -2.060499599999999987e+01 -6.320040000000000102e-01
1.626399199999999823e+01 -2.062901300000000049e+01 -5.850070000000000547e-01
1.625300599999999918e+01 -2.063600200000000129e+01 -5.229949999999999877e-01
1.627699300000000093e+01 -2.062800599999999918e+01 -5.479889999999999484e-01
1.628001400000000132e+01 -2.062599200000000010e+01 -5.170139999999999736e-01
1.627699300000000093e+01 -2.062800599999999918e+01 -5.139920000000000044e-01
1.632301299999999955e+01 -2.063301099999999977e+01 -5.059970000000000301e-01
1.633799700000000144e+01 -2.065000900000000073e+01 -5.519870000000000054e-01
1.645698499999999953e+01 -2.063301099999999977e+01 -5.850070000000000547e-01
1.647801199999999966e+01 -2.062800599999999918e+01 -5.800020000000000175e-01
1.648298600000000036e+01 -2.062998999999999938e+01 -6.120149999999999757e-01
1.647898899999999855e+01 -2.062998999999999938e+01 -6.139980000000000437e-01
1.647999599999999987e+01 -2.062800599999999918e+01 -6.160130000000000328e-01
1.646699500000000072e+01 -2.062800599999999918e+01 -5.259859999999999536e-01
1.647801199999999966e+01 -2.062901300000000049e+01 -5.470120000000000537e-01
1.649000500000000002e+01 -2.063798500000000047e+01 -5.470120000000000537e-01
1.649198900000000023e+01 -2.062998999999999938e+01 -5.210110000000000019e-01
1.647898899999999855e+01 -2.063200399999999846e+01 -5.129850000000000243e-01
1.633799700000000144e+01 -2.061799600000000154e+01 -5.819849999999999746e-01
1.627500900000000073e+01 -2.062001000000000062e+01 -5.810089999999999977e-01
1.627500900000000073e+01 -2.062199400000000082e+01 -6.139980000000000437e-01
1.627500900000000073e+01 -2.062199400000000082e+01 -6.150050000000000239e-01
1.627000400000000013e+01 -2.062098699999999951e+01 -6.169890000000000096e-01
1.627101100000000145e+01 -2.062001000000000062e+01 -5.940090000000000092e-01
1.629200700000000168e+01 -2.061900299999999930e+01 -6.129909999999999526e-01
1.630900600000000011e+01 -2.061900299999999930e+01 -6.139980000000000437e-01
1.630799899999999880e+01 -2.061601299999999881e+01 -6.200099999999999500e-01
1.630400099999999952e+01 -2.062098699999999951e+01 -6.110079999999999956e-01
1.630198700000000045e+01 -2.061601299999999881e+01 -6.160130000000000328e-01
1.627900700000000001e+01 -2.062199400000000082e+01 -5.760039999999999605e-01
1.626701399999999964e+01 -2.062400799999999990e+01 -5.709990000000000343e-01
1.630699200000000104e+01 -2.061100800000000177e+01 -5.810089999999999977e-01
1.631001300000000143e+01 -2.061399799999999871e+01 -5.890050000000000008e-01
1.630198700000000045e+01 -2.062199400000000082e+01 -5.739900000000000002e-01
1.631700100000000120e+01 -2.060700999999999894e+01 -5.879969999999999919e-01
1.631898500000000141e+01 -2.061698900000000023e+01 -6.249850000000000128e-01
1.631800799999999896e+01 -2.059599299999999999e+01 -6.190029999999999699e-01
1.634001200000000154e+01 -2.060899399999999915e+01 -6.139980000000000437e-01
1.631498699999999857e+01 -2.061000100000000046e+01 -5.980069999999999553e-01
1.634700000000000131e+01 -2.061100800000000177e+01 -6.240080000000000071e-01
1.635899399999999915e+01 -2.060301199999999966e+01 -6.160130000000000328e-01
1.635899399999999915e+01 -2.059999099999999927e+01 -6.249850000000000128e-01
1.637199400000000082e+01 -2.060398899999999855e+01 -6.139980000000000437e-01
1.635200499999999835e+01 -2.060700999999999894e+01 -6.020050000000000123e-01
1.634001200000000154e+01 -2.060700999999999894e+01 -5.810089999999999977e-01
1.634098799999999940e+01 -2.060600300000000118e+01 -5.860140000000000349e-01
1.632398999999999845e+01 -2.061100800000000177e+01 -5.649870000000000170e-01
1.635398899999999855e+01 -2.060398899999999855e+01 -5.789950000000000374e-01
1.637300099999999858e+01 -2.060798600000000036e+01 -5.810089999999999977e-01
1.634400899999999979e+01 -2.060700999999999894e+01 -5.699920000000000542e-01
1.626399199999999823e+01 -2.062001000000000062e+01 -5.070040000000000102e-01
1.628099100000000021e+01 -2.062199400000000082e+01 -5.359949999999999992e-01
1.630799899999999880e+01 -2.061201499999999953e+01 -5.479889999999999484e-01
1.626701399999999964e+01 -2.062400799999999990e+01 -5.019989999999999730e-01
1.630900600000000011e+01 -2.061698900000000023e+01 -5.139920000000000044e-01
1.632099900000000048e+01 -2.060798600000000036e+01 -5.179899999999999505e-01
1.633299299999999832e+01 -2.062300099999999858e+01 -5.529939999999999856e-01
1.631800799999999896e+01 -2.060398899999999855e+01 -5.500030000000000197e-01
1.633900500000000022e+01 -2.060499599999999987e+01 -5.479889999999999484e-01
1.631498699999999857e+01 -2.059800699999999907e+01 -5.370030000000000081e-01
1.637199400000000082e+01 -2.060398899999999855e+01 -5.479889999999999484e-01
1.631401100000000071e+01 -2.060700999999999894e+01 -5.210110000000000019e-01
1.631599399999999989e+01 -2.060899399999999915e+01 -5.080109999999999904e-01
1.634098799999999940e+01 -2.060301199999999966e+01 -5.070040000000000102e-01
1.633900500000000022e+01 -2.060398899999999855e+01 -5.139920000000000044e-01
1.634700000000000131e+01 -2.061201499999999953e+01 -5.309909999999999908e-01
1.635899399999999915e+01 -2.059999099999999927e+01 -5.099949999999999761e-01
1.637199400000000082e+01 -2.060200499999999835e+01 -5.139920000000000044e-01
1.646199000000000012e+01 -2.062098699999999951e+01 -5.919950000000000490e-01
1.643501300000000143e+01 -2.059001200000000154e+01 -5.649870000000000170e-01
1.640599100000000021e+01 -2.061299100000000095e+01 -6.139980000000000437e-01
1.637800599999999918e+01 -2.060798600000000036e+01 -6.120149999999999757e-01
1.639100600000000085e+01 -2.060099800000000059e+01 -6.049959999999999782e-01
1.641700700000000168e+01 -2.060700999999999894e+01 -6.160130000000000328e-01
1.641300999999999988e+01 -2.061201499999999953e+01 -6.060029999999999584e-01
1.640501400000000132e+01 -2.060499599999999987e+01 -5.810089999999999977e-01
1.639100600000000085e+01 -2.060099800000000059e+01 -5.819849999999999746e-01
1.639399699999999882e+01 -2.060398899999999855e+01 -5.909879999999999578e-01
1.643699600000000061e+01 -2.062098699999999951e+01 -5.850070000000000547e-01
1.641999799999999965e+01 -2.060499599999999987e+01 -5.839999999999999636e-01
1.642201199999999872e+01 -2.060398899999999855e+01 -5.860140000000000349e-01
1.643901100000000071e+01 -2.060398899999999855e+01 -5.810089999999999977e-01
1.645298800000000128e+01 -2.060600300000000118e+01 -6.100010000000000154e-01
1.643901100000000071e+01 -2.060301199999999966e+01 -6.139980000000000437e-01
1.647801199999999966e+01 -2.061299100000000095e+01 -6.110079999999999956e-01
1.647200000000000131e+01 -2.062498499999999879e+01 -6.209869999999999557e-01
1.646998599999999868e+01 -2.061201499999999953e+01 -6.249850000000000128e-01
1.644700599999999824e+01 -2.061100800000000177e+01 -5.640110000000000401e-01
1.646501200000000154e+01 -2.062498499999999879e+01 -5.640110000000000401e-01
1.645600900000000166e+01 -2.060600300000000118e+01 -5.709990000000000343e-01
1.649699400000000082e+01 -2.062498499999999879e+01 -5.890050000000000008e-01
1.639601100000000145e+01 -2.060099800000000059e+01 -5.229949999999999877e-01
1.640400700000000001e+01 -2.060200499999999835e+01 -5.479889999999999484e-01
1.637501500000000121e+01 -2.061601299999999881e+01 -5.349880000000000191e-01
1.642698700000000045e+01 -2.059901400000000038e+01 -5.399929999999999453e-01
1.640501400000000132e+01 -2.060798600000000036e+01 -5.139920000000000044e-01
1.642100500000000096e+01 -2.059599299999999999e+01 -5.070040000000000102e-01
1.644300799999999896e+01 -2.061500500000000002e+01 -5.179899999999999505e-01
1.643901100000000071e+01 -2.060600300000000118e+01 -5.470120000000000537e-01
1.644200100000000120e+01 -2.060099800000000059e+01 -5.500030000000000197e-01
1.644300799999999896e+01 -2.061500500000000002e+01 -5.410000000000000364e-01
1.646699500000000072e+01 -2.062300099999999858e+01 -5.420070000000000165e-01
1.649800099999999858e+01 -2.062400799999999990e+01 -5.439910000000000023e-01
1.646000700000000094e+01 -2.062498499999999879e+01 -5.229949999999999877e-01
1.643998699999999857e+01 -2.060700999999999894e+01 -5.139920000000000044e-01
1.646998599999999868e+01 -2.062001000000000062e+01 -5.200040000000000218e-01
1.646998599999999868e+01 -2.061000100000000046e+01 -5.099949999999999761e-01
1.655400099999999952e+01 -2.096400500000000022e+01 -7.050020000000000175e-01
1.657499699999999976e+01 -2.095500200000000035e+01 -9.579929999999999835e-01
1.657798800000000128e+01 -2.094398500000000141e+01 -9.619900000000000118e-01
1.657499699999999976e+01 -2.095399499999999904e+01 -9.810029999999999584e-01
1.658699000000000012e+01 -2.099501000000000062e+01 -9.879909999999999526e-01
1.656599399999999989e+01 -2.098100300000000118e+01 -9.870149999999999757e-01
1.659400899999999979e+01 -2.087800599999999918e+01 -9.619900000000000118e-01
1.658399999999999963e+01 -2.091398600000000130e+01 -9.850010000000000154e-01
1.657099900000000048e+01 -2.092601000000000155e+01 -9.820100000000000495e-01
1.658500700000000094e+01 -2.088999899999999954e+01 -9.999850000000000128e-01
1.659700000000000131e+01 -2.090400700000000001e+01 -9.900050000000000239e-01
1.657200599999999824e+01 -2.092500300000000024e+01 -9.600070000000000547e-01
1.655500800000000083e+01 -2.099998499999999879e+01 -9.000089999999999479e-01
1.657301299999999955e+01 -2.094099399999999989e+01 -8.969880000000000075e-01
1.656898500000000141e+01 -2.098399399999999915e+01 -9.269870000000000054e-01
1.656700100000000120e+01 -2.096501200000000154e+01 -9.329990000000000228e-01
1.657099900000000048e+01 -2.095799299999999832e+01 -9.350129999999999830e-01
1.657301299999999955e+01 -2.095600900000000166e+01 -9.130099999999999882e-01
1.658299299999999832e+01 -2.094599900000000048e+01 -8.910059999999999647e-01
1.654600500000000096e+01 -2.091300999999999988e+01 -9.000089999999999479e-01
1.657600400000000107e+01 -2.089500400000000013e+01 -9.050139999999999851e-01
1.657600400000000107e+01 -2.092201199999999872e+01 -9.369960000000000511e-01
1.657600400000000107e+01 -2.090699800000000153e+01 -9.239960000000000395e-01
1.657701099999999883e+01 -2.092100500000000096e+01 -9.149929999999999453e-01
1.658900500000000022e+01 -2.088899199999999823e+01 -9.340060000000000029e-01
1.659199500000000072e+01 -2.087699900000000142e+01 -8.960110000000000019e-01
1.659098799999999940e+01 -2.081300399999999939e+01 -9.430079999999999574e-01
1.658900500000000022e+01 -2.084700000000000131e+01 -9.640050000000000008e-01
1.659001200000000154e+01 -2.084498599999999868e+01 -9.870149999999999757e-01
1.659498599999999868e+01 -2.087098699999999951e+01 -9.860079999999999956e-01
1.657798800000000128e+01 -2.083699000000000012e+01 -9.900050000000000239e-01
1.659098799999999940e+01 -2.081898500000000141e+01 -9.900050000000000239e-01
1.658000200000000035e+01 -2.081999199999999917e+01 -9.999850000000000128e-01
1.659199500000000072e+01 -2.081700100000000120e+01 -9.900050000000000239e-01
1.659001200000000154e+01 -2.084001200000000154e+01 -9.829860000000000264e-01
1.658601399999999870e+01 -2.084999099999999927e+01 -9.409939999999999971e-01
1.659400899999999979e+01 -2.087300099999999858e+01 -9.629969999999999919e-01
1.659400899999999979e+01 -2.087300099999999858e+01 -9.399870000000000170e-01
1.658699000000000012e+01 -2.075300599999999918e+01 -9.680020000000000291e-01
1.659300199999999847e+01 -2.081098899999999929e+01 -9.879909999999999526e-01
1.659199500000000072e+01 -2.078001400000000132e+01 -9.889980000000000437e-01
1.658799700000000144e+01 -2.075300599999999918e+01 -9.900050000000000239e-01
1.659098799999999940e+01 -2.075898700000000119e+01 -9.789889999999999981e-01
1.659199500000000072e+01 -2.081199600000000061e+01 -9.659879999999999578e-01
1.658500700000000094e+01 -2.078700299999999856e+01 -9.659879999999999578e-01
1.658198499999999953e+01 -2.078999299999999906e+01 -9.439849999999999630e-01
1.659498599999999868e+01 -2.080799899999999880e+01 -9.600070000000000547e-01
1.658699000000000012e+01 -2.075401300000000049e+01 -9.459990000000000343e-01
1.657701099999999883e+01 -2.084901400000000038e+01 -8.839869999999999672e-01
1.661698900000000023e+01 -2.084901400000000038e+01 -9.199979999999999825e-01
1.659098799999999940e+01 -2.084098799999999940e+01 -9.220120000000000537e-01
1.658000200000000035e+01 -2.081999199999999917e+01 -9.310150000000000370e-01
1.659599299999999999e+01 -2.084001200000000154e+01 -9.199979999999999825e-01
1.662300099999999858e+01 -2.087498499999999879e+01 -8.969880000000000075e-01
1.658799700000000144e+01 -2.075300599999999918e+01 -8.790130000000000443e-01
1.658900500000000022e+01 -2.080900600000000011e+01 -9.329990000000000228e-01
1.658399999999999963e+01 -2.078199800000000153e+01 -9.080049999999999510e-01
1.658100900000000166e+01 -2.079100000000000037e+01 -9.210049999999999626e-01
1.659400899999999979e+01 -2.081001300000000143e+01 -9.210049999999999626e-01
1.658399999999999963e+01 -2.075700399999999846e+01 -9.229889999999999484e-01
1.658601399999999870e+01 -2.080299400000000176e+01 -8.939970000000000416e-01
1.657798800000000128e+01 -2.079499799999999965e+01 -8.979949999999999877e-01
1.659599299999999999e+01 -2.080799899999999880e+01 -8.759919999999999929e-01
1.659800699999999907e+01 -2.077500900000000073e+01 -8.780059999999999532e-01
1.657499699999999976e+01 -2.094300799999999896e+01 -8.319849999999999746e-01
1.655900600000000011e+01 -2.096998599999999868e+01 -8.430020000000000291e-01
1.655799899999999880e+01 -2.097099299999999999e+01 -8.199920000000000542e-01
1.657200599999999824e+01 -2.095698499999999953e+01 -8.669890000000000096e-01
1.656800799999999896e+01 -2.098298600000000036e+01 -8.669890000000000096e-01
1.656700100000000120e+01 -2.096501200000000154e+01 -8.570100000000000495e-01
1.659098799999999940e+01 -2.087699900000000142e+01 -8.310089999999999977e-01
1.658500700000000094e+01 -2.091300999999999988e+01 -8.700099999999999500e-01
1.657301299999999955e+01 -2.092500300000000024e+01 -8.459929999999999950e-01
1.657499699999999976e+01 -2.090599100000000021e+01 -8.639980000000000437e-01
1.659001200000000154e+01 -2.087599200000000010e+01 -8.719940000000000468e-01
1.658799700000000144e+01 -2.087901300000000049e+01 -8.499910000000000521e-01
1.658198499999999953e+01 -2.088798500000000047e+01 -8.579860000000000264e-01
1.657200599999999824e+01 -2.092601000000000155e+01 -8.230129999999999946e-01
1.657798800000000128e+01 -2.090699800000000153e+01 -8.149870000000000170e-01
1.658601399999999870e+01 -2.088099700000000070e+01 -8.270110000000000516e-01
1.655299400000000176e+01 -2.096400500000000022e+01 -7.800139999999999851e-01
1.655299400000000176e+01 -2.099400299999999930e+01 -8.000030000000000197e-01
1.655699200000000104e+01 -2.097200000000000131e+01 -7.970120000000000537e-01
1.656098899999999929e+01 -2.097599800000000059e+01 -8.060150000000000370e-01
1.655500800000000083e+01 -2.097499099999999927e+01 -7.740019999999999678e-01
1.655400099999999952e+01 -2.099101299999999881e+01 -7.580109999999999904e-01
1.655601499999999859e+01 -2.097300699999999907e+01 -7.509919999999999929e-01
1.658000200000000035e+01 -2.088600200000000129e+01 -7.809909999999999908e-01
1.657600400000000107e+01 -2.092201199999999872e+01 -8.010099999999999998e-01
1.657701099999999883e+01 -2.090800499999999928e+01 -8.029939999999999856e-01
1.657798800000000128e+01 -2.089399699999999882e+01 -8.100129999999999830e-01
1.658000200000000035e+01 -2.088600200000000129e+01 -8.029939999999999856e-01
1.658299299999999832e+01 -2.088798500000000047e+01 -7.819979999999999709e-01
1.657398999999999845e+01 -2.092399599999999893e+01 -7.780000000000000249e-01
1.657398999999999845e+01 -2.092399599999999893e+01 -7.549900000000000500e-01
1.657798800000000128e+01 -2.088798500000000047e+01 -7.580109999999999904e-01
1.658699000000000012e+01 -2.081700100000000120e+01 -8.300020000000000175e-01
1.659300199999999847e+01 -2.081700100000000120e+01 -8.170009999999999772e-01
1.659199500000000072e+01 -2.084400899999999979e+01 -8.520050000000000123e-01
1.657398999999999845e+01 -2.083000200000000035e+01 -8.629909999999999526e-01
1.659098799999999940e+01 -2.084098799999999940e+01 -8.620149999999999757e-01
1.659300199999999847e+01 -2.084300199999999847e+01 -8.740080000000000071e-01
1.658900500000000022e+01 -2.081599399999999989e+01 -8.530119999999999925e-01
1.658500700000000094e+01 -2.085099800000000059e+01 -8.279879999999999463e-01
1.658299299999999832e+01 -2.075801099999999977e+01 -8.329929999999999835e-01
1.658299299999999832e+01 -2.080900600000000011e+01 -8.570100000000000495e-01
1.657600400000000107e+01 -2.079600500000000096e+01 -8.530119999999999925e-01
1.658299299999999832e+01 -2.075801099999999977e+01 -8.560029999999999584e-01
1.658299299999999832e+01 -2.075199900000000142e+01 -8.570100000000000495e-01
1.657701099999999883e+01 -2.079499799999999965e+01 -8.310089999999999977e-01
1.658500700000000094e+01 -2.080299400000000176e+01 -8.279879999999999463e-01
1.658500700000000094e+01 -2.076100200000000129e+01 -8.209990000000000343e-01
1.658100900000000166e+01 -2.084199500000000072e+01 -7.790070000000000050e-01
1.658000200000000035e+01 -2.085600300000000118e+01 -8.050079999999999458e-01
1.658399999999999963e+01 -2.085200499999999835e+01 -7.830049999999999510e-01
1.659098799999999940e+01 -2.084098799999999940e+01 -8.010099999999999998e-01
1.658699000000000012e+01 -2.081700100000000120e+01 -8.079990000000000228e-01
1.657099900000000048e+01 -2.083500700000000094e+01 -7.939910000000000023e-01
1.658299299999999832e+01 -2.082099900000000048e+01 -7.849880000000000191e-01
1.658000200000000035e+01 -2.087098699999999951e+01 -7.639920000000000044e-01
1.658601399999999870e+01 -2.084999099999999927e+01 -7.610019999999999563e-01
1.657701099999999883e+01 -2.082701099999999883e+01 -7.610019999999999563e-01
1.657398999999999845e+01 -2.076701399999999964e+01 -7.649989999999999846e-01
1.657701099999999883e+01 -2.078599499999999978e+01 -8.119960000000000511e-01
1.657899499999999904e+01 -2.079399099999999834e+01 -8.090060000000000029e-01
1.657798800000000128e+01 -2.079499799999999965e+01 -7.859949999999999992e-01
1.658000200000000035e+01 -2.075999499999999998e+01 -8.109889999999999599e-01
1.658198499999999953e+01 -2.075898700000000119e+01 -7.880099999999999882e-01
1.658000200000000035e+01 -2.080799899999999880e+01 -7.809909999999999908e-01
1.658601399999999870e+01 -2.080299400000000176e+01 -7.629850000000000243e-01
