-3.232773 -1.381912 5.577133
-3.230728 -1.376968 5.563278
-3.209396 -1.404282 5.569046
-3.218277 -1.403458 5.569931
-3.217819 -1.403214 5.568741
-3.210037 -1.399826 5.586349
-3.211594 -1.410721 5.595596
-3.206223 -1.425735 5.593887
-3.199295 -1.419601 5.602280
-3.208389 -1.411514 5.611679
-3.223190 -1.396469 5.595047
-3.213028 -1.396317 5.597153
-3.179276 -1.415604 5.720078
-3.188492 -1.441177 5.670151
-3.189804 -1.454483 5.627029
-3.188828 -1.441879 5.644089
-3.181961 -1.438278 5.667892
-3.173782 -1.479721 5.629013
-3.175278 -1.491776 5.627731
-3.180679 -1.483139 5.626266
-3.171890 -1.490158 5.653275
-3.174179 -1.481155 5.650467
-3.175064 -1.471756 5.645370
-3.168808 -1.476547 5.650955
-3.187027 -1.445236 5.640396
-3.173874 -1.461502 5.636703
-3.179977 -1.455368 5.634171
-3.173904 -1.468552 5.645828
-3.173447 -1.480515 5.666153
-3.178696 -1.483170 5.662521
-3.172745 -1.490555 5.686661
-3.173141 -1.480667 5.680466
-3.178360 -1.474319 5.681107
-3.184982 -1.437881 5.668961
-3.186600 -1.454147 5.662704
-3.186874 -1.443283 5.680435
-3.236404 -1.375717 5.664200
-3.225632 -1.432205 5.639969
-3.197433 -1.416885 5.632278
-3.189590 -1.433670 5.626755
-3.209641 -1.412582 5.643875
-3.238083 -1.386307 5.632004
-3.220108 -1.398300 5.630722
-3.225052 -1.379257 5.646042
-3.232193 -1.382797 5.646103
-3.217941 -1.402634 5.632553
-3.216537 -1.393631 5.654892
-3.206192 -1.398148 5.642471
-3.206253 -1.386826 5.654617
-3.195145 -1.386429 5.647446
-3.201889 -1.425705 5.666214
-3.193771 -1.431290 5.683456
-3.197617 -1.424149 5.678574
-3.196243 -1.433273 5.682541
-3.204117 -1.417160 5.683578
-3.207687 -1.408981 5.683517
-3.243729 -1.379684 5.664719
-3.225235 -1.388260 5.664322
-3.229691 -1.375015 5.656754
-3.244553 -1.377182 5.685928
-3.234085 -1.382462 5.673752
-3.214828 -1.400955 5.665176
-3.216690 -1.397507 5.669571
-3.188217 -1.404343 5.656326
-3.177841 -1.403091 5.653519
-3.190628 -1.440414 5.743393
-3.192490 -1.441238 5.714371
-3.201401 -1.491440 5.747910
-3.196335 -1.457169 5.743179
-3.181900 -1.444595 5.744186
-3.177292 -1.483353 5.699173
-3.182083 -1.438156 5.699600
-3.175217 -1.463577 5.697769
-3.186050 -1.457779 5.716019
-3.186386 -1.448257 5.710037
-3.172379 -1.470566 5.721786
-3.171707 -1.499588 5.723526
-3.179794 -1.475876 5.745865
-3.172134 -1.482376 5.740372
-3.170120 -1.476364 5.747269
-3.185898 -1.448044 5.741531
-3.183731 -1.456711 5.744186
-3.177872 -1.463364 5.739975
-3.175735 -1.456711 5.734543
-3.237808 -1.385330 5.726669
-3.198959 -1.421707 5.697220
-3.199417 -1.419144 5.697098
-3.195419 -1.432907 5.713150
-3.200241 -1.425308 5.715317
-3.208755 -1.409439 5.717545
-3.202194 -1.416306 5.712234
-3.235641 -1.382675 5.693192
-3.245468 -1.379379 5.695145
-3.228745 -1.380173 5.696274
-3.224014 -1.387741 5.694046
-3.220779 -1.395554 5.705917
-3.234543 -1.385513 5.712692
-3.206924 -1.389450 5.701767
-3.218582 -1.403061 5.696274
-3.215652 -1.402267 5.690994
-3.218430 -1.394455 5.690048
-3.209457 -1.381485 5.700394
-3.209061 -1.399368 5.711380
-3.216537 -1.401016 5.703720
-3.192581 -1.412033 5.727341
-3.196121 -1.414474 5.726089
-3.190903 -1.430893 5.737411
-3.205429 -1.413193 5.744125
-3.205795 -1.408157 5.744583
-3.223648 -1.392319 5.731216
-3.241470 -1.375870 5.744827
-3.237320 -1.382462 5.738388
-3.232834 -1.381912 5.735703
-3.217697 -1.401657 5.727280
-3.203995 -1.383224 5.747726
-3.173264 -1.432571 5.744583
-3.180557 -1.416550 5.712296
-3.248734 -1.368942 5.719009
-3.233963 -1.337753 5.670578
-3.245682 -1.367691 5.681656
-3.237106 -1.371719 5.675613
-3.227859 -1.370071 5.688553
-3.246506 -1.355453 5.717361
-3.248917 -1.374405 5.717300
-3.222641 -1.368088 5.706161
-3.301743 -1.352859 5.854050
-3.436050 -1.391373 5.852524
-3.494736 -1.445267 5.789688
-3.441879 -1.380478 5.786301
-3.477249 -1.418472 5.757797
-3.471115 -1.411972 5.751328
-3.488815 -1.436813 5.779861
-3.481705 -1.433731 5.779465
-3.473343 -1.388077 5.777512
-3.454391 -1.388901 5.758255
-3.458786 -1.403671 5.779160
-3.478287 -1.420578 5.793625
-3.472855 -1.411667 5.782822
-3.460831 -1.402267 5.808884
-3.453842 -1.396469 5.804184
-3.426102 -1.376633 5.790878
-3.435074 -1.390701 5.755203
-3.433243 -1.381180 5.793350
-3.429489 -1.383347 5.782822
-3.490891 -1.441391 5.852737
-3.496017 -1.446518 5.824234
-3.498886 -1.462265 5.814468
-3.489975 -1.438553 5.815140
-3.495926 -1.452988 5.868393
-3.461624 -1.405319 5.846939
-3.479752 -1.421341 5.827347
-3.482590 -1.436508 5.816635
-3.449753 -1.409195 5.831375
-3.442245 -1.384995 5.826950
-3.454910 -1.398575 5.840469
-3.447952 -1.392624 5.835434
-3.475479 -1.413620 5.851242
-3.484665 -1.434799 5.846054
-3.468460 -1.411087 5.851761
-3.443161 -1.387558 5.864334
-3.449234 -1.394058 5.870865
-3.435440 -1.385086 5.865616
-3.434341 -1.383041 5.829178
-3.426895 -1.379623 5.828751
-3.412094 -1.375229 5.831924
-3.419083 -1.378372 5.832169
-3.428604 -1.379562 5.861374
-3.413162 -1.377182 5.868271
-3.421219 -1.376968 5.862259
-3.257278 -1.379623 5.797470
-3.406723 -1.372543 5.865250
-3.411026 -1.373123 5.795700
-3.404404 -1.363724 5.751907
-3.386154 -1.372177 5.765457
-3.388382 -1.360306 5.757706
-3.393478 -1.370560 5.770493
-3.418594 -1.374496 5.792648
-3.395432 -1.369675 5.801071
-3.403488 -1.372086 5.799271
-3.385544 -1.371231 5.797012
-3.388199 -1.366257 5.800674
-3.380905 -1.363632 5.801651
-3.398422 -1.370926 5.868546
-3.396378 -1.371964 5.837723
-3.405106 -1.372330 5.832108
-3.388809 -1.369614 5.839340
-3.386795 -1.372665 5.830154
-3.382431 -1.364182 5.835129
-3.375290 -1.361465 5.835831
-3.390488 -1.369766 5.872299
-3.385635 -1.370987 5.861435
-3.384476 -1.363113 5.865829
-3.377579 -1.359604 5.865128
-3.303360 -1.347092 5.858963
-3.367630 -1.354385 5.796310
-3.364914 -1.357681 5.770279
-3.372086 -1.360947 5.770279
-3.349289 -1.354355 5.776260
-3.357742 -1.354050 5.769608
-3.351456 -1.353348 5.765671
-3.339035 -1.354630 5.750961
-3.315018 -1.351578 5.763809
-3.323959 -1.349930 5.754593
-3.339951 -1.354233 5.776566
-3.341690 -1.351730 5.777603
-3.334000 -1.349075 5.779037
-3.315506 -1.349014 5.774185
-3.347977 -1.351944 5.791946
-3.373062 -1.363144 5.806473
-3.359512 -1.353714 5.801132
-3.351822 -1.351791 5.803696
-3.325394 -1.350693 5.787918
-3.339035 -1.352890 5.807846
-3.317490 -1.349838 5.810226
-3.315109 -1.356339 5.804520
-3.301804 -1.352890 5.788559
-3.299606 -1.352005 5.752274
-3.284744 -1.355667 5.764633
-3.305740 -1.360123 5.779129
-3.297806 -1.352676 5.778336
-3.307968 -1.353653 5.766769
-3.305313 -1.356247 5.778397
-3.280655 -1.357986 5.760330
-3.257034 -1.369217 5.757828
-3.251846 -1.370255 5.756821
-3.265274 -1.362534 5.752090
-3.255569 -1.362350 5.757431
-3.254959 -1.366959 5.766739
-3.267899 -1.357498 5.772964
-3.282181 -1.359787 5.793503
-3.286667 -1.360062 5.798355
-3.306717 -1.357132 5.812088
-3.309586 -1.355576 5.800034
-3.290146 -1.356186 5.809464
-3.287582 -1.356827 5.802200
-3.259750 -1.372604 5.791946
-3.256668 -1.362778 5.791977
-3.269974 -1.358353 5.809341
-3.279099 -1.356552 5.798508
-3.271103 -1.355728 5.803268
-3.347244 -1.351669 5.856064
-3.348770 -1.352280 5.825912
-3.360458 -1.356125 5.837997
-3.369095 -1.355179 5.830185
-3.353836 -1.350845 5.834335
-3.334488 -1.352707 5.817856
-3.326675 -1.352005 5.822556
-3.318710 -1.350754 5.826523
-3.340378 -1.354416 5.840988
-3.343918 -1.355026 5.848404
-3.363022 -1.353439 5.865707
-3.371078 -1.354263 5.861160
-3.336380 -1.352219 5.849503
-3.325516 -1.353104 5.857162
-3.340775 -1.354752 5.873489
-3.316208 -1.349289 5.873856
-3.297775 -1.359055 5.850845
-3.299118 -1.353836 5.812576
-3.281601 -1.358871 5.824997
-3.289932 -1.355606 5.822250
-3.309402 -1.354324 5.839249
-3.305801 -1.354538 5.828293
-3.309616 -1.355423 5.832077
-3.279037 -1.353317 5.819901
-3.258072 -1.370193 5.822495
-3.256302 -1.362625 5.824203
-3.279160 -1.361282 5.839432
-3.279160 -1.353348 5.853165
-3.270645 -1.361984 5.847092
-3.254562 -1.365372 5.851578
-3.280746 -1.357529 5.856339
-3.271835 -1.359116 5.845657
-3.258011 -1.363358 5.860458
-3.267746 -1.357437 5.871597
-3.432327 -1.384476 5.970322
-3.491837 -1.443954 5.890152
-3.497177 -1.454453 5.903946
-3.457260 -1.402176 5.912949
-3.486832 -1.433060 5.875595
-3.474899 -1.421707 5.898941
-3.468826 -1.415817 5.893295
-3.462845 -1.406967 5.882797
-3.455887 -1.400864 5.877457
-3.450607 -1.395035 5.905685
-3.445267 -1.386185 5.894821
-3.438095 -1.381821 5.892593
-3.469986 -1.417618 5.929825
-3.476364 -1.422470 5.933578
-3.464188 -1.408157 5.918106
-3.446426 -1.388046 5.931503
-3.439255 -1.383682 5.929367
-3.431534 -1.385269 5.913620
-3.433517 -1.387955 5.882828
-3.423111 -1.376389 5.894119
-3.429855 -1.380966 5.896957
-3.432693 -1.377365 5.923477
-3.488937 -1.443924 5.995560
-3.494217 -1.447556 5.963272
-3.439041 -1.390335 5.975357
-3.481796 -1.432022 5.945724
-3.471603 -1.418045 5.964127
-3.464798 -1.412003 5.958664
-3.459518 -1.400192 5.942673
-3.452499 -1.394485 5.938034
-3.483505 -1.432022 5.979355
-3.477707 -1.423904 5.969711
-3.473038 -1.419083 5.999863
-3.466476 -1.412216 5.992813
-3.460342 -1.403397 5.982285
-3.453323 -1.397598 5.977493
-3.446274 -1.394516 5.977249
-3.440811 -1.396835 5.986435
-3.427994 -1.380478 5.943161
-3.426620 -1.376175 5.960556
-3.253769 -1.375443 5.984482
-3.258469 -1.382584 5.949234
-3.253830 -1.381210 5.966843
-3.380264 -1.367722 5.980240
-3.424301 -1.372635 5.917953
-3.408951 -1.370926 5.895218
-3.415787 -1.374283 5.895889
-3.381485 -1.365433 5.890274
-3.399948 -1.371536 5.902664
-3.393417 -1.365952 5.898270
-3.379318 -1.359695 5.898209
-3.386795 -1.361160 5.895157
-3.425491 -1.374252 5.923386
-3.410599 -1.371201 5.929031
-3.418137 -1.372238 5.925339
-3.411026 -1.367325 5.928146
-3.384201 -1.356552 5.914627
-3.379898 -1.363174 5.921249
-3.402695 -1.368301 5.929947
-3.395645 -1.364304 5.928391
-3.377731 -1.360001 5.984360
-3.411911 -1.372574 5.965134
-3.419998 -1.371811 5.958023
-3.378342 -1.360977 5.952408
-3.375778 -1.355942 5.963974
-3.385605 -1.356400 5.992599
-3.392624 -1.359451 5.992508
-3.398514 -1.366440 5.999802
-3.289658 -1.357681 5.973038
-3.345413 -1.350906 5.919235
-3.371353 -1.358902 5.902756
-3.340561 -1.354324 5.905563
-3.320847 -1.354660 5.899185
-3.357925 -1.355972 5.907913
-3.339127 -1.354416 5.919418
-3.332108 -1.351273 5.919601
-3.318222 -1.350113 5.910782
-3.339951 -1.353287 5.937332
-3.323288 -1.352615 5.928452
-3.300491 -1.352341 5.918594
-3.304123 -1.353836 5.891556
-3.309372 -1.354721 5.896133
-3.278671 -1.353165 5.885635
-3.250687 -1.369766 5.886795
-3.258591 -1.370499 5.887070
-3.280960 -1.357620 5.888626
-3.270859 -1.351822 5.875748
-3.262772 -1.365341 5.902512
-3.303970 -1.354813 5.912308
-3.311661 -1.357956 5.911484
-3.311264 -1.357040 5.930008
-3.290573 -1.358261 5.923141
-3.294449 -1.357590 5.924057
-3.280991 -1.357468 5.920853
-3.259079 -1.370926 5.919693
-3.256546 -1.372238 5.931107
-3.364304 -1.348587 5.980362
-3.349747 -1.353134 5.943954
-3.361008 -1.350204 5.965530
-3.369431 -1.349960 5.958847
-3.371048 -1.351303 5.958511
-3.334091 -1.350693 5.951797
-3.342178 -1.350540 5.945389
-3.340652 -1.348984 5.944351
-3.313431 -1.357925 5.944626
-3.318314 -1.350174 5.944595
-3.325241 -1.352036 5.960739
-3.352615 -1.349869 5.971359
-3.343033 -1.353317 5.984360
-3.341141 -1.349167 5.979080
-3.340744 -1.354141 5.970444
-3.315872 -1.355881 5.974228
-3.335587 -1.351608 5.987137
-3.297806 -1.358322 5.992203
-3.305496 -1.355545 5.946854
-3.296799 -1.360733 5.964188
-3.283859 -1.361069 5.955643
-3.295364 -1.360184 5.962173
-3.311996 -1.357773 5.962967
-3.266129 -1.366745 5.942368
-3.257462 -1.368576 5.950577
-3.253647 -1.370773 5.942398
-3.279465 -1.362289 5.960159
-3.257462 -1.372604 5.966812
-3.310501 -1.355637 5.994125
-3.284042 -1.361099 5.988174
-3.305191 -1.354263 5.994949
-3.306259 -1.358505 5.985977
-3.264908 -1.366226 5.974228
-3.278671 -1.361954 5.992905
-3.259171 -1.370621 5.984390
-3.245499 -1.367569 5.844009
-3.176620 -1.434067 5.816391
-3.191208 -1.450058 5.770798
-3.187393 -1.438889 5.796585
-3.182083 -1.478714 5.779678
-3.176193 -1.484329 5.773422
-3.170883 -1.483505 5.777298
-3.176071 -1.453201 5.762894
-3.181442 -1.464981 5.779037
-3.184280 -1.455338 5.773666
-3.171707 -1.473801 5.782639
-3.178055 -1.485550 5.811813
-3.176163 -1.470505 5.806686
-3.169052 -1.480423 5.807419
-3.186295 -1.443253 5.798630
-3.186203 -1.456558 5.812119
-3.239761 -1.387527 5.791977
-3.244247 -1.407028 5.757248
-3.234146 -1.436722 5.756088
-3.203476 -1.424149 5.763962
-3.195053 -1.432755 5.777481
-3.197495 -1.424088 5.775345
-3.203445 -1.416855 5.779434
-3.207260 -1.408798 5.779892
-3.235489 -1.382095 5.756577
-3.219803 -1.395035 5.757065
-3.224991 -1.388138 5.760391
-3.226059 -1.390305 5.758957
-3.231339 -1.381271 5.765518
-3.242935 -1.376480 5.779953
-3.239395 -1.381454 5.768021
-3.209854 -1.405655 5.761917
-3.213669 -1.401382 5.751999
-3.222794 -1.408096 5.795212
-3.206497 -1.408463 5.811356
-3.210373 -1.433182 5.801682
-3.192520 -1.429611 5.811539
-3.199692 -1.425064 5.812210
-3.201614 -1.416031 5.809036
-3.222672 -1.387161 5.788925
-3.238480 -1.405930 5.792068
-3.219345 -1.394852 5.788956
-3.229477 -1.385635 5.782059
-3.242020 -1.376083 5.811111
-3.231674 -1.381424 5.798874
-3.211990 -1.404495 5.791306
-3.215439 -1.402145 5.787827
-3.171585 -1.386581 5.797684
-3.189224 -1.439774 5.872879
-3.188858 -1.446457 5.832779
-3.192123 -1.491898 5.852249
-3.200485 -1.461929 5.874771
-3.186295 -1.457260 5.849777
-3.181107 -1.480453 5.820969
-3.181900 -1.484756 5.826431
-3.172989 -1.490677 5.817184
-3.168991 -1.488815 5.843063
-3.165451 -1.489090 5.829880
-3.170303 -1.479355 5.838333
-3.179367 -1.448837 5.826706
-3.170792 -1.460098 5.825546
-3.167404 -1.449234 5.812881
-3.179489 -1.445114 5.828384
-3.161789 -1.475357 5.855972
-3.173904 -1.484909 5.847427
-3.170090 -1.498825 5.851822
-3.164474 -1.492142 5.859055
-3.167404 -1.470078 5.858841
-3.183640 -1.447006 5.869339
-3.173691 -1.466721 5.868729
-3.173660 -1.461411 5.864212
-3.174088 -1.456650 5.866623
-3.179855 -1.454941 5.869125
-3.159500 -1.454880 5.871506
-3.235855 -1.381943 5.852676
-3.221664 -1.432480 5.813400
-3.197891 -1.419662 5.825333
-3.203262 -1.428665 5.816513
-3.196671 -1.433487 5.813309
-3.201614 -1.421219 5.826279
-3.237015 -1.383682 5.821640
-3.220474 -1.404800 5.825241
-3.221146 -1.395615 5.825150
-3.223770 -1.387741 5.823959
-3.240250 -1.375351 5.841019
-3.233383 -1.384323 5.843521
-3.233231 -1.382065 5.834671
-3.212967 -1.404434 5.814896
-3.212326 -1.400803 5.815109
-3.217911 -1.397720 5.842728
-3.201035 -1.420212 5.857834
-3.201859 -1.413589 5.846176
-3.191422 -1.431107 5.870285
-3.195297 -1.423080 5.870712
-3.204849 -1.410202 5.872147
-3.240555 -1.375473 5.874893
-3.220047 -1.396652 5.872971
-3.243729 -1.376907 5.866379
-3.217911 -1.401077 5.857498
-3.214767 -1.396957 5.852432
-3.175674 -1.421005 5.840866
-3.247696 -1.368515 5.814865
-3.244308 -1.372482 5.783432
-3.248032 -1.368668 5.782669
-3.195389 -1.361954 5.805527
-3.184311 -1.427200 5.982651
-3.197983 -1.492966 5.896835
-3.183487 -1.446945 5.936752
-3.162552 -1.497177 5.886063
-3.166245 -1.496994 5.878128
-3.167465 -1.499954 5.880569
-3.170212 -1.489365 5.878738
-3.165939 -1.477310 5.897324
-3.169510 -1.450211 5.883560
-3.186569 -1.457962 5.887589
-3.171738 -1.441605 5.880966
-3.174179 -1.467117 5.901321
-3.185287 -1.441238 5.893967
-3.164383 -1.496109 5.908432
-3.165390 -1.496902 5.911026
-3.167130 -1.487900 5.906693
-3.173355 -1.486038 5.922623
-3.164688 -1.488571 5.925186
-3.184799 -1.437759 5.932358
-3.177536 -1.453873 5.932449
-3.181351 -1.457016 5.922836
-3.170853 -1.462448 5.930771
-3.167923 -1.468430 5.927963
-3.170700 -1.460037 5.926224
-3.183823 -1.439072 5.924942
-3.233658 -1.378586 5.915085
-3.205551 -1.417770 5.882828
-3.207230 -1.408768 5.879318
-3.200058 -1.418716 5.889145
-3.194687 -1.412247 5.880295
-3.192337 -1.412064 5.892319
-3.234299 -1.379654 5.883438
-3.220139 -1.395187 5.890060
-3.220139 -1.402390 5.896347
-3.243759 -1.377579 5.904190
-3.215744 -1.398056 5.885391
-3.212051 -1.400681 5.881271
-3.201340 -1.406174 5.902206
-3.199570 -1.417862 5.920944
-3.190628 -1.426132 5.907791
-3.193344 -1.422226 5.934738
-3.235397 -1.392746 5.911942
-3.224014 -1.404221 5.936050
-3.217941 -1.385239 5.913803
-3.216354 -1.398666 5.918076
-3.212387 -1.391830 5.909622
-3.187424 -1.429306 5.930527
-3.182541 -1.417404 5.880875
-3.181442 -1.426620 5.885513
-3.180862 -1.435989 5.891129
-3.184830 -1.437149 5.895493
-3.189011 -1.449448 5.981308
-3.198746 -1.444077 5.992722
-3.179031 -1.451736 5.978745
-3.158157 -1.478348 5.945419
-3.162430 -1.492691 5.940811
-3.153183 -1.482254 5.963089
-3.180893 -1.450363 5.941635
-3.167435 -1.458267 5.941452
-3.167923 -1.458267 5.960556
-3.179642 -1.473831 5.984177
-3.186630 -1.487076 5.970108
-3.166519 -1.497116 5.980728
-3.160385 -1.489609 5.971390
-3.168289 -1.488449 5.977188
-3.170761 -1.479660 5.974594
-3.158554 -1.483902 5.993301
-3.161087 -1.475143 5.990891
-3.143631 -1.478195 5.983688
-3.150864 -1.495071 5.993240
-3.150467 -1.489182 5.988266
-3.155014 -1.491684 5.993484
-3.155563 -1.482834 5.999649
-3.177536 -1.463181 5.973312
-3.180344 -1.455154 5.971939
-3.163651 -1.466446 5.988541
-3.169266 -1.459366 5.992172
-3.166489 -1.456070 5.991684
-3.172318 -1.451492 5.991318
-3.175430 -1.443283 5.990372
-3.146896 -1.447861 5.981583
-3.237137 -1.382858 5.982681
-3.206467 -1.408432 5.945694
-3.202988 -1.416763 5.945938
-3.199997 -1.418198 5.953568
-3.237442 -1.387650 5.947433
-3.237228 -1.383133 5.950394
-3.234604 -1.382645 5.937912
-3.242447 -1.378708 5.963852
-3.224625 -1.388107 5.960159
-3.228409 -1.388138 5.955338
-3.211533 -1.400436 5.948105
-3.215652 -1.397537 5.949783
-3.213181 -1.401932 5.954727
-3.218185 -1.394333 5.954330
-3.198166 -1.415573 5.984360
-3.200577 -1.413620 5.983017
-3.189896 -1.420700 5.997086
-3.249496 -1.380600 5.982895
-3.219528 -1.403519 5.971786
-3.241714 -1.385696 5.985245
-3.229996 -1.388657 5.989609
-3.215958 -1.399216 5.982742
-3.217422 -1.399643 5.983627
-3.181534 -1.436295 5.994949
-3.182602 -1.437180 5.956192
-3.184402 -1.427963 5.993546
-3.184952 -1.426407 5.996567
-3.181503 -1.435501 5.987625
-3.160294 -1.512100 7.115585
-3.162094 -1.504135 6.119247
-3.517319 -1.518906 6.066879
-3.509476 -1.509964 6.200455
-3.511612 -1.554001 6.200790
-3.512833 -1.522598 6.183304
-3.514694 -1.535690 6.132065
-3.513870 -1.511917 6.128525
-3.508224 -1.594772 6.235153
-3.514389 -1.519089 6.361801
-3.513931 -1.546341 6.371567
-3.511185 -1.562546 6.251968
-3.509109 -1.501724 6.297440
-3.507126 -1.502457 6.262772
-3.509323 -1.517532 6.250168
-3.512344 -1.538345 6.283798
-3.511154 -1.524460 6.335464
-3.508560 -1.506058 6.497421
-3.510941 -1.584854 6.402237
-3.510971 -1.515976 6.435318
-3.514908 -1.549728 6.414932
-3.509964 -1.595840 6.460037
-3.512985 -1.538956 6.474472
-3.147476 -1.511551 6.103531
-3.285355 -1.715378 6.123398
-3.467484 -1.662827 6.096786
-3.431992 -1.698380 6.043320
-3.432297 -1.696884 6.011307
-3.405930 -1.714920 6.013718
-3.385269 -1.720322 6.031693
-3.406937 -1.714005 6.048874
-3.462051 -1.672043 6.050949
-3.459122 -1.676559 6.011276
-3.437119 -1.690689 6.121658
-3.384720 -1.722397 6.063156
-3.434830 -1.694016 6.082993
-3.409012 -1.710983 6.086899
-3.387070 -1.718796 6.102005
-3.268753 -1.715622 6.115005
-3.349380 -1.724411 6.043503
-3.350540 -1.721176 6.013657
-3.367264 -1.720261 6.022812
-3.329086 -1.728500 6.029312
-3.313187 -1.726334 6.023727
-3.367569 -1.720627 6.056381
-3.267654 -1.715897 6.046097
-3.297256 -1.724228 6.018112
-3.296707 -1.718796 6.022629
-3.283401 -1.716415 6.019333
-3.272385 -1.698166 6.014084
-3.269211 -1.711807 6.017227
-3.269455 -1.709854 6.019180
-3.253647 -1.701584 6.023972
-3.256058 -1.702560 6.020432
-3.292770 -1.734024 6.039597
-3.312485 -1.728622 6.054855
-3.287979 -1.722458 6.055893
-3.281723 -1.720657 6.047989
-3.255875 -1.704544 6.042679
-3.253738 -1.708145 6.047318
-3.252396 -1.674545 6.008469
-3.366989 -1.727707 6.096512
-3.348099 -1.727798 6.073318
-3.365921 -1.724777 6.085312
-3.329880 -1.727951 6.064133
-3.350204 -1.724686 6.111649
-3.331253 -1.726242 6.100662
-3.316696 -1.721359 6.098434
-3.256699 -1.704178 6.121017
-3.297073 -1.726517 6.083420
-3.280533 -1.723984 6.077896
-3.273148 -1.722549 6.068314
-3.251541 -1.713547 6.074600
-3.267502 -1.717148 6.078629
-3.261703 -1.716507 6.081436
-3.252701 -1.706314 6.079239
-3.294998 -1.720779 6.098648
-3.299271 -1.723160 6.122177
-3.254440 -1.706436 6.118851
-3.469864 -1.662277 6.236343
-3.438736 -1.688614 6.158920
-3.413681 -1.704086 6.164810
-3.411575 -1.707108 6.126266
-3.388596 -1.716904 6.138992
-3.391098 -1.713120 6.178574
-3.470016 -1.660019 6.169449
-3.469040 -1.660873 6.133713
-3.417923 -1.698074 6.242599
-3.420700 -1.691818 6.215622
-3.397598 -1.701675 6.228439
-3.385513 -1.690079 6.234329
-3.375748 -1.709793 6.243759
-3.442123 -1.684189 6.234451
-3.470352 -1.660355 6.203812
-3.439987 -1.687241 6.195480
-3.290390 -1.708298 6.237198
-3.371323 -1.716324 6.165298
-3.369308 -1.719254 6.126846
-3.352097 -1.722031 6.149704
-3.317215 -1.721359 6.132980
-3.334671 -1.720535 6.142502
-3.335831 -1.719254 6.178909
-3.319443 -1.717941 6.172073
-3.285599 -1.715927 6.157364
-3.287766 -1.723923 6.133011
-3.301682 -1.719345 6.161789
-3.311264 -1.716629 6.186050
-3.259048 -1.700394 6.160538
-3.272049 -1.709976 6.156876
-3.265457 -1.703323 6.164261
-3.252365 -1.679733 6.178940
-3.357071 -1.714340 6.229507
-3.356308 -1.714828 6.193832
-3.342453 -1.707382 6.229385
-3.317398 -1.714828 6.228836
-3.262589 -1.695267 6.237167
-3.294418 -1.699417 6.213699
-3.305344 -1.713150 6.204727
-3.270859 -1.702194 6.206406
-3.276230 -1.703598 6.235123
-3.141525 -1.512253 6.095718
-3.181595 -1.640549 6.093887
-3.243423 -1.696243 6.039169
-3.242966 -1.694992 6.021927
-3.241867 -1.698044 6.052078
-3.229202 -1.687851 6.056564
-3.226242 -1.653152 6.037674
-3.230728 -1.683762 6.027695
-3.223465 -1.675369 6.028152
-3.207291 -1.661331 6.006027
-3.218155 -1.675003 6.030746
-3.196518 -1.648697 6.013992
-3.195267 -1.650009 6.001328
-3.187729 -1.633194 6.025864
-3.193008 -1.635117 6.024002
-3.237076 -1.680588 6.037674
-3.212662 -1.669754 6.042221
-3.207138 -1.660141 6.035110
-3.206650 -1.663559 6.037155
-3.217422 -1.677414 6.061783
-3.203751 -1.665115 6.059982
-3.196213 -1.650223 6.046036
-3.195786 -1.650284 6.036636
-3.191940 -1.636185 6.061722
-3.185745 -1.638290 6.053513
-3.184189 -1.633652 6.006577
-3.243820 -1.696091 6.123215
-3.241348 -1.700119 6.083664
-3.229324 -1.688492 6.089951
-3.234116 -1.691360 6.090683
-3.228256 -1.685043 6.109360
-3.233688 -1.682480 6.074112
-3.207748 -1.662216 6.072983
-3.205490 -1.661087 6.063644
-3.199814 -1.658432 6.069748
-3.215958 -1.681442 6.090927
-3.205307 -1.668228 6.099625
-3.203751 -1.662399 6.101028
-3.194199 -1.657303 6.105331
-3.173538 -1.629929 6.090500
-3.182358 -1.643326 6.080551
-3.183670 -1.643570 6.080978
-3.135483 -1.502823 6.099045
-3.159439 -1.575363 6.039902
-3.167557 -1.604172 6.012833
-3.177902 -1.617905 6.003433
-3.175949 -1.619492 6.017776
-3.182358 -1.619644 6.018723
-3.134018 -1.599747 6.002213
-3.167770 -1.587082 6.014542
-3.162735 -1.578995 6.004745
-3.179306 -1.578293 6.028732
-3.157730 -1.586411 6.026596
-3.149857 -1.564835 6.011551
-3.167587 -1.605057 6.045639
-3.177292 -1.620193 6.034500
-3.178329 -1.619034 6.054916
-3.161880 -1.579361 6.042404
-3.163559 -1.584610 6.057663
-3.153610 -1.568954 6.049240
-3.156174 -1.590714 6.055252
-3.153122 -1.578629 6.055893
-3.147629 -1.515182 6.043594
-3.146652 -1.536148 6.005905
-3.149673 -1.557663 6.017593
-3.154343 -1.510300 6.006180
-3.150589 -1.520035 6.013840
-3.146317 -1.528366 6.022110
-3.142105 -1.508560 6.024582
-3.146164 -1.534927 6.046860
-3.137375 -1.558121 6.046585
-3.144394 -1.541946 6.032578
-3.130417 -1.535538 6.032974
-3.148788 -1.558670 6.055374
-3.140274 -1.531265 6.056808
-3.143570 -1.505936 6.035355
-3.157669 -1.579330 6.116714
-3.175980 -1.623856 6.063950
-3.164291 -1.612900 6.069901
-3.171127 -1.617386 6.089554
-3.163071 -1.616684 6.089127
-3.158859 -1.601273 6.082230
-3.153915 -1.596420 6.082260
-3.154617 -1.577744 6.076920
-3.153244 -1.588730 6.063919
-3.145767 -1.575485 6.066269
-3.153427 -1.566849 6.067307
-3.153488 -1.588913 6.089951
-3.161758 -1.619247 6.096176
-3.146255 -1.575363 6.100662
-3.150497 -1.562637 6.097549
-3.155838 -1.593307 6.120499
-3.137466 -1.500870 6.099930
-3.145981 -1.543106 6.068619
-3.141403 -1.550247 6.090439
-3.145645 -1.510300 6.064407
-3.148849 -1.516647 6.077347
-3.159378 -1.555557 6.100235
-3.150375 -1.545120 6.109055
-3.141739 -1.550461 6.124496
-3.145248 -1.544266 6.123306
-3.144547 -1.534134 6.114365
-3.155807 -1.520279 6.121506
-3.146317 -1.525589 6.110641
-3.200394 -1.635666 6.221512
-3.222488 -1.688461 6.183212
-3.221634 -1.688034 6.143936
-3.201187 -1.642746 6.158646
-3.220596 -1.672836 6.136368
-3.203506 -1.663193 6.139481
-3.211349 -1.656693 6.148880
-3.188370 -1.638474 6.136642
-3.189285 -1.632736 6.129166
-3.197403 -1.627090 6.179764
-3.192429 -1.637741 6.177811
-3.193192 -1.625595 6.172867
-3.201492 -1.644058 6.226791
-3.225784 -1.664108 6.217239
-3.249649 -1.686234 6.205460
-3.235489 -1.678879 6.206345
-3.212173 -1.656876 6.218338
-3.191086 -1.630936 6.200882
-3.205978 -1.633835 6.204910
-3.238174 -1.674362 6.247299
-3.244553 -1.681503 6.235611
-3.249863 -1.686752 6.239883
-3.192581 -1.628769 6.238724
-3.160538 -1.503372 6.224625
-3.156326 -1.589340 6.168839
-3.174973 -1.619278 6.129868
-3.169907 -1.614975 6.131790
-3.184219 -1.608383 6.152206
-3.152145 -1.564621 6.131882
-3.148636 -1.591354 6.125504
-3.156601 -1.620377 6.162277
-3.160782 -1.583237 6.167679
-3.160904 -1.581039 6.156754
-3.159348 -1.591812 6.182358
-3.159378 -1.581863 6.174576
-3.155502 -1.569901 6.159195
-3.157059 -1.515854 6.185043
-3.135971 -1.534256 6.131119
-3.150040 -1.556686 6.140396
-3.152634 -1.546494 6.148514
-3.166367 -1.516068 6.134964
-3.150497 -1.508438 6.139938
-3.147324 -1.526047 6.148361
-3.150803 -1.517868 6.147598
-3.150589 -1.518570 6.144577
-3.155930 -1.514816 6.146103
-3.146255 -1.502884 6.141647
-3.160080 -1.531326 6.186111
-3.148972 -1.536301 6.158859
-3.154160 -1.558853 6.174301
-3.154343 -1.548721 6.176926
-3.140793 -1.533188 6.172745
-3.153610 -1.509933 6.182114
-3.145126 -1.525009 6.180191
-3.155014 -1.500748 6.177322
-3.138077 -1.503250 6.177872
-3.168777 -1.586563 6.229233
-3.182236 -1.614517 6.214066
-3.164566 -1.618271 6.205887
-3.163467 -1.573868 6.210892
-3.160660 -1.588455 6.210281
-3.148331 -1.566330 6.217484
-3.177841 -1.599472 6.221359
-3.179031 -1.611496 6.228531
-3.172684 -1.598984 6.225967
-3.158829 -1.621048 6.241165
-3.165909 -1.574234 6.249039
-3.180252 -1.588455 6.243729
-3.151382 -1.577866 6.231400
-3.149002 -1.593338 6.241867
-3.137985 -1.571152 6.241470
-3.161789 -1.513870 6.234634
-3.158188 -1.558121 6.215561
-3.156113 -1.559708 6.188217
-3.153336 -1.519089 6.188644
-3.125381 -1.508652 6.208786
-3.161209 -1.532578 6.220200
-3.162277 -1.543747 6.244644
-3.159866 -1.532272 6.245773
-3.151413 -1.547440 6.224777
-3.160751 -1.522659 6.239792
-3.154495 -1.528915 6.219955
-3.119308 -1.509415 6.127701
-3.255630 -1.678085 6.357956
-3.470627 -1.664963 6.374924
-3.440842 -1.687607 6.265244
-3.393967 -1.710526 6.287430
-3.419296 -1.696457 6.280014
-3.375961 -1.710403 6.278275
-3.471329 -1.661545 6.307938
-3.471695 -1.659866 6.274704
-3.443314 -1.683975 6.305435
-3.441696 -1.688004 6.335739
-3.418106 -1.700729 6.345596
-3.419205 -1.697586 6.314011
-3.378342 -1.706833 6.318558
-3.396713 -1.706375 6.328537
-3.442978 -1.686630 6.373398
-3.470169 -1.664749 6.339371
-3.260483 -1.678116 6.363022
-3.344193 -1.705978 6.301987
-3.347610 -1.698349 6.276566
-3.360245 -1.709244 6.271469
-3.325333 -1.709366 6.288773
-3.323868 -1.714066 6.311203
-3.315384 -1.695358 6.298599
-3.300369 -1.689529 6.297195
-3.304367 -1.720016 6.259964
-3.306137 -1.714493 6.308884
-3.291367 -1.708389 6.307938
-3.275223 -1.702103 6.287186
-3.277908 -1.702194 6.307755
-3.263107 -1.696213 6.306717
-3.285141 -1.686844 6.292435
-3.267014 -1.687302 6.282883
-3.253311 -1.680771 6.283035
-3.251297 -1.685776 6.311996
-3.360153 -1.712448 6.374313
-3.360794 -1.710129 6.341537
-3.340469 -1.714218 6.326706
-3.324936 -1.711166 6.322006
-3.330612 -1.712448 6.354721
-3.325943 -1.710190 6.359146
-3.341476 -1.713242 6.363815
-3.307327 -1.713211 6.346329
-3.287033 -1.698776 6.333694
-3.278061 -1.702927 6.342545
-3.292984 -1.706192 6.346542
-3.264969 -1.693436 6.346115
-3.470688 -1.667862 6.479782
-3.442978 -1.687637 6.408157
-3.419266 -1.700546 6.417892
-3.420731 -1.696793 6.386765
-3.398758 -1.704453 6.402969
-3.380478 -1.704758 6.393082
-3.377731 -1.711014 6.420883
-3.398056 -1.706863 6.436020
-3.469650 -1.667740 6.407242
-3.443863 -1.687576 6.480881
-3.422073 -1.697281 6.495255
-3.419876 -1.700424 6.454391
-3.377701 -1.712082 6.455826
-3.400131 -1.703964 6.476456
-3.380386 -1.708023 6.498001
-3.469131 -1.669754 6.440842
-3.252518 -1.683060 6.476547
-3.373764 -1.698441 6.421188
-3.342148 -1.712967 6.400284
-3.327042 -1.708969 6.396744
-3.363083 -1.707748 6.416733
-3.313248 -1.691177 6.429062
-3.342484 -1.713272 6.436142
-3.327438 -1.709244 6.432663
-3.308640 -1.712631 6.419266
-3.306564 -1.692764 6.385300
-3.308517 -1.711807 6.384171
-3.294327 -1.704514 6.384750
-3.280746 -1.698563 6.384232
-3.267014 -1.690323 6.386215
-3.251297 -1.687790 6.380997
-3.295273 -1.703690 6.422073
-3.279434 -1.702194 6.415573
-3.265823 -1.693710 6.417862
-3.251236 -1.688919 6.415726
-3.257797 -1.679764 6.400772
-3.361496 -1.712906 6.482742
-3.362228 -1.710403 6.449509
-3.340256 -1.710617 6.439896
-3.327286 -1.710556 6.467361
-3.345016 -1.709427 6.477859
-3.336624 -1.712540 6.477341
-3.282455 -1.698166 6.494034
-3.307297 -1.693954 6.465012
-3.309433 -1.712082 6.456406
-3.294510 -1.706161 6.455124
-3.265182 -1.695969 6.451248
-3.280380 -1.701279 6.453171
-3.289719 -1.700699 6.493607
-3.310593 -1.710892 6.494705
-3.294174 -1.707901 6.489395
-3.265854 -1.695694 6.488174
-3.253098 -1.687180 6.490982
-3.254135 -1.681747 6.437943
-3.252884 -1.686600 6.455185
-3.175156 -1.507217 6.347061
-3.195541 -1.629837 6.372849
-3.214157 -1.654739 6.291641
-3.225571 -1.665543 6.250534
-3.229813 -1.687332 6.265549
-3.222549 -1.658646 6.267746
-3.190445 -1.626877 6.258499
-3.214859 -1.652390 6.259323
-3.191330 -1.639542 6.254837
-3.193436 -1.627151 6.255051
-3.204666 -1.638443 6.269241
-3.240219 -1.671188 6.286819
-3.227402 -1.662827 6.289474
-3.220871 -1.659958 6.305771
-3.200272 -1.641891 6.285751
-3.203293 -1.642227 6.299728
-3.205032 -1.635422 6.302414
-3.210922 -1.633377 6.302902
-3.194473 -1.626724 6.312119
-3.193344 -1.628342 6.300858
-3.182236 -1.632645 6.286942
-3.204971 -1.640701 6.373276
-3.227188 -1.664261 6.323166
-3.248428 -1.681595 6.316177
-3.237228 -1.678299 6.313034
-3.205795 -1.638077 6.340866
-3.215164 -1.653702 6.328629
-3.206161 -1.635757 6.342300
-3.194962 -1.629166 6.341080
-3.200333 -1.630661 6.336319
-3.240921 -1.671738 6.357468
-3.226639 -1.666336 6.356216
-3.222000 -1.660263 6.345688
-3.215500 -1.660416 6.361252
-3.203690 -1.643661 6.366501
-3.165024 -1.504898 6.357590
-3.195511 -1.623611 6.280685
-3.169662 -1.567123 6.293442
-3.176529 -1.600449 6.252335
-3.184036 -1.611710 6.252762
-3.184464 -1.614243 6.275711
-3.173752 -1.599045 6.283524
-3.181320 -1.613724 6.294144
-3.178818 -1.611374 6.301376
-3.164261 -1.574265 6.285751
-3.171982 -1.585861 6.295181
-3.169998 -1.566574 6.288803
-3.176559 -1.592667 6.304672
-3.195480 -1.529068 6.282089
-3.163193 -1.523819 6.281509
-3.162216 -1.542740 6.257706
-3.159500 -1.558365 6.255264
-3.181320 -1.559860 6.271896
-3.159653 -1.550339 6.271439
-3.164749 -1.553848 6.270432
-3.169388 -1.553726 6.272720
-3.165787 -1.505875 6.271805
-3.165726 -1.515732 6.279312
-3.167740 -1.541092 6.292740
-3.165176 -1.534836 6.293259
-3.161728 -1.546829 6.311356
-3.163925 -1.543564 6.298050
-3.151627 -1.557480 6.289291
-3.155655 -1.549362 6.289322
-3.160904 -1.503555 6.299210
-3.154221 -1.510239 6.293533
-3.147873 -1.526443 6.295944
-3.146042 -1.515549 6.284439
-3.176010 -1.590195 6.354385
-3.175735 -1.595383 6.336746
-3.186478 -1.591751 6.324570
-3.177414 -1.584610 6.337723
-3.167892 -1.576065 6.330124
-3.184250 -1.614090 6.356247
-3.176865 -1.593948 6.374466
-3.168900 -1.570786 6.359970
-3.184799 -1.591873 6.362625
-3.170029 -1.566574 6.363510
-3.204300 -1.502121 6.321609
-3.189194 -1.517746 6.319656
-3.173447 -1.523575 6.348221
-3.158371 -1.540848 6.324265
-3.185532 -1.559433 6.319901
-3.169113 -1.542740 6.327408
-3.163589 -1.507034 6.319290
-3.185532 -1.526657 6.315689
-3.164261 -1.527542 6.343185
-3.160294 -1.503281 6.335464
-3.162430 -1.546341 6.347580
-3.172134 -1.555923 6.351761
-3.166092 -1.554489 6.347519
-3.172928 -1.547745 6.364487
-3.167587 -1.535995 6.373001
-3.168015 -1.516830 6.358658
-3.166183 -1.525253 6.362259
-3.189499 -1.626358 6.481430
-3.201614 -1.632431 6.415176
-3.238937 -1.676743 6.386795
-3.223831 -1.672592 6.383774
-3.231125 -1.657791 6.390762
-3.221451 -1.631088 6.391251
-3.195114 -1.627365 6.382858
-3.215408 -1.655167 6.398544
-3.203964 -1.643814 6.405228
-3.225235 -1.665482 6.418015
-3.238144 -1.679337 6.419540
-3.227036 -1.667068 6.427353
-3.195602 -1.627365 6.418991
-3.192703 -1.628006 6.411575
-3.234360 -1.689102 6.479355
-3.205154 -1.644394 6.482956
-3.223526 -1.661880 6.464981
-3.239059 -1.678543 6.456985
-3.226212 -1.669754 6.460190
-3.246414 -1.653183 6.439896
-3.193924 -1.631882 6.449326
-3.203812 -1.645126 6.439774
-3.202103 -1.642838 6.438644
-3.189377 -1.626297 6.442856
-3.208115 -1.637222 6.461807
-3.215500 -1.656998 6.468765
-3.215836 -1.660599 6.475021
-3.203568 -1.646652 6.474167
-3.204819 -1.639114 6.499313
-3.175461 -1.506729 6.482010
-3.188370 -1.613388 6.416397
-3.189041 -1.593887 6.403885
-3.189774 -1.617050 6.435928
-3.175766 -1.586655 6.415359
-3.183426 -1.603897 6.377243
-3.186508 -1.613327 6.375809
-3.184341 -1.614914 6.391159
-3.186600 -1.615311 6.391556
-3.177841 -1.601120 6.403854
-3.175735 -1.579971 6.383408
-3.178055 -1.585098 6.377365
-3.177139 -1.590744 6.394333
-3.172379 -1.567734 6.406052
-3.169846 -1.569748 6.397263
-3.185501 -1.613541 6.429123
-3.177475 -1.593643 6.410904
-3.178329 -1.591354 6.434769
-3.178879 -1.581497 6.427658
-3.169479 -1.571487 6.431168
-3.171036 -1.501175 6.410324
-3.167038 -1.545090 6.379288
-3.166122 -1.558121 6.376816
-3.175247 -1.557541 6.392349
-3.172287 -1.557541 6.397751
-3.172501 -1.546921 6.397720
-3.162094 -1.533340 6.399887
-3.171555 -1.502090 6.377182
-3.174240 -1.524490 6.387558
-3.164688 -1.528091 6.382767
-3.169510 -1.507645 6.391830
-3.163986 -1.544937 6.421310
-3.168137 -1.558090 6.417496
-3.177994 -1.559067 6.432907
-3.174789 -1.549759 6.433578
-3.170853 -1.556808 6.432999
-3.171341 -1.547195 6.426071
-3.159317 -1.531998 6.432571
-3.171005 -1.508347 6.433121
-3.175980 -1.525711 6.427567
-3.168076 -1.516861 6.434952
-3.164688 -1.528793 6.422195
-3.166977 -1.502670 6.432419
-3.190598 -1.595749 6.483109
-3.188828 -1.594498 6.442917
-3.194016 -1.612106 6.459518
-3.188126 -1.582962 6.462723
-3.191818 -1.618088 6.478317
-3.191666 -1.613663 6.497635
-3.170364 -1.570511 6.468765
-3.181625 -1.603012 6.449539
-3.186447 -1.612473 6.466934
-3.180496 -1.601425 6.458878
-3.172226 -1.567642 6.443954
-3.177994 -1.593613 6.447250
-3.178787 -1.601578 6.482224
-3.181076 -1.602005 6.493423
-3.167313 -1.565231 6.472488
-3.178452 -1.593613 6.483719
-3.179001 -1.591690 6.474533
-3.180893 -1.582504 6.470139
-3.175491 -1.558975 6.470749
-3.165146 -1.543472 6.459549
-3.173325 -1.547531 6.465958
-3.168198 -1.558823 6.457047
-3.175003 -1.506271 6.447708
-3.167557 -1.525925 6.441269
-3.175369 -1.526169 6.466354
-3.164902 -1.529465 6.461868
-3.164719 -1.545364 6.493546
-3.171127 -1.558456 6.498550
-3.501938 -1.468674 6.099197
-3.510391 -1.493179 6.099228
-3.507767 -1.473099 6.067245
-3.511642 -1.481796 6.043930
-3.511032 -1.477615 6.002274
-3.515060 -1.494095 6.027054
-3.502213 -1.454788 6.004929
-3.507278 -1.468491 6.024490
-3.515793 -1.497757 6.067917
-3.502975 -1.484879 6.235306
-3.506973 -1.489273 6.166855
-3.503128 -1.470779 6.137985
-3.502823 -1.478653 6.187973
-3.507065 -1.495621 6.214157
-3.509476 -1.481064 6.336594
-3.503952 -1.487961 6.277084
-3.503342 -1.494461 6.480362
-3.503891 -1.485245 6.424637
-3.500809 -1.481094 6.497604
-3.242905 -1.373154 6.095505
-3.308762 -1.346268 6.099503
-3.417068 -1.379227 6.115128
-3.493790 -1.461807 6.057419
-3.491104 -1.442398 6.026718
-3.438675 -1.393692 6.050125
-3.485062 -1.432724 6.014511
-3.479019 -1.425400 6.006302
-3.461166 -1.406570 6.022263
-3.438309 -1.398819 6.025284
-3.445724 -1.402420 6.026047
-3.444260 -1.401047 6.022018
-3.473679 -1.422989 6.041245
-3.479416 -1.430222 6.049454
-3.467392 -1.415146 6.032333
-3.451736 -1.409164 6.033157
-3.431107 -1.394485 6.023117
-3.492325 -1.450729 6.111160
-3.497787 -1.453598 6.076492
-3.490280 -1.451706 6.078354
-3.484055 -1.449051 6.113998
-3.497879 -1.459732 6.122696
-3.445084 -1.393936 6.119797
-3.443314 -1.399460 6.086929
-3.438919 -1.408890 6.113388
-3.439438 -1.394333 6.116623
-3.437088 -1.392410 6.122940
-3.437363 -1.385300 6.074478
-3.430252 -1.381851 6.073776
-3.265854 -1.376053 6.046219
-3.391159 -1.355911 6.094833
-3.415359 -1.372849 6.033646
-3.408798 -1.365616 6.026321
-3.375595 -1.362167 6.009689
-3.387405 -1.372360 6.025192
-3.381943 -1.353531 6.061661
-3.396164 -1.359604 6.061295
-3.389877 -1.354202 6.056839
-3.375504 -1.347672 6.056686
-3.398300 -1.358505 6.093887
-3.402908 -1.363693 6.063095
-3.405411 -1.361526 6.093643
-3.375656 -1.352982 6.101669
-3.383682 -1.353745 6.096878
-3.301163 -1.362411 6.097977
-3.371475 -1.351578 6.044266
-3.360855 -1.347214 6.008194
-3.369339 -1.355667 6.003494
-3.365250 -1.348190 6.029648
-3.337662 -1.349960 6.000259
-3.316940 -1.349594 6.010208
-3.325974 -1.355270 6.000565
-3.371231 -1.355453 6.037247
-3.347977 -1.349258 6.044632
-3.356857 -1.347824 6.035477
-3.338089 -1.350327 6.033188
-3.334000 -1.361740 6.040512
-3.336105 -1.347153 6.038528
-3.319809 -1.354935 6.040207
-3.327103 -1.356949 6.037857
-3.317276 -1.349716 6.045334
-3.331314 -1.349777 6.058395
-3.340256 -1.348373 6.049118
-3.334122 -1.344986 6.062424
-3.301987 -1.356583 6.056900
-3.286148 -1.356247 6.000900
-3.293503 -1.360428 6.000717
-3.302567 -1.353195 6.024551
-3.309860 -1.354599 6.026108
-3.282639 -1.359024 6.019394
-3.257065 -1.372452 6.000412
-3.275070 -1.370468 6.027298
-3.259659 -1.371109 6.017288
-3.311020 -1.355118 6.047348
-3.290146 -1.366714 6.048508
-3.301773 -1.343887 6.051712
-3.258438 -1.372482 6.046280
-3.263931 -1.365799 6.041458
-3.257339 -1.372574 6.035599
-3.271255 -1.365829 6.060776
-3.258072 -1.368790 6.048416
-3.280807 -1.356461 6.050369
-3.360397 -1.348190 6.105331
-3.370743 -1.350449 6.076340
-3.366653 -1.349472 6.066483
-3.350632 -1.346695 6.074203
-3.358261 -1.349106 6.072342
-3.313889 -1.352036 6.075790
-3.323380 -1.349838 6.064713
-3.318710 -1.359787 6.088821
-3.333725 -1.348068 6.089645
-3.338943 -1.348282 6.078354
-3.342453 -1.347214 6.081436
-3.322952 -1.330307 6.085434
-3.368240 -1.350235 6.102737
-3.367325 -1.345810 6.106155
-3.351700 -1.349045 6.113480
-3.325394 -1.349197 6.098068
-3.337814 -1.358078 6.117752
-3.343460 -1.349777 6.121140
-3.315140 -1.353836 6.113937
-3.310806 -1.355270 6.124954
-3.305923 -1.364395 6.071762
-3.285477 -1.359390 6.073227
-3.306992 -1.350479 6.088882
-3.305466 -1.351883 6.082169
-3.295273 -1.350204 6.080734
-3.263077 -1.364609 6.065323
-3.274734 -1.361160 6.086105
-3.253220 -1.368942 6.080338
-3.278458 -1.353165 6.080978
-3.283615 -1.359756 6.118179
-3.289688 -1.361282 6.113663
-3.264511 -1.365799 6.101974
-3.253860 -1.372299 6.121201
-3.258530 -1.368973 6.114151
-3.435013 -1.390427 6.231674
-3.491013 -1.462173 6.167770
-3.479904 -1.441147 6.139481
-3.486069 -1.448196 6.147263
-3.497849 -1.466476 6.170486
-3.437820 -1.396042 6.165176
-3.449509 -1.407852 6.140396
-3.454575 -1.417831 6.153824
-3.459732 -1.430405 6.171738
-3.466660 -1.436752 6.177658
-3.432816 -1.385361 6.150528
-3.426041 -1.381454 6.148788
-3.481674 -1.447891 6.223190
-3.486038 -1.454971 6.195450
-3.492477 -1.463272 6.205307
-3.475388 -1.442490 6.218277
-3.467972 -1.438461 6.216537
-3.497665 -1.473770 6.219803
-3.447983 -1.402908 6.243820
-3.439926 -1.395218 6.199112
-3.446060 -1.403061 6.208145
-3.470657 -1.435593 6.246811
-3.451706 -1.412857 6.220993
-3.464279 -1.427200 6.236862
-3.441635 -1.395676 6.235886
-3.421860 -1.381607 6.226242
-3.426010 -1.387711 6.196426
-3.434128 -1.387161 6.189468
-3.419418 -1.383499 6.194046
-3.414078 -1.378311 6.226364
-3.406235 -1.376877 6.229752
-3.273666 -1.380386 6.228409
-3.260208 -1.383224 6.170395
-3.250107 -1.383377 6.136093
-3.263809 -1.375717 6.151596
-3.251450 -1.384445 6.175247
-3.254379 -1.381424 6.178360
-3.270126 -1.383682 6.223190
-3.270554 -1.383774 6.199631
-3.251724 -1.400925 6.191605
-3.269424 -1.382950 6.189529
-3.271683 -1.378586 6.204300
-3.262741 -1.384995 6.230515
-3.271286 -1.391006 6.223923
-3.258194 -1.394333 6.227310
-3.250076 -1.398575 6.223190
-3.255661 -1.391647 6.223648
-3.269333 -1.377609 6.236160
-3.393051 -1.367630 6.223892
-3.413498 -1.374069 6.182266
-3.411514 -1.374527 6.147690
-3.392319 -1.358017 6.133957
-3.399460 -1.360611 6.132950
-3.377487 -1.352982 6.136734
-3.385727 -1.353165 6.130722
-3.404282 -1.371201 6.147476
-3.375961 -1.356827 6.146530
-3.379105 -1.353745 6.173508
-3.392502 -1.363449 6.179886
-3.399399 -1.366745 6.180344
-3.380814 -1.362900 6.183792
-3.384598 -1.362503 6.184341
-3.400711 -1.368668 6.219803
-3.405350 -1.373672 6.187668
-3.386887 -1.361252 6.217606
-3.378067 -1.362991 6.227432
-3.385635 -1.368942 6.221146
-3.285446 -1.374802 6.223923
-3.344772 -1.351395 6.159500
-3.349289 -1.352463 6.132248
-3.368362 -1.355240 6.147598
-3.361374 -1.350815 6.145523
-3.352798 -1.351425 6.153214
-3.334030 -1.352646 6.133408
-3.338364 -1.350113 6.131607
-3.326187 -1.352402 6.139236
-3.316666 -1.354874 6.150894
-3.370682 -1.353928 6.180405
-3.339951 -1.351974 6.165878
-3.335190 -1.354904 6.172989
-3.327072 -1.355392 6.180313
-3.311783 -1.356308 6.158646
-3.305435 -1.357407 6.127579
-3.287766 -1.365005 6.154648
-3.295670 -1.363724 6.155167
-3.272415 -1.373062 6.143753
-3.291977 -1.358627 6.187485
-3.276382 -1.371017 6.170761
-3.363113 -1.357132 6.229019
-3.361282 -1.357010 6.193039
-3.345291 -1.355545 6.203079
-3.352463 -1.358231 6.202011
-3.343399 -1.356247 6.201920
-3.316727 -1.360214 6.196671
-3.320511 -1.351028 6.192337
-3.336533 -1.356461 6.211594
-3.370773 -1.359543 6.227219
-3.353836 -1.359787 6.240982
-3.344467 -1.357437 6.235977
-3.314682 -1.358139 6.223618
-3.317642 -1.363602 6.229843
-3.327835 -1.358719 6.222458
-3.338058 -1.357620 6.249802
-3.294113 -1.372940 6.226273
-3.312332 -1.356827 6.192093
-3.288345 -1.365555 6.188095
-3.289413 -1.366409 6.188522
-3.296097 -1.364487 6.193954
-3.301498 -1.366776 6.235397
-3.288132 -1.369217 6.235031
-3.275986 -1.370834 6.242325
-3.238663 -1.342972 6.064041
-3.173538 -1.425797 6.093857
-3.157394 -1.454178 6.046097
-3.157181 -1.483017 6.028427
-3.146439 -1.498795 6.010239
-3.148026 -1.486710 6.000198
-3.151596 -1.499130 6.028458
-3.151901 -1.490189 6.022324
-3.153427 -1.479721 6.030258
-3.155777 -1.482559 6.022751
-3.167953 -1.456558 6.010422
-3.167130 -1.454636 6.029617
-3.184494 -1.439316 6.022690
-3.164413 -1.453049 6.022354
-3.183731 -1.483719 6.051285
-3.148056 -1.474106 6.049728
-3.162888 -1.444412 6.061417
-3.178299 -1.453415 6.055038
-3.162430 -1.450150 6.053146
-3.234970 -1.379532 6.045731
-3.227829 -1.417801 6.019791
-3.222122 -1.435043 6.022812
-3.204300 -1.408432 6.006577
-3.211960 -1.407913 6.005203
-3.201004 -1.415878 6.011185
-3.188919 -1.419693 6.001816
-3.205917 -1.425766 6.023605
-3.207230 -1.408768 6.016037
-3.192429 -1.415054 6.026505
-3.239365 -1.384689 6.015427
-3.243240 -1.381485 6.002487
-3.218887 -1.394638 6.024673
-3.247971 -1.378708 6.024918
-3.238144 -1.383957 6.015976
-3.232559 -1.386642 6.019272
-3.216141 -1.403152 6.008163
-3.216537 -1.398270 6.015274
-3.218277 -1.397720 6.013290
-3.208176 -1.402786 6.029434
-3.212082 -1.400681 6.018082
-3.239975 -1.412827 6.035416
-3.235275 -1.431046 6.040604
-3.195145 -1.411087 6.046677
-3.188675 -1.428177 6.036423
-3.191574 -1.416214 6.031418
-3.196365 -1.409317 6.049271
-3.231400 -1.391006 6.041946
-3.222061 -1.392380 6.036819
-3.240829 -1.393295 6.058640
-3.246475 -1.380997 6.057632
-3.234879 -1.385300 6.050461
-3.248672 -1.376541 6.060654
-3.226700 -1.384598 6.055923
-3.204697 -1.400375 6.040543
-3.213150 -1.393570 6.044846
-3.212784 -1.395157 6.048691
-3.172195 -1.436600 6.006882
-3.176926 -1.428818 6.025711
-3.177719 -1.429977 6.049271
-3.180557 -1.423965 6.050095
-3.167038 -1.455917 6.105850
-3.160049 -1.484543 6.067947
-3.153488 -1.479568 6.062943
-3.151993 -1.496048 6.070602
-3.155563 -1.482468 6.092789
-3.165268 -1.454727 6.066757
-3.170578 -1.450699 6.093216
-3.155411 -1.462601 6.079666
-3.155258 -1.483749 6.103714
-3.155411 -1.491837 6.099472
-3.162643 -1.449966 6.118668
-3.151169 -1.464859 6.115677
-3.236221 -1.380814 6.112106
-3.196884 -1.414963 6.073135
-3.228745 -1.384079 6.088974
-3.230606 -1.376938 6.087967
-3.210007 -1.389145 6.074661
-3.200516 -1.403061 6.071182
-3.216599 -1.389694 6.072250
-3.216324 -1.393509 6.090073
-3.211716 -1.403152 6.082260
-3.187881 -1.414200 6.099319
-3.192154 -1.411942 6.099808
-3.193466 -1.432022 6.116196
-3.193802 -1.422409 6.109879
-3.205460 -1.407974 6.118301
-3.199051 -1.412064 6.122452
-3.195236 -1.410812 6.112045
-3.218582 -1.405838 6.123978
-3.217545 -1.399002 6.113998
-3.216843 -1.394150 6.114883
-3.186295 -1.428757 6.111588
-3.185379 -1.427841 6.072891
-3.169205 -1.432449 6.072647
-3.183060 -1.422134 6.080338
-3.183731 -1.395615 6.069199
-3.152969 -1.396194 6.092484
-3.211014 -1.347610 6.057297
-3.232224 -1.400406 6.228256
-3.173874 -1.452194 6.171249
-3.160538 -1.484818 6.138107
-3.157425 -1.485062 6.143112
-3.152695 -1.478043 6.127701
-3.174362 -1.458847 6.147842
-3.165878 -1.454117 6.154404
-3.161545 -1.475327 6.168625
-3.164902 -1.488022 6.185318
-3.155899 -1.482620 6.165054
-3.155228 -1.491776 6.170914
-3.155319 -1.481369 6.162918
-3.175735 -1.443405 6.167831
-3.174362 -1.459488 6.186234
-3.184647 -1.438400 6.186508
-3.238235 -1.393967 6.161087
-3.198135 -1.414474 6.147415
-3.192764 -1.431381 6.153183
-3.198196 -1.414627 6.147141
-3.242538 -1.388992 6.150497
-3.219345 -1.401199 6.148392
-3.215805 -1.402298 6.130875
-3.220016 -1.406967 6.163101
-3.210739 -1.410294 6.164261
-3.200058 -1.414444 6.161484
-3.213821 -1.407639 6.175400
-3.200516 -1.417435 6.182388
-3.248367 -1.388535 6.173599
-3.243607 -1.405350 6.177567
-3.236099 -1.397385 6.176865
-3.184616 -1.428024 6.159866
-3.187485 -1.419601 6.133499
-3.180801 -1.433487 6.150131
-3.199112 -1.454025 6.249802
-3.187454 -1.441971 6.222031
-3.160721 -1.488510 6.200790
-3.161118 -1.485062 6.211624
-3.163559 -1.476273 6.208939
-3.170151 -1.459732 6.191208
-3.167709 -1.468277 6.209610
-3.182938 -1.437546 6.212814
-3.166306 -1.496994 6.228989
-3.166702 -1.496445 6.239334
-3.176102 -1.467545 6.229599
-3.239883 -1.397446 6.247391
-3.226669 -1.410751 6.187851
-3.225082 -1.409103 6.204178
-3.196457 -1.433151 6.193466
-3.202042 -1.419235 6.216751
-3.199448 -1.421158 6.209183
-3.233871 -1.401108 6.195053
-3.236923 -1.400345 6.217697
-3.245682 -1.400620 6.210983
-3.246811 -1.397659 6.213547
-3.223343 -1.406082 6.217850
-3.229660 -1.411148 6.245102
-3.226334 -1.406357 6.236343
-3.205399 -1.417801 6.233658
-3.199173 -1.424820 6.228622
-3.214035 -1.412186 6.219193
-3.201035 -1.435196 6.234390
-3.211868 -1.410782 6.239182
-3.242142 -1.395645 6.241043
-3.248764 -1.397293 6.239883
-3.291824 -1.369125 6.357254
-3.426224 -1.386032 6.344406
-3.478928 -1.443008 6.291397
-3.499130 -1.475113 6.258133
-3.482925 -1.450058 6.263260
-3.477066 -1.443069 6.255234
-3.487930 -1.461380 6.279434
-3.484818 -1.449905 6.299240
-3.490372 -1.459183 6.311569
-3.449661 -1.403549 6.281326
-3.472824 -1.434372 6.280655
-3.459793 -1.418961 6.263138
-3.454605 -1.409348 6.250229
-3.443130 -1.396927 6.274521
-3.455917 -1.411209 6.290146
-3.468216 -1.426559 6.308121
-3.466537 -1.427719 6.306351
-3.461380 -1.419968 6.301498
-3.431015 -1.389816 6.309128
-3.423050 -1.383896 6.266800
-3.436081 -1.393204 6.273331
-3.407639 -1.378494 6.269089
-3.415146 -1.381027 6.267838
-3.424789 -1.384415 6.304367
-3.415817 -1.385086 6.312363
