5.018448 7.103806 6.527756
5.037216 7.103622 6.525223
5.059738 7.100815 6.505264
5.054092 7.101364 6.515549
5.049362 7.102921 6.513504
5.025497 7.105087 6.535599
5.059341 7.098312 6.551346
5.058365 7.099319 6.539688
5.047958 7.101395 6.548050
5.092697 7.080521 6.525925
5.085953 7.087234 6.525162
5.078690 7.092880 6.526138
5.105301 7.066055 6.529587
5.103439 7.063950 6.502609
5.100174 7.074783 6.524857
5.069870 7.096939 6.530563
5.086960 7.088364 6.554337
5.078812 7.093002 6.557419
5.101028 7.075760 6.554367
5.107285 7.068283 6.556564
5.094376 7.082352 6.553604
5.120316 7.054642 6.590805
5.123245 7.043686 6.568771
5.118088 7.052139 6.564163
5.122757 7.057449 6.617020
5.022751 7.101425 6.562759
5.044907 7.098068 6.586563
5.034317 7.100510 6.563126
5.056229 7.097000 6.576096
5.006485 7.089951 6.623367
5.030655 7.096237 6.601120
5.053635 7.094131 6.613937
5.077438 7.091446 6.592331
5.086075 7.087387 6.588089
5.102432 7.077286 6.582901
5.109207 7.070450 6.583847
5.114853 7.062668 6.587112
5.094681 7.082748 6.584579
5.064835 7.094986 6.587540
5.069168 7.096176 6.563705
5.077499 7.091507 6.624191
5.071335 7.090927 6.624771
5.086197 7.087509 6.619797
5.116806 7.064865 6.614517
5.110245 7.071640 6.613327
5.103500 7.078506 6.612320
5.095627 7.083786 6.614304
5.067459 7.094284 6.599411
5.128403 7.006546 6.543320
5.139084 7.013260 6.589432
5.135605 7.014969 6.589676
5.131332 7.009995 6.567947
5.135513 7.000870 6.574387
5.129684 7.025467 6.567642
5.130417 7.022873 6.585648
5.126358 7.032913 6.578049
5.148331 7.001297 6.611404
5.139481 7.005478 6.596878
5.133926 7.026901 6.609329
5.148697 7.001511 6.624222
5.143997 7.010818 6.618027
5.139053 7.018997 6.613419
5.128098 7.049484 6.620895
5.125015 7.045761 6.596329
5.128860 7.035812 6.604050
5.086075 7.087326 6.652359
5.051956 7.092300 6.649857
5.040512 7.093277 6.628494
5.035080 7.093765 6.636551
5.012894 7.085922 6.660660
5.042191 7.089218 6.674545
5.065720 7.092361 6.635452
5.118759 7.067154 6.642044
5.112198 7.073868 6.640945
5.105057 7.080276 6.640854
5.096054 7.084274 6.645523
5.063828 7.090256 6.672195
5.076859 7.090805 6.657944
5.073685 7.090164 6.658463
5.085159 7.086349 6.686905
5.095840 7.084030 6.678452
5.122086 7.070877 6.666580
5.114700 7.076675 6.667435
5.106308 7.081680 6.670303
5.020035 7.081284 6.698776
5.045975 7.087296 6.709702
5.029465 7.074814 6.739212
5.004715 7.067245 6.729660
5.093582 7.081497 6.716507
5.073929 7.087601 6.697250
5.079391 7.086716 6.695328
5.104996 7.080185 6.706131
5.122787 7.071701 6.697525
5.113968 7.075851 6.701828
5.081833 7.085892 6.729324
5.154007 7.007797 6.643631
5.148148 7.029587 6.656143
5.148392 7.015915 6.639755
5.143173 7.023788 6.635757
5.136246 7.044357 6.650864
5.138199 7.031876 6.631210
5.131790 7.039230 6.629105
5.141953 7.036240 6.654556
5.132278 7.054306 6.643204
5.125961 7.061111 6.641708
5.153214 7.021561 6.660477
5.155136 7.030075 6.658646
5.162552 7.003860 6.672104
5.158646 7.013290 6.664810
5.157272 7.026352 6.683151
5.153763 7.036118 6.675186
5.135025 7.057419 6.669113
5.141800 7.050797 6.669968
5.147812 7.043045 6.672989
5.129257 7.064865 6.666245
5.162033 7.003220 6.706009
5.160263 7.015152 6.693527
5.158554 7.026505 6.688400
5.153275 7.035538 6.709061
5.149673 7.045181 6.701218
5.138412 7.061295 6.693649
5.144821 7.054245 6.695419
5.155441 7.024185 6.720352
5.160904 7.001907 6.741562
5.158585 7.013168 6.730423
5.144516 7.039200 6.746628
5.132950 7.055069 6.739639
5.125900 7.061020 6.739914
5.138748 7.047226 6.742996
5.131058 7.066971 6.694595
5.158585 7.013168 6.763443
5.123215 7.057938 6.779617
5.012466 7.062119 6.768692
5.001633 7.044815 6.803787
5.018936 7.058060 6.806686
5.036209 7.070541 6.777328
5.057724 7.079025 6.752213
5.083420 7.070145 6.807053
5.067062 7.072708 6.792801
5.105301 7.066055 6.788742
5.095200 7.069199 6.795700
5.115067 7.062943 6.782150
5.007950 7.040817 6.841843
5.025803 7.053604 6.845261
5.122177 7.056778 6.815598
5.113602 7.061295 6.819260
5.121689 7.056229 6.850571
5.112503 7.060013 6.855759
5.041000 7.067825 6.813828
5.047592 7.063675 6.852127
5.073715 7.068497 6.831100
5.093246 7.067001 6.834000
5.068436 7.067703 6.825821
5.104507 7.065140 6.824234
5.063889 7.062637 6.870529
5.080124 7.066452 6.848648
5.090866 7.064285 6.873672
5.080093 7.064560 6.869278
5.102615 7.063004 6.862717
5.136887 7.045120 6.780716
5.130508 7.052261 6.778763
5.149796 7.031509 6.750443
5.155045 7.023758 6.787643
5.163315 7.004776 6.802139
5.159622 7.014389 6.794235
5.130692 7.052444 6.811844
5.149887 7.031601 6.783493
5.143753 7.038345 6.781723
5.155685 7.024490 6.819626
5.164963 7.006729 6.831680
5.161301 7.016434 6.823624
5.137131 7.045364 6.813614
5.150833 7.032700 6.814713
5.144760 7.039505 6.812759
5.166733 7.008835 6.861069
5.161728 7.016922 6.856430
5.156296 7.025192 6.851974
5.176498 7.008926 6.872513
5.137833 7.046188 6.845627
5.151260 7.033188 6.847397
5.145126 7.039932 6.845627
5.130142 7.051804 6.847000
5.084915 7.061844 6.906235
5.012436 7.038315 6.878311
5.029404 7.051834 6.880936
5.053238 7.060257 6.889786
5.001358 7.020462 6.914078
5.017532 7.035294 6.915573
5.056290 7.058945 6.925156
5.033768 7.049454 6.917496
5.058395 7.056534 6.917862
5.101273 7.061478 6.900101
5.121872 7.056442 6.884171
5.112320 7.059799 6.890274
5.073959 7.059525 6.931870
5.088547 7.061722 6.913528
5.100296 7.060410 6.936905
5.122543 7.057205 6.916946
5.111557 7.058945 6.926559
5.076736 7.062637 6.890854
5.006638 7.017319 6.951614
5.022110 7.032730 6.952469
5.060562 7.056656 6.961777
5.036972 7.047989 6.953110
5.010025 7.015671 6.987564
5.026230 7.030563 6.989090
5.042160 7.044937 6.990738
5.086777 7.061478 6.940598
5.086746 7.059708 6.952377
5.121292 7.055771 6.954605
5.110886 7.058182 6.962875
5.063309 7.055557 6.997177
5.070633 7.055801 6.974625
5.090469 7.059677 6.976761
5.085617 7.058395 6.990097
5.121475 7.055984 6.989090
5.099258 7.059219 6.974228
5.110184 7.057388 6.999588
5.168320 7.010727 6.891312
5.173019 7.001877 6.897324
5.163071 7.018509 6.887131
5.157516 7.026627 6.882919
5.128525 7.053360 6.900894
5.137955 7.046341 6.879379
5.152512 7.034714 6.878250
5.145920 7.040848 6.877701
5.130966 7.052780 6.878983
5.174667 7.003830 6.927597
5.170090 7.012802 6.921188
5.159592 7.029068 6.912125
5.165298 7.021133 6.915878
5.153610 7.035934 6.909927
5.147049 7.042160 6.909195
5.139420 7.048019 6.910141
5.131821 7.053757 6.911148
5.176773 7.006332 6.956894
5.176468 7.011795 6.942947
5.172165 7.015274 6.950577
5.160141 7.029739 6.945267
5.166122 7.022110 6.948441
5.130630 7.053909 6.968277
5.154404 7.036911 6.942459
5.147385 7.042557 6.942917
5.139420 7.048019 6.944717
5.131302 7.053116 6.947098
5.178085 7.007889 6.988449
5.167709 7.024002 6.979233
5.161423 7.031204 6.976913
5.173355 7.016708 6.982407
5.155685 7.038376 6.974106
5.148605 7.043991 6.974716
5.139755 7.048447 6.978653
5.131546 7.053452 6.981308
4.583054 6.949905 7.773605
4.689285 6.994797 7.278152
4.741531 6.998154 7.074600
4.741440 6.998856 7.124741
4.684738 6.999374 7.247238
4.677902 6.997208 7.248978
4.997177 6.969284 7.003677
4.693466 6.990768 7.309616
4.683975 6.996872 7.288589
4.656296 6.991409 7.342514
4.677292 6.986343 7.335251
4.668625 6.989243 7.321487
4.665512 6.999069 7.325211
4.683395 6.988785 7.316635
4.650803 6.997330 7.370499
4.682266 6.971390 7.371811
4.682999 6.980698 7.344803
4.677963 6.978439 7.346329
4.664474 6.986954 7.349289
4.696548 6.988174 7.342697
4.701645 6.978439 7.319138
4.701645 6.995621 7.348038
4.672073 6.974533 7.392807
4.664444 6.983444 7.382309
4.683243 6.972977 7.376572
4.648514 6.991806 7.425949
4.645645 6.976089 7.414108
4.664017 6.976761 7.412125
4.677872 6.981522 7.421219
4.663895 6.958298 7.464432
4.638626 6.986984 7.466995
4.640244 6.981979 7.442368
4.647537 6.980148 7.450851
4.644272 6.995499 7.438339
4.657913 6.972763 7.462967
4.664108 6.974075 7.446274
4.676834 6.984329 7.460190
4.633591 6.979416 7.496719
4.647232 6.974197 7.481766
4.634476 6.988113 7.470413
4.629959 6.993210 7.499863
4.631027 6.992966 7.499588
4.577988 6.961411 7.764877
4.663315 6.961716 7.516769
4.618942 6.976395 7.538101
4.621628 6.997086 7.542038
4.612228 6.974533 7.591049
4.610855 6.984604 7.563797
4.612930 6.984390 7.563797
4.613937 6.985458 7.567642
4.622574 6.954727 7.618790
4.611984 6.968857 7.622879
4.609116 6.978165 7.598007
4.607285 6.988937 7.594528
4.629745 6.978287 7.521530
4.630875 6.975327 7.530319
4.647446 6.972549 7.517319
4.626358 6.997513 7.530380
4.648544 6.999374 7.516525
4.657547 6.974777 7.501297
4.659256 6.995651 7.508347
4.634415 6.969254 7.547165
4.654251 6.980576 7.543716
4.629471 6.972366 7.552841
4.648544 6.978439 7.561020
4.646225 6.997116 7.559830
4.635208 6.969711 7.584244
4.629532 6.969284 7.587234
4.628738 6.972092 7.564957
4.627853 6.997421 7.566635
4.631516 6.998215 7.575882
4.626114 6.968124 7.598923
4.628433 6.995255 7.621353
4.612503 6.966232 7.631729
4.605362 6.972488 7.630264
4.594742 6.973129 7.631729
4.604477 6.992569 7.626297
4.614700 6.997055 7.635574
4.601547 6.966690 7.662460
4.612076 6.965897 7.657791
4.622635 6.954514 7.669724
4.613205 6.967300 7.669632
4.589066 6.979294 7.660355
4.589493 6.986099 7.671249
4.621628 6.988602 7.675919
4.595596 6.972427 7.663101
4.604019 6.994186 7.660721
4.610672 6.993149 7.683731
4.589920 6.963211 7.717514
4.613449 6.968521 7.708023
4.595291 6.965897 7.694351
4.599747 6.963974 7.698196
4.612320 6.964432 7.694382
4.583969 6.977707 7.700760
4.583450 6.985428 7.689133
4.606827 6.992966 7.698990
4.575089 6.966385 7.731277
4.599289 6.963303 7.736343
4.595261 6.962082 7.728653
4.621719 6.959518 7.723373
4.594925 6.958267 7.749527
4.613052 6.966995 7.735550
4.578537 6.970230 7.735825
4.579361 6.970688 7.731918
4.583298 6.986771 7.724167
4.611649 6.972366 7.749374
4.606674 6.989212 7.732315
4.632828 6.974289 7.625839
4.629990 6.969559 7.625351
4.630173 6.979294 7.668045
4.574356 6.963058 7.762466
4.595108 6.956924 7.768326
4.595169 6.957199 7.761978
4.568497 6.973343 7.759140
4.582779 6.988449 7.758926
4.566208 6.949326 7.808487
4.574356 6.951950 7.794968
4.577591 6.953629 7.795212
4.571915 6.959366 7.797501
4.595383 6.955368 7.798752
4.596054 6.958359 7.787064
4.594223 6.955612 7.806076
4.568069 6.974991 7.794144
4.585892 6.935379 7.869247
4.557388 6.958328 7.833969
4.560806 6.959457 7.838943
4.560226 6.950058 7.867783
4.550705 6.965439 7.862015
4.549393 6.965530 7.869644
4.577682 6.950668 7.830917
4.567917 6.953232 7.830002
4.585342 6.938095 7.819107
4.579453 6.946945 7.827194
4.595901 6.960068 7.826523
4.566757 6.977402 7.828262
4.577438 6.944473 7.863266
4.564529 6.948074 7.863663
4.582260 6.944931 7.862747
4.585892 6.935440 7.920914
4.559555 6.935562 7.930649
4.557083 6.936783 7.930283
4.541061 6.952774 7.894852
4.542923 6.946182 7.901321
4.536728 6.950333 7.899185
4.559433 6.938309 7.894150
4.559555 6.940506 7.894730
4.550522 6.966873 7.897720
4.577591 6.941849 7.899734
4.581436 6.947525 7.903458
4.581558 6.964890 7.911545
4.571701 6.921494 7.965714
4.588516 6.921829 7.965714
4.576950 6.927994 7.963577
4.574539 6.926865 7.965012
4.592636 6.936234 7.967300
4.578323 6.901535 7.990463
4.583969 6.904678 7.998886
4.576035 6.915298 7.989212
4.576706 6.914413 7.977127
4.585342 6.937424 7.980515
4.593307 6.913376 7.988724
4.593704 6.916672 7.995163
4.590622 6.928055 7.985336
4.546402 6.943069 7.946640
4.554672 6.964462 7.938675
4.545883 6.944778 7.982315
4.556259 6.964340 7.976791
4.578537 6.961960 7.959763
4.578262 6.944290 7.942001
4.581467 6.949020 7.943192
4.578934 6.947006 7.977005
4.565964 6.963882 7.972946
5.144241 6.874557 7.791367
5.147293 6.851089 7.275711
5.145981 6.857529 7.031143
5.077255 6.865921 7.003769
5.081039 6.865128 7.014236
5.106522 6.848862 7.030106
5.104935 6.864059 7.000351
5.123184 6.867691 7.006760
5.106003 6.863052 7.022446
5.070969 6.869766 7.035324
5.063248 6.866745 7.041245
5.087936 6.865341 7.033707
5.078476 6.865646 7.037674
5.108231 6.861374 7.055038
5.105240 6.863846 7.034988
5.123001 6.864944 7.038925
5.113205 6.866776 7.047318
5.063004 6.868515 7.091415
5.075455 6.864700 7.065689
5.088425 6.866104 7.069504
5.078812 6.866592 7.072983
5.106186 6.851181 7.080460
5.105270 6.862167 7.068344
5.123367 6.865067 7.074112
5.109634 6.860825 7.088882
5.079758 6.867966 7.121445
5.088638 6.865341 7.103958
5.079575 6.866959 7.107803
5.111130 6.860184 7.122726
5.105637 6.862411 7.103775
5.123245 6.862503 7.106735
5.142319 6.874588 7.016525
5.128586 6.866898 7.013687
5.142502 6.873703 7.050552
5.130630 6.865433 7.046463
5.146103 6.857162 7.080276
5.132431 6.864395 7.079788
5.150345 6.873795 7.076859
5.142136 6.870010 7.081985
5.133804 6.863876 7.113785
5.152359 6.872391 7.109940
5.142288 6.869034 7.116257
5.071640 6.875320 7.005997
5.039536 6.896408 7.021439
5.055038 6.882065 7.009933
5.002151 6.936600 7.022720
5.024338 6.914841 7.002151
5.055801 6.884445 7.047226
5.031357 6.898270 7.052261
5.040146 6.897903 7.057877
5.007248 6.933548 7.060654
5.025406 6.919174 7.041306
5.009140 6.988174 7.000168
5.013687 6.940598 7.050125
5.001083 6.967209 7.040329
5.013962 6.991714 7.056046
5.006760 6.990036 7.032028
5.056473 6.886307 7.084183
5.026505 6.923447 7.080612
5.056870 6.886642 7.119797
5.061722 6.880142 7.106216
5.040970 6.900742 7.095871
5.032791 6.900497 7.106735
5.020157 6.926041 7.115158
5.013138 6.929855 7.099503
5.027817 6.929001 7.121445
5.072433 6.875870 7.076492
5.072861 6.876419 7.112289
5.004807 6.965317 7.077011
5.011948 6.986923 7.070053
5.009933 6.962265 7.115158
5.017197 6.943588 7.105515
5.018692 6.982559 7.109756
5.024643 6.997513 7.114548
5.188034 6.928726 7.058365
5.146469 6.876450 7.010910
5.162643 6.889236 7.011063
5.163742 6.894913 7.004715
5.174393 6.908463 7.017410
5.177078 6.916061 7.000198
5.181564 6.921585 7.023575
5.185074 6.931564 7.026871
5.148209 6.875351 7.044052
5.177811 6.901779 7.052444
5.162735 6.887894 7.032639
5.164200 6.888504 7.044479
5.169357 6.891403 7.039078
5.181992 6.891983 7.043900
5.176956 6.906265 7.049515
5.186020 6.927048 7.047256
5.186417 6.957504 7.008255
5.187210 6.973312 7.022568
5.184433 6.985123 7.010513
5.186722 6.987869 7.039902
5.187515 6.943924 7.024307
5.188644 6.961349 7.009232
5.190445 6.947495 7.052048
5.189377 6.961105 7.035812
5.190903 6.959518 7.041702
5.190018 6.976700 7.050705
5.165634 6.887894 7.078232
5.178909 6.904861 7.082504
5.162827 6.886459 7.066269
5.182114 6.891647 7.093185
5.181656 6.906540 7.077805
5.167953 6.886002 7.110886
5.162460 6.882858 7.097824
5.180710 6.903763 7.115921
5.183731 6.904739 7.122635
5.187119 6.913315 7.099106
5.190170 6.927109 7.091202
5.189774 6.931656 7.072891
5.191086 6.918198 7.124557
5.194351 6.937302 7.096573
5.192917 6.924576 7.123276
5.193863 6.951645 7.078659
5.195114 6.968094 7.091965
5.192062 6.964340 7.064316
5.194839 6.955246 7.071945
5.192581 6.979813 7.079636
5.188980 6.990555 7.069687
5.192032 6.994949 7.063644
5.197800 6.952377 7.103653
5.196945 6.955429 7.106369
5.194717 6.982590 7.109695
5.195724 6.991013 7.094345
5.190933 6.992935 7.100418
5.198135 6.971786 7.120010
5.062851 6.869858 7.141495
5.078812 6.869522 7.144943
5.089066 6.865860 7.139877
5.113327 6.858566 7.155746
5.106644 6.848587 7.128708
5.106003 6.862564 7.139328
5.123611 6.862656 7.142288
5.077103 6.868637 7.174393
5.089279 6.864944 7.174454
5.081436 6.867294 7.177475
5.106674 6.848862 7.178299
5.110489 6.863541 7.169754
5.106216 6.861710 7.174026
5.123764 6.861649 7.176834
5.073441 6.873856 7.216415
5.089859 6.866348 7.211655
5.082993 6.866531 7.211594
5.106705 6.862595 7.210648
5.113571 6.859665 7.191666
5.124313 6.862747 7.213669
5.090469 6.867813 7.249039
5.081650 6.872055 7.230545
5.107254 6.863541 7.247513
5.106186 6.852280 7.229568
5.114243 6.860214 7.227127
5.112076 6.869247 7.233932
5.124619 6.862503 7.249374
5.135330 6.863174 7.147629
5.155136 6.869919 7.142044
5.142075 6.866196 7.148819
5.146378 6.855698 7.128983
5.146774 6.853592 7.177536
5.137009 6.862259 7.181503
5.155624 6.870651 7.177536
5.142197 6.864944 7.183151
5.138138 6.862106 7.216202
5.157913 6.868851 7.210556
5.147171 6.851578 7.226181
5.142776 6.866226 7.220230
5.159164 6.868576 7.245224
5.161972 6.873184 7.230423
5.185349 6.872055 7.232803
5.073380 6.877426 7.148697
5.041824 6.903610 7.134079
5.017014 6.927811 7.136581
5.057602 6.888718 7.157364
5.061935 6.882431 7.168991
5.039169 6.904587 7.163467
5.022171 6.924698 7.175064
5.029373 6.936203 7.164108
5.043015 6.908310 7.174393
5.073624 6.876816 7.183701
5.013077 6.960800 7.151596
5.015549 6.986252 7.140030
5.024063 6.937698 7.181564
5.025742 6.948563 7.163193
5.018539 6.985367 7.176163
5.061996 6.875473 7.193741
5.058792 6.893570 7.197922
5.025558 6.923080 7.212021
5.043259 6.907791 7.209549
5.060745 6.883591 7.247269
5.060165 6.899338 7.239639
5.028610 6.921738 7.248764
5.043747 6.908035 7.219589
5.064133 6.889755 7.233749
5.030991 6.943344 7.207016
5.026505 6.950546 7.217636
5.016830 6.958878 7.188736
5.024857 6.981003 7.216110
5.025253 6.942490 7.245499
5.020065 6.957413 7.225510
5.024673 6.982651 7.249466
5.197281 6.919815 7.153214
5.170334 6.884079 7.143570
5.184616 6.899582 7.146408
5.162094 6.879227 7.129532
5.183884 6.880722 7.137589
5.182724 6.897964 7.151321
5.172867 6.881912 7.176132
5.161789 6.875931 7.161697
5.185959 6.897202 7.156937
5.184647 6.876083 7.185013
5.187332 6.897171 7.178757
5.182114 6.892960 7.181839
5.196091 6.924332 7.147415
5.191940 6.904648 7.177261
5.198868 6.918961 7.187149
5.200150 6.929337 7.172958
5.200607 6.944992 7.152084
5.197189 6.940750 7.125076
5.201157 6.949020 7.134964
5.199478 6.958511 7.135757
5.199753 6.973740 7.151993
5.197586 6.989792 7.127731
5.192642 6.994980 7.132034
5.197159 6.985550 7.139450
5.204819 6.950119 7.177353
5.204178 6.946121 7.166824
5.202164 6.961777 7.164963
5.202255 6.976761 7.181839
5.200455 6.987076 7.159805
5.195053 6.997910 7.162064
5.199295 6.988113 7.170212
5.174576 6.880966 7.210007
5.181320 6.887314 7.211868
5.162125 6.875839 7.197250
5.183456 6.893845 7.190109
5.176926 6.879044 7.243088
5.181381 6.885880 7.246323
5.189835 6.895035 7.211502
5.197739 6.911819 7.198288
5.204788 6.935104 7.197037
5.191208 6.894516 7.245987
5.200943 6.917465 7.220566
5.202042 6.917160 7.223434
5.208572 6.941238 7.196793
5.205429 6.965836 7.192795
5.209274 6.955643 7.201981
5.205368 6.980545 7.210281
5.206131 6.980270 7.187973
5.196579 6.999741 7.194656
5.201675 6.990982 7.200638
5.209579 6.956009 7.238113
5.208633 6.939865 7.223434
5.209061 6.941971 7.232529
5.206070 6.981400 7.245438
5.208572 6.969650 7.221207
5.202713 6.992264 7.234818
5.139236 6.862076 7.251175
5.106461 6.850998 7.278671
5.115005 6.860611 7.262619
5.091171 6.869797 7.287216
5.081833 6.873764 7.284897
5.114578 6.862686 7.299911
5.107773 6.864426 7.284531
5.111313 6.869095 7.295975
5.092026 6.872513 7.326309
5.106247 6.852859 7.329453
5.108414 6.866074 7.322525
5.113876 6.865128 7.337814
5.109146 6.868149 7.361221
5.111160 6.870438 7.358749
5.142990 6.865402 7.255386
5.162155 6.872513 7.265701
5.159805 6.869156 7.280960
5.139023 6.863815 7.288132
5.125076 6.863144 7.286148
5.143204 6.864883 7.290970
5.162247 6.871201 7.300552
5.185806 6.869492 7.281357
5.144119 6.867813 7.330307
5.147141 6.852524 7.326218
5.140152 6.863693 7.323288
5.125778 6.864914 7.324295
5.162827 6.872330 7.338089
5.162399 6.866959 7.314011
5.186630 6.864456 7.328842
5.126450 6.866745 7.362686
5.141037 6.863937 7.358994
5.144608 6.868454 7.367538
5.163223 6.872604 7.374924
5.162613 6.868118 7.350571
5.075516 6.883499 7.262283
5.046280 6.910660 7.274918
5.059372 6.892349 7.301285
5.030258 6.921524 7.284286
5.076157 6.885178 7.300186
5.063736 6.890488 7.296158
5.021500 6.957382 7.260757
5.032730 6.954636 7.274643
5.025803 6.955032 7.298904
5.030838 6.978806 7.289444
5.046585 6.912460 7.329391
5.034073 6.919540 7.322098
5.061935 6.903152 7.352310
5.038620 6.917007 7.360794
5.075363 6.881638 7.332474
5.075912 6.881668 7.332932
5.083786 6.876205 7.340164
5.093033 6.875992 7.366440
5.065140 6.895828 7.360458
5.028305 6.954147 7.335464
5.029648 6.955338 7.312698
5.037613 6.958176 7.331161
5.032639 6.978531 7.325211
5.030777 6.953354 7.372116
5.032120 6.980118 7.358810
5.192184 6.894638 7.281204
5.178421 6.878403 7.277542
5.181381 6.884079 7.280533
5.203445 6.915329 7.253494
5.203720 6.919266 7.255814
5.204269 6.915604 7.288925
5.206192 6.922318 7.286331
5.209915 6.942245 7.267929
5.211166 6.957932 7.271072
5.209213 6.940598 7.258896
5.208267 6.984055 7.276962
5.209305 6.970505 7.256393
5.204056 6.993881 7.268448
5.212051 6.940628 7.301529
5.211197 6.943039 7.290848
5.213211 6.960464 7.302963
5.204880 6.994888 7.303848
5.210800 6.972366 7.289719
5.209396 6.985458 7.311478
5.179520 6.878311 7.312729
5.181625 6.883499 7.316208
5.181442 6.892319 7.313889
5.181839 6.876480 7.346237
5.180923 6.878159 7.347122
5.194138 6.893326 7.315201
5.200119 6.899368 7.323349
5.206375 6.914047 7.322678
5.206680 6.920334 7.321030
5.209213 6.926041 7.315659
5.194534 6.894241 7.351547
5.205673 6.906326 7.345718
5.212540 6.930161 7.344315
5.218979 6.927353 7.355637
5.215530 6.963272 7.334488
5.213882 6.946335 7.321213
5.211685 6.988235 7.343185
5.212692 6.974655 7.322281
5.206955 6.997391 7.336075
5.216660 6.964706 7.369492
5.216354 6.949387 7.352341
5.208969 6.999802 7.368851
5.215378 6.977951 7.352982
5.109909 6.870468 7.400284
5.105484 6.857803 7.381790
5.113541 6.867111 7.375351
5.104263 6.865768 7.435745
5.113358 6.868881 7.412827
5.110886 6.873642 7.440567
5.111435 6.873062 7.453018
5.103806 6.869064 7.487595
5.139725 6.867294 7.398026
5.127274 6.869339 7.402084
5.146713 6.855484 7.377609
5.162064 6.870407 7.388504
5.186264 6.867447 7.380264
5.146744 6.855820 7.427872
5.145554 6.871658 7.407578
5.138901 6.869949 7.436539
5.161179 6.873154 7.427048
5.185410 6.873306 7.433212
5.128006 6.871262 7.441025
5.146347 6.872757 7.445755
5.162918 6.872177 7.461929
5.147049 6.874588 7.484787
5.139084 6.871201 7.473740
5.128799 6.873398 7.480392
5.146042 6.860703 7.480484
5.089401 6.880020 7.397232
5.041946 6.915451 7.398453
5.052841 6.916550 7.386703
5.048477 6.929459 7.376694
5.044235 6.914749 7.435226
5.049606 6.933914 7.418076
5.093674 6.877518 7.404770
5.077896 6.890762 7.378922
5.062973 6.906906 7.392868
5.066635 6.901321 7.424973
5.077896 6.888718 7.413559
5.113266 6.877487 7.423843
5.063675 6.909012 7.431900
5.031631 6.962204 7.377731
5.038620 6.960251 7.386093
5.036575 6.977676 7.397598
5.031235 6.954117 7.406906
5.036301 6.979080 7.431717
5.050461 6.936783 7.458054
5.053299 6.918411 7.441513
5.057541 6.921707 7.498154
5.047653 6.913132 7.473312
5.093430 6.883224 7.453720
5.078781 6.891617 7.453537
5.094589 6.880783 7.445114
5.080399 6.898636 7.498123
5.113663 6.880264 7.487442
5.095322 6.882553 7.484116
5.111771 6.876480 7.480637
5.109695 6.877029 7.493149
5.067886 6.906265 7.489426
5.064560 6.912033 7.472122
5.033127 6.953781 7.443283
5.040146 6.962540 7.441422
5.036728 6.979904 7.466690
5.034378 6.970932 7.443649
5.051010 6.937607 7.496109
5.034592 6.953751 7.479355
5.042984 6.965347 7.497452
5.201462 6.885818 7.378464
5.182724 6.885483 7.391403
5.179642 6.881180 7.386612
5.182266 6.896072 7.377731
5.183914 6.889908 7.432846
5.164291 6.876450 7.415726
5.181381 6.880142 7.421280
5.213638 6.931564 7.379288
5.219162 6.926559 7.405441
5.206741 6.918076 7.433670
5.213272 6.931137 7.418655
5.217728 6.966019 7.404892
5.217026 6.950241 7.388626
5.215622 6.978256 7.390640
5.218704 6.970901 7.390396
5.213120 6.989975 7.377548
5.217606 6.950943 7.425552
5.215134 6.940659 7.408188
5.218552 6.972641 7.427933
5.213425 6.990372 7.415207
5.216354 6.979355 7.426956
5.165329 6.879929 7.456345
5.183060 6.899857 7.441696
5.184738 6.878189 7.485794
5.185226 6.894821 7.475143
5.193710 6.899918 7.464584
5.215195 6.933548 7.451981
5.219803 6.922806 7.453903
5.212479 6.930130 7.498703
5.206619 6.919754 7.471329
5.209671 6.928268 7.476395
5.218033 6.951492 7.463181
5.216537 6.940140 7.443497
5.218369 6.966812 7.441910
5.216873 6.979996 7.464493
5.214279 6.991409 7.451797
5.219650 6.972549 7.463760
5.215256 6.943558 7.482956
5.218155 6.966568 7.481583
5.215042 6.992355 7.488846
5.144608 6.872604 7.841537
5.139908 6.871597 7.510239
5.103439 6.871719 7.539322
5.145950 6.861710 7.531296
5.145187 6.867020 7.584396
5.096481 6.886917 7.526047
5.052139 6.910660 7.512619
5.057724 6.923477 7.553116
5.112747 6.879807 7.521500
5.097031 6.886307 7.510208
5.065414 6.914719 7.512192
5.080490 6.896957 7.533768
5.115494 6.886612 7.552567
5.108139 6.880783 7.533249
5.113541 6.882126 7.561478
5.068588 6.909805 7.553452
5.066544 6.919022 7.554245
5.037613 6.952469 7.517197
5.037979 6.980087 7.502640
5.037491 6.980606 7.510147
5.036880 6.954300 7.551315
5.052200 6.942398 7.538589
5.044052 6.967453 7.552811
5.037949 6.981277 7.537430
5.081467 6.900528 7.575150
5.102524 6.877914 7.592880
5.096298 6.887711 7.564774
5.097366 6.889816 7.566727
5.097336 6.889786 7.620316
5.114761 6.886795 7.604202
5.098190 6.892258 7.607071
5.116592 6.891098 7.617111
5.070663 6.916824 7.619034
5.067490 6.922165 7.595322
5.083389 6.909073 7.622147
5.053085 6.945358 7.579300
5.039597 6.953293 7.589127
5.034653 6.985184 7.568985
5.038437 6.984818 7.574600
5.053940 6.948074 7.620010
5.039841 6.954300 7.624557
5.039932 6.982101 7.609482
5.193222 6.902145 7.502914
5.129654 6.876083 7.520523
5.148392 6.879654 7.527512
5.186172 6.897903 7.515671
5.166916 6.886307 7.500320
5.178879 6.886795 7.500015
5.185104 6.906631 7.507004
5.130814 6.879288 7.561539
5.159714 6.879807 7.542099
5.167618 6.887955 7.539505
5.184738 6.878555 7.536362
5.175766 6.892746 7.542465
5.210800 6.932144 7.517776
5.206192 6.921921 7.509628
5.219589 6.924820 7.505264
5.187607 6.903336 7.558914
5.192245 6.905106 7.542252
5.205643 6.924240 7.548294
5.210403 6.927597 7.543961
5.219101 6.928421 7.557541
5.215134 6.945267 7.520920
5.217484 6.950790 7.504044
5.219223 6.967880 7.517960
5.216080 6.993607 7.525589
5.217178 6.980392 7.502975
5.219559 6.974258 7.501602
5.215286 6.946609 7.558578
5.217819 6.951218 7.542648
5.217575 6.995407 7.561295
5.218491 6.981979 7.538925
5.220016 6.968826 7.555527
5.221695 6.972610 7.536179
5.149368 6.883041 7.568680
5.157639 6.884354 7.583237
5.183517 6.886856 7.590958
5.168808 6.892410 7.581833
5.176529 6.893173 7.579300
5.184799 6.907639 7.570145
5.150436 6.886703 7.610428
5.132339 6.885300 7.605728
5.156998 6.886765 7.622391
5.169418 6.893631 7.621017
5.175949 6.895584 7.618332
5.191483 6.907791 7.581436
5.205154 6.926468 7.587051
5.191574 6.909195 7.619431
5.188583 6.906357 7.599869
5.206528 6.926041 7.623154
5.218857 6.930374 7.609116
5.216599 6.949783 7.585922
5.219070 6.982712 7.577286
5.219437 6.977493 7.577591
5.214706 6.948959 7.597519
5.219681 6.968430 7.596634
5.217941 6.995865 7.600571
5.219925 6.978348 7.615067
5.218765 6.982346 7.618607
5.144272 6.873245 7.638077
5.144363 6.873428 7.739822
5.102341 6.879471 7.644333
5.061966 6.928513 7.665176
5.115707 6.889908 7.645584
5.099106 6.895248 7.648300
5.068192 6.923904 7.635086
5.083145 6.905533 7.656387
5.116257 6.890854 7.684799
5.069077 6.926834 7.676376
5.040176 6.983109 7.645004
5.040451 6.991745 7.640305
5.054764 6.950546 7.660690
5.042130 6.953629 7.662247
5.037338 6.986618 7.677383
5.042557 6.970291 7.662216
5.101364 6.885910 7.698349
5.100082 6.898697 7.690231
5.101730 6.895950 7.695755
5.085068 6.914352 7.704178
5.069778 6.928665 7.716690
5.101578 6.897720 7.734695
5.102097 6.895035 7.733017
5.100754 6.900131 7.730240
5.116867 6.892227 7.724686
5.118698 6.899948 7.746567
5.085587 6.915054 7.743423
5.066452 6.931900 7.722549
5.055527 6.952927 7.701523
5.041916 6.955032 7.697464
5.041428 6.984512 7.717178
5.043747 6.954727 7.735001
5.056381 6.955490 7.742783
5.050705 6.975143 7.721268
5.189346 6.908554 7.640152
5.132736 6.885666 7.644089
5.151199 6.888718 7.650558
5.135452 6.882462 7.630966
5.183762 6.885605 7.640976
5.176224 6.896713 7.656235
5.133377 6.886978 7.672501
5.133835 6.889359 7.686325
5.156906 6.888443 7.660904
5.170670 6.898331 7.664139
5.189560 6.921127 7.638443
5.190567 6.912918 7.683029
5.191757 6.910446 7.657455
5.205826 6.928604 7.662613
5.219131 6.928970 7.659225
5.216141 6.949173 7.627609
5.215836 6.948868 7.634048
5.219406 6.968094 7.637894
5.218430 6.996475 7.639786
5.220657 6.978836 7.652298
5.219925 6.983719 7.656113
5.215134 6.951462 7.673599
5.216843 6.950058 7.666245
5.219955 6.968796 7.677139
5.219162 6.997360 7.678696
5.133438 6.888412 7.710983
5.143784 6.876694 7.690536
5.151840 6.890182 7.690353
5.156876 6.890030 7.699448
5.183487 6.887985 7.692978
5.171066 6.898422 7.702530
5.175919 6.898727 7.695267
5.133560 6.889847 7.749619
5.134415 6.890579 7.726028
5.152634 6.892471 7.731277
5.183487 6.888443 7.744125
5.176468 6.899551 7.733139
5.157242 6.891068 7.737625
5.171646 6.899429 7.742142
5.191757 6.912033 7.696030
5.205429 6.930740 7.701767
5.219131 6.929428 7.710373
5.206772 6.930374 7.738419
5.190659 6.911575 7.719955
5.193253 6.911423 7.732407
5.216629 6.950851 7.709885
5.216537 6.949722 7.708176
5.221085 6.970200 7.715042
5.221024 6.979874 7.690231
5.221054 6.985153 7.693863
5.220688 6.999252 7.715591
5.218155 6.950180 7.746292
5.219070 6.952835 7.742172
5.223434 6.973099 7.749802
5.222366 6.979538 7.726944
5.222305 6.986649 7.731674
5.193802 6.912247 7.770462
5.068680 6.905594 7.777328
5.057571 6.930252 7.773727
5.101242 6.900864 7.769669
5.101578 6.899307 7.773605
5.100754 6.890091 7.751358
5.117996 6.895035 7.766403
5.085098 6.910202 7.776810
5.070572 6.930954 7.757736
5.101791 6.900589 7.812363
5.103470 6.897232 7.789108
5.101852 6.902237 7.810013
5.118454 6.895554 7.805801
5.117325 6.898331 7.809006
5.071182 6.932266 7.797928
5.045792 6.954330 7.772903
5.043808 6.983810 7.755356
5.046860 6.954666 7.809982
5.057480 6.959671 7.785965
5.042496 6.986099 7.789749
5.064011 6.934433 7.832291
5.072037 6.935074 7.840042
5.086594 6.916519 7.822678
5.103287 6.900070 7.849350
5.102188 6.901901 7.848709
5.118973 6.896286 7.845657
5.086044 6.911301 7.856033
5.058151 6.961380 7.826767
5.047531 6.983261 7.831100
5.051437 6.978867 7.832504
5.039810 6.995590 7.831375
5.058060 6.958603 7.862839
5.048843 6.954300 7.848099
5.048569 6.983627 7.868332
5.206802 6.931900 7.777298
5.135208 6.892685 7.766983
5.153366 6.894424 7.772079
5.156906 6.893173 7.777054
5.177139 6.900131 7.770950
5.171982 6.899185 7.780563
5.186356 6.916794 7.762833
5.135605 6.892990 7.806137
5.134567 6.889969 7.787003
5.153793 6.894669 7.811203
5.178299 6.900070 7.808243
5.183670 6.887619 7.794724
5.191238 6.912704 7.759750
5.219345 6.928818 7.761093
5.194412 6.912949 7.808548
5.191147 6.910385 7.796005
5.209488 6.929581 7.812180
5.220016 6.953995 7.781204
5.223953 6.988693 7.768631
5.223434 6.979538 7.764114
5.217789 6.952347 7.785843
5.224747 6.979172 7.801071
5.224106 6.973923 7.789780
5.224655 6.989548 7.808823
5.134933 6.891037 7.825546
5.158371 6.892654 7.813889
5.172318 6.899124 7.819412
5.185471 6.916336 7.825882
5.135666 6.891586 7.863754
5.135941 6.892776 7.844925
5.153732 6.892319 7.847702
5.160660 6.890915 7.849503
5.180161 6.898972 7.844528
5.172226 6.896713 7.855850
5.191208 6.908768 7.833176
5.218765 6.932877 7.814255
5.191422 6.907791 7.871292
5.196274 6.911819 7.844864
5.211288 6.928635 7.848679
5.214584 6.934860 7.865463
5.220322 6.923019 7.860550
5.220047 6.950607 7.821426
5.221848 6.956253 7.817947
5.227280 6.977097 7.836349
5.225601 6.975754 7.827682
5.227402 6.992935 7.843185
5.222519 6.948593 7.856796
5.225113 6.960281 7.850784
5.229019 6.979996 7.860153
5.231247 6.972885 7.869461
5.231522 6.997940 7.873886
5.106796 6.896683 7.883316
5.102524 6.901749 7.887863
5.119217 6.895493 7.884048
5.086777 6.913284 7.897537
5.072922 6.929703 7.876602
5.072067 6.932968 7.876907
5.106216 6.899063 7.923782
5.100113 6.895279 7.907669
5.103195 6.903275 7.929031
5.119492 6.894821 7.922775
5.115433 6.897141 7.935104
5.072800 6.935013 7.918625
5.058701 6.960068 7.903824
5.046799 6.957199 7.882095
5.046677 6.986435 7.902542
5.046646 6.958572 7.918289
5.100510 6.892990 7.957962
5.105972 6.901047 7.964005
5.119736 6.894180 7.961777
5.073593 6.937210 7.960739
5.088242 6.919174 7.943710
5.103928 6.905167 7.970932
5.087692 6.914139 7.977829
5.047897 6.958786 7.956131
5.059494 6.962387 7.945969
5.050308 6.984756 7.942917
5.048569 6.959518 7.993454
5.050095 6.986160 7.979233
5.084183 6.959824 7.952652
5.213974 6.930008 7.899460
5.142960 6.883652 7.898453
5.135452 6.893478 7.903580
5.137283 6.897751 7.889725
5.153885 6.891190 7.885727
5.183365 6.890518 7.898666
5.163254 6.888840 7.884903
5.181137 6.899155 7.882401
5.172714 6.897354 7.895889
5.137100 6.894821 7.925949
5.154373 6.891830 7.925949
5.164261 6.888992 7.922897
5.183853 6.896866 7.917709
5.172867 6.896194 7.934128
5.196976 6.912430 7.883194
5.211655 6.929672 7.887497
5.214401 6.927292 7.922745
5.191483 6.906265 7.909012
5.199783 6.910019 7.918350
5.214066 6.928482 7.937302
5.221176 6.918076 7.909409
5.224136 6.947830 7.893692
5.223221 6.943558 7.877365
5.230759 6.967239 7.876755
5.232986 6.984818 7.891312
5.226334 6.946274 7.929886
5.226303 6.947403 7.911118
5.234329 6.986465 7.930710
5.232193 6.973068 7.907455
5.233292 6.970383 7.912277
5.136398 6.889053 7.959244
5.154587 6.890884 7.964554
5.143570 6.880173 7.948105
5.137436 6.892258 7.940140
5.164322 6.890518 7.962601
5.184402 6.884293 7.946915
5.183395 6.899124 7.958176
5.181656 6.910507 7.950272
5.144211 6.876511 7.997757
5.141922 6.887466 7.972916
5.165970 6.889755 7.999954
5.173050 6.895126 7.972702
5.184769 6.882248 7.997391
5.183640 6.900375 7.997757
5.200027 6.911240 7.957718
5.215042 6.927963 7.961502
5.192032 6.907242 7.949722
5.221695 6.914932 7.959335
5.192062 6.905350 7.987442
5.201157 6.911209 7.995834
5.213882 6.925644 7.973831
5.216751 6.927139 7.998764
5.227005 6.946945 7.968704
5.229294 6.951096 7.945419
5.233597 6.972641 7.944962
5.234177 6.971512 7.953018
5.231735 6.954086 7.981827
5.236069 6.973831 7.991226
5.235001 6.972244 7.982681
5.235184 6.987534 7.971909
4.700516 7.000381 7.257675
4.700851 7.000076 7.293533
4.740524 7.003677 7.027390
4.735855 7.018356 7.030838
4.748856 7.016922 7.013016
4.719894 7.037521 7.015640
4.735428 7.052475 7.016495
4.742783 7.050217 7.028580
4.707901 7.020767 7.051010
4.722214 7.016281 7.060837
4.719559 7.027359 7.037827
4.715958 7.041977 7.044357
4.729294 7.050797 7.042801
4.703201 7.025833 7.079086
4.725845 7.012863 7.092239
4.719101 7.021164 7.066818
4.736069 7.017075 7.064590
4.746933 7.022385 7.087479
4.715195 7.043777 7.076340
4.724167 7.045761 7.088577
4.737045 7.044510 7.075668
4.702042 7.027969 7.106827
4.698318 7.031143 7.106979
4.718826 7.015640 7.096573
4.736404 7.016891 7.099594
4.714371 7.045578 7.108383
4.726395 7.013535 7.127731
4.684402 7.017532 7.173752
4.733322 7.027237 7.133743
4.694839 7.035233 7.136429
4.720200 7.041794 7.132248
4.705734 7.006210 7.169235
4.690750 7.016129 7.160690
4.726028 7.019974 7.185135
4.725327 7.016434 7.165543
4.706009 7.041672 7.183487
4.692856 7.038071 7.167496
4.684616 7.011429 7.195358
4.676376 7.025497 7.198685
4.684769 7.009781 7.229507
4.675339 7.027573 7.230911
4.710251 7.001663 7.199875
4.718185 7.025711 7.187515
4.729782 7.023666 7.212418
4.725632 7.005417 7.201797
4.727554 7.014877 7.199142
4.690811 7.040939 7.198563
4.707657 7.006546 7.239975
4.700241 7.001328 7.222672
4.690750 7.018021 7.223343
4.718857 7.026382 7.221603
4.701462 7.037155 7.229263
4.690933 7.041977 7.232071
4.710739 7.032455 7.224014
4.754562 7.024002 7.003403
4.752121 7.045975 7.022934
4.750748 7.015823 7.046494
4.750595 7.030441 7.076157
4.694168 7.029007 7.289658
4.669724 7.005386 7.273911
4.684128 7.001022 7.256668
4.674606 7.029343 7.263596
4.663589 7.011826 7.301041
4.674210 7.030807 7.296768
4.662582 7.013870 7.333694
4.682693 7.018723 7.343582
4.663681 7.014084 7.368698
4.699875 7.007553 7.336594
4.693832 7.015732 7.334244
4.646713 7.001999 7.400131
4.646408 7.003464 7.433884
4.644943 7.005875 7.466537
4.666550 7.002823 7.454117
4.650681 7.001480 7.473984
5.217178 7.024521 7.767197
5.200119 7.003952 7.259476
5.180099 7.010300 7.018539
5.066971 7.051682 7.018600
5.014114 7.013504 7.024307
5.028549 7.029831 7.024185
5.044540 7.044174 7.025894
5.016800 7.012436 7.059921
5.030411 7.029465 7.058945
5.046860 7.043411 7.061111
5.085159 7.057877 7.026352
5.093277 7.058548 7.012283
5.121445 7.055984 7.024368
5.098770 7.058670 7.010452
5.064896 7.049393 7.059006
5.067001 7.053726 7.033615
5.093613 7.059433 7.045578
5.122513 7.057175 7.057205
5.100388 7.060501 7.041763
5.111008 7.058304 7.032822
5.020798 7.010330 7.096878
5.035507 7.026443 7.096970
5.050552 7.041580 7.097824
5.069382 7.052994 7.068863
5.098465 7.056717 7.083267
5.111679 7.059067 7.066696
5.096542 7.056137 7.087051
5.079361 7.051376 7.111984
5.071915 7.052109 7.104507
5.108475 7.055435 7.110672
5.120773 7.055161 7.097458
5.101151 7.055679 7.119156
5.184525 7.000443 7.026291
5.181808 7.006943 7.006516
5.169235 7.025742 7.010544
5.174850 7.018417 7.013809
5.131638 7.053574 7.016251
5.156143 7.038925 7.008072
5.148849 7.044266 7.009201
5.140427 7.049179 7.012192
5.162491 7.032486 7.009323
5.181412 7.011856 7.050583
5.187210 7.000534 7.034622
5.170212 7.026901 7.043442
5.176163 7.019974 7.045853
5.186935 7.003281 7.055588
5.132614 7.054672 7.049240
5.149673 7.045212 7.042496
5.141434 7.050369 7.044998
5.163589 7.033768 7.041885
5.156693 7.039566 7.042068
5.183640 7.014542 7.080490
5.186813 7.003189 7.091629
5.171066 7.027939 7.076889
5.177567 7.021652 7.077896
5.132095 7.054092 7.086288
5.150345 7.045975 7.076553
5.141525 7.050461 7.080521
5.164780 7.035172 7.074570
5.158035 7.041092 7.074326
5.183853 7.014755 7.115952
5.178757 7.023087 7.110794
5.172440 7.029526 7.109421
5.150894 7.046646 7.111069
5.131699 7.053635 7.123398
5.141525 7.050430 7.116562
5.164688 7.035049 7.110794
5.158218 7.041306 7.109848
5.188065 7.004684 7.124466
5.074692 7.051010 7.140488
5.025009 7.008102 7.134232
5.037308 7.026169 7.131973
5.053665 7.040268 7.134079
5.028366 7.006516 7.170914
5.034195 7.002914 7.172775
5.039810 7.025284 7.167801
5.054916 7.040390 7.168686
5.106766 7.053482 7.151230
5.105057 7.053757 7.156235
5.095169 7.054611 7.126480
5.120224 7.054550 7.134903
5.077316 7.050095 7.176468
5.076035 7.047623 7.156509
5.093216 7.052383 7.167740
5.119949 7.054245 7.172073
5.032059 7.004654 7.208084
5.041855 7.024796 7.203323
5.057571 7.039444 7.204788
5.035110 7.003372 7.244766
5.040878 7.007156 7.229935
5.043716 7.024460 7.238815
5.059769 7.038834 7.240616
5.091476 7.050400 7.208847
5.079880 7.049179 7.212540
5.120316 7.054672 7.207901
5.106613 7.053665 7.191330
5.106522 7.053207 7.188431
5.090317 7.049088 7.248795
5.081680 7.048904 7.248032
5.120193 7.054520 7.245224
5.105759 7.052322 7.227188
5.108627 7.053238 7.226913
5.189621 7.006546 7.156693
5.185959 7.017288 7.146713
5.172897 7.030075 7.144485
5.179367 7.023788 7.145523
5.150864 7.046585 7.147507
5.141495 7.050430 7.152939
5.166122 7.036758 7.143265
5.158920 7.042130 7.144302
5.180740 7.025436 7.178452
5.186996 7.018539 7.180527
5.150986 7.046768 7.183731
5.131485 7.053391 7.160294
5.166977 7.037735 7.177658
5.159439 7.042770 7.179489
5.174545 7.032059 7.176620
5.182358 7.027359 7.211044
5.151962 7.047897 7.218094
5.132004 7.053970 7.195663
5.141434 7.050400 7.189682
5.167526 7.038345 7.213120
5.160172 7.043625 7.214432
5.175217 7.032791 7.211838
5.183273 7.028427 7.245804
5.131516 7.053421 7.233902
5.142044 7.051010 7.225174
5.168961 7.040085 7.246445
5.161392 7.045059 7.248367
5.175797 7.033524 7.247421
5.188370 7.020126 7.213821
5.191238 7.008469 7.189041
5.189621 7.021652 7.247696
5.192856 7.010422 7.221695
5.198196 7.001694 7.227280
5.193253 7.010880 7.257889
5.120712 7.055130 7.281204
5.036209 7.003647 7.279648
5.046402 7.023453 7.275284
5.061295 7.038742 7.275955
5.047684 7.023575 7.310471
5.043961 7.010056 7.285629
5.105911 7.052475 7.264023
5.109787 7.053452 7.261826
5.064224 7.034317 7.297134
5.089279 7.047928 7.288773
5.081833 7.049911 7.282028
5.106277 7.052902 7.300552
5.109329 7.054947 7.295334
5.037918 7.003403 7.315323
5.037918 7.004593 7.349380
5.053024 7.015244 7.344101
5.050552 7.022446 7.347427
5.088211 7.046738 7.329117
5.064316 7.037491 7.312912
5.068192 7.038773 7.324509
5.085251 7.048386 7.319382
5.106186 7.052872 7.338516
5.121628 7.056198 7.316544
5.110947 7.054855 7.330978
5.088028 7.046494 7.367630
5.064255 7.038712 7.346909
5.087082 7.048111 7.355331
5.107101 7.053848 7.374374
5.122055 7.056625 7.353439
5.111374 7.055679 7.365585
5.200668 7.004623 7.295547
5.184280 7.029648 7.280563
5.132462 7.054489 7.268753
5.152664 7.048691 7.253494
5.143204 7.052414 7.259293
5.177719 7.035751 7.279861
5.133499 7.055679 7.303635
5.153000 7.049057 7.290176
5.144089 7.053391 7.294632
5.169205 7.040359 7.283310
5.162552 7.046371 7.282913
5.194626 7.012527 7.291702
5.190842 7.023087 7.281937
5.185226 7.030716 7.315872
5.134262 7.056564 7.339584
5.155716 7.045578 7.326920
5.154434 7.050766 7.324112
5.144882 7.054367 7.330307
5.170517 7.041916 7.317581
5.178513 7.036728 7.315414
5.163010 7.046951 7.319443
5.135788 7.058304 7.373734
5.156174 7.052780 7.357651
5.150650 7.050705 7.356125
5.146255 7.055923 7.364853
5.180283 7.038803 7.348770
5.172318 7.043991 7.350937
5.164658 7.048843 7.353195
5.202713 7.007095 7.327835
5.196854 7.015244 7.323502
5.192703 7.025345 7.314651
5.204178 7.008865 7.361984
5.193710 7.026535 7.349991
5.197983 7.016556 7.358597
5.187637 7.033615 7.347366
5.091995 7.051010 7.395432
5.053299 7.017044 7.398819
5.040298 7.004166 7.385849
5.052353 7.022171 7.383408
5.040329 7.005020 7.420364
5.051956 7.023636 7.417374
5.064468 7.039719 7.381332
5.084427 7.051376 7.386917
5.109390 7.058426 7.397873
5.124130 7.059036 7.386276
5.109756 7.056900 7.405716
5.092911 7.052078 7.431595
5.065842 7.039780 7.417068
5.083847 7.053024 7.420731
5.109848 7.059250 7.432785
5.040451 7.006424 7.454788
5.051437 7.018051 7.452682
5.051987 7.024796 7.451889
5.040787 7.007339 7.489761
5.053421 7.024857 7.487900
5.085159 7.053146 7.456528
5.067123 7.039932 7.452805
5.094650 7.053970 7.465988
5.111252 7.058578 7.440445
5.109573 7.060623 7.467056
5.065750 7.042221 7.486038
5.085281 7.054245 7.491257
5.098221 7.058029 7.495651
5.113327 7.060959 7.473953
5.205093 7.009964 7.397995
5.147934 7.057846 7.398849
5.147629 7.054276 7.387466
5.157150 7.053879 7.393570
5.180649 7.039261 7.386124
5.173447 7.045303 7.386307
5.165543 7.049881 7.389175
5.148880 7.058945 7.435196
5.137894 7.060715 7.406723
5.125778 7.060898 7.420456
5.147385 7.055649 7.421677
5.167740 7.052475 7.422012
5.182175 7.041031 7.420792
5.174942 7.047073 7.420944
5.159378 7.056534 7.426193
5.210159 7.001297 7.404068
5.198654 7.017410 7.395187
5.195145 7.028244 7.384506
5.187668 7.033646 7.385696
5.206314 7.011490 7.433304
5.196213 7.029495 7.420334
5.200241 7.019272 7.429642
5.189133 7.035355 7.420517
5.126541 7.061783 7.457413
5.145889 7.057999 7.454697
5.138474 7.061417 7.443893
5.184372 7.043594 7.453842
5.169327 7.054306 7.456741
5.159927 7.057144 7.463821
5.176590 7.048996 7.455490
5.142105 7.062149 7.485611
5.150558 7.061081 7.469498
5.185623 7.045090 7.489761
5.170303 7.055466 7.493423
5.161697 7.059189 7.498428
5.177780 7.050430 7.491562
5.201492 7.020737 7.465347
5.211044 7.002335 7.440475
5.197830 7.031448 7.454910
5.191116 7.037735 7.454025
5.207199 7.012497 7.470078
5.211960 7.003464 7.477066
5.198959 7.032761 7.491165
5.192612 7.039505 7.489304
5.129044 7.064651 7.489914
5.140152 7.063339 7.478561
5.221329 7.014847 7.776199
5.208450 7.013992 7.506088
5.065781 7.043381 7.520798
5.040176 7.009018 7.523911
5.051712 7.027390 7.520920
5.054184 7.020798 7.508774
5.040573 7.009903 7.559158
5.050491 7.029556 7.554520
5.084274 7.056198 7.525040
5.101669 7.061935 7.525864
5.064194 7.045883 7.554031
5.082626 7.058731 7.558243
5.108322 7.062820 7.500473
5.116562 7.064621 7.504654
5.104050 7.064621 7.559158
5.106461 7.065445 7.533432
5.118179 7.066422 7.540054
5.040024 7.011520 7.593643
5.051590 7.029892 7.590683
5.052292 7.021805 7.562881
5.050797 7.031754 7.624985
5.065018 7.046432 7.589890
5.082870 7.059708 7.593521
5.063736 7.048630 7.623672
5.106308 7.067184 7.593185
5.105515 7.067398 7.567368
5.120255 7.068802 7.574387
5.105026 7.069016 7.601974
5.123032 7.071976 7.607101
5.212662 7.004318 7.514664
5.180069 7.053116 7.524979
5.172318 7.057785 7.527603
5.181717 7.055008 7.560501
5.163559 7.061325 7.533157
5.202957 7.022537 7.500687
5.200424 7.034531 7.526840
5.194046 7.041183 7.525009
5.187515 7.047318 7.524216
5.214188 7.006180 7.550186
5.204422 7.024277 7.536362
5.210098 7.016006 7.541275
5.202194 7.036606 7.561935
5.195999 7.043533 7.559555
5.189285 7.049393 7.559311
5.131149 7.067032 7.523788
5.141312 7.063980 7.519577
5.151993 7.062729 7.504990
5.142746 7.066330 7.511032
5.138412 7.067459 7.551590
5.153580 7.064560 7.540512
5.133102 7.069260 7.558365
5.143967 7.067703 7.547592
5.174149 7.059921 7.562637
5.182968 7.056503 7.597305
5.174728 7.060593 7.601456
5.214981 7.007095 7.588211
5.217514 7.016464 7.568314
5.211380 7.017563 7.577774
5.205978 7.026169 7.572067
5.215500 7.021011 7.609573
5.206680 7.026993 7.610550
5.211624 7.017838 7.617661
5.197006 7.044693 7.597122
5.200516 7.034653 7.607071
5.190628 7.050980 7.595901
5.136703 7.069992 7.584824
5.135483 7.072159 7.591843
5.155991 7.067337 7.573959
5.146469 7.070572 7.580887
5.165634 7.063736 7.567459
5.135513 7.072128 7.618759
5.147812 7.072098 7.617722
5.157669 7.069260 7.609787
5.167038 7.065384 7.604019
5.081467 7.062057 7.627213
5.040298 7.012497 7.629074
5.054337 7.026016 7.674088
5.040817 7.013321 7.664902
5.051743 7.032211 7.661240
5.084671 7.057266 7.632553
5.063522 7.050034 7.658737
5.088547 7.061661 7.662643
5.124680 7.073837 7.643143
5.108841 7.070023 7.626785
5.103409 7.071518 7.635483
5.082077 7.062759 7.663162
5.104294 7.071976 7.671768
5.110794 7.072220 7.662186
5.042587 7.013107 7.702194
5.052322 7.032944 7.697281
5.044724 7.012619 7.740005
5.058578 7.029373 7.731400
5.051682 7.034683 7.732132
5.064285 7.050613 7.694901
5.064468 7.051682 7.730698
5.089890 7.063187 7.699905
5.081772 7.064224 7.698227
5.103867 7.073563 7.706741
5.112350 7.074020 7.699020
5.090286 7.063644 7.740189
5.083389 7.064133 7.735519
5.104874 7.073959 7.743423
5.112869 7.074600 7.739029
5.208145 7.028732 7.647232
5.184372 7.058151 7.634140
5.185379 7.059311 7.672379
5.213211 7.019760 7.653885
5.215591 7.007889 7.626968
5.198380 7.046341 7.633987
5.204391 7.039261 7.636765
5.191666 7.052231 7.633713
5.217178 7.021713 7.683884
5.217239 7.009842 7.663223
5.209305 7.030136 7.685043
5.205643 7.040726 7.674423
5.199905 7.048141 7.670731
5.192886 7.053665 7.671341
5.135178 7.073593 7.653732
5.149734 7.074356 7.653152
5.137344 7.074326 7.627274
5.167984 7.066452 7.642166
5.176498 7.062668 7.637192
5.158463 7.070206 7.648392
5.126663 7.076065 7.678787
5.138657 7.075790 7.664566
5.170181 7.069046 7.677078
5.160873 7.072952 7.682816
5.178177 7.064590 7.673630
5.186417 7.060562 7.710861
5.218094 7.010880 7.702042
5.214127 7.020859 7.692551
5.204849 7.039780 7.718185
5.201431 7.049973 7.707779
5.194534 7.055588 7.708145
5.210098 7.031113 7.724228
5.215652 7.022720 7.729630
5.219986 7.013168 7.738174
5.219559 7.019760 7.718887
5.202286 7.050949 7.747147
5.195297 7.056503 7.747696
5.127853 7.077438 7.716782
5.133957 7.075790 7.687881
5.150833 7.075607 7.691330
5.140640 7.078049 7.700333
5.171524 7.070572 7.714767
5.179764 7.066452 7.710617
5.141373 7.078903 7.739883
5.152084 7.077011 7.729416
5.132462 7.078171 7.721878
5.161728 7.073990 7.721909
5.188187 7.062576 7.747665
5.222366 7.001266 7.752426
5.065903 7.051773 7.767868
5.045090 7.013535 7.776138
5.053482 7.034439 7.769791
5.045425 7.014481 7.812393
5.054031 7.035233 7.806229
5.065781 7.053116 7.803574
5.083359 7.065414 7.771194
5.091446 7.064926 7.778763
5.103806 7.076065 7.778061
5.113937 7.075760 7.778030
5.084122 7.066025 7.807877
5.048782 7.013016 7.852005
5.056503 7.034470 7.844833
5.068924 7.051804 7.842941
5.092026 7.065598 7.819260
5.106583 7.075058 7.816940
5.113113 7.074844 7.822617
5.085098 7.066483 7.844955
5.113602 7.075394 7.863907
5.106674 7.076248 7.853043
5.222000 7.017746 7.753952
5.206070 7.041245 7.756516
5.211746 7.033035 7.761429
5.218735 7.026413 7.804947
5.225449 7.014297 7.787552
