-1.103897 2.747604 12.729263
-1.045181 2.696091 12.735855
-1.002884 2.939804 12.688217
-1.111099 2.768295 12.606339
-1.075455 2.868881 12.615555
-1.026505 2.935562 12.573135
-1.071915 2.883347 12.525497
-1.049545 2.930038 12.538956
-1.094254 2.826645 12.742447
-1.087967 2.841293 12.659012
-1.086136 2.852646 12.680679
-1.094894 2.815598 12.725296
-1.076584 2.866470 12.731949
-1.030258 2.931931 12.663589
-1.000443 2.650742 12.967850
-1.049942 2.669022 12.816971
-1.068619 2.684708 12.771286
-1.015182 2.649124 12.787186
-1.060806 2.676620 12.788467
-1.004349 2.677383 12.796677
-1.074631 2.693497 12.761307
-1.055984 2.711227 12.775772
-1.046768 2.658890 12.815628
-1.028366 2.653488 12.873459
-1.029648 2.688248 12.813400
-1.056168 2.719223 12.858231
-1.048019 2.677841 12.963394
-1.058090 2.685410 12.937393
-1.080490 2.710617 12.890793
-1.084030 2.720230 12.890854
-1.087723 2.729752 12.890335
-1.089951 2.739639 12.895554
-1.065933 2.693710 12.920364
-1.072708 2.702377 12.907516
-1.029709 2.694321 12.893448
-1.037521 2.670090 12.990738
-1.034958 2.659744 12.986771
-1.056381 2.728317 12.942734
-1.053360 2.883743 12.961166
-1.094681 2.802963 12.835495
-1.103867 2.789505 12.785416
-1.088028 2.839249 12.781021
-1.079788 2.852737 12.827774
-1.092270 2.814377 12.859421
-1.073563 2.865463 12.866623
-1.053940 2.885574 12.834793
-1.033951 2.928299 12.754959
-1.002487 2.940170 12.767593
-1.039383 2.923019 12.852707
-1.001389 2.941238 12.845566
-1.095596 2.800461 12.957779
-1.099564 2.767563 12.899124
-1.099625 2.778091 12.913223
-1.103073 2.787613 12.914047
-1.090073 2.825882 12.882858
-1.087387 2.837357 12.908005
-1.092484 2.812149 12.984818
-1.077591 2.851395 12.961288
-1.039993 2.922348 12.936752
-1.001968 2.940628 12.929733
-0.871109 2.700272 12.212234
-0.838638 2.740005 12.194382
-0.860275 2.731216 12.205582
-0.999283 2.655807 12.075699
-0.979904 2.651291 12.006424
-0.954819 2.659439 12.015793
-0.954788 2.658524 12.021164
-0.990646 2.654099 12.055954
-0.955704 2.650894 12.042648
-0.984573 2.657181 12.059250
-0.971237 2.662399 12.060440
-0.977097 2.657425 12.049149
-0.963333 2.661514 12.045517
-0.903671 2.654007 12.006271
-0.907242 2.674454 12.018448
-0.934616 2.658585 12.008163
-0.913437 2.669785 12.008224
-0.878952 2.666611 12.021805
-0.894455 2.680679 12.026169
-0.900436 2.676712 12.018265
-0.929764 2.668289 12.038040
-0.881149 2.709366 12.021774
-0.900650 2.691147 12.004684
-0.883835 2.692398 12.059341
-0.875381 2.711502 12.036789
-0.890244 2.689102 12.054581
-0.979782 2.652512 12.074142
-0.954636 2.658676 12.080948
-0.929001 2.660294 12.081833
-0.932114 2.667282 12.102158
-0.903610 2.670731 12.094498
-0.899521 2.689957 12.064255
-0.877640 2.696671 12.068466
-0.871414 2.701218 12.078720
-0.849930 2.727554 12.022232
-0.861649 2.734756 12.022629
-0.855850 2.722397 12.008865
-0.870132 2.721237 12.060928
-0.845261 2.736771 12.053391
-0.829788 2.737686 12.047134
-0.865311 2.705246 12.087051
-0.863022 2.733719 12.085556
-0.860397 2.713028 12.112259
-0.874557 2.710312 12.097092
-0.854172 2.717148 12.121017
-0.866196 2.725540 12.122025
-0.841354 2.748856 12.097153
-0.984726 2.657608 12.198715
-0.987534 2.638290 12.150070
-0.982620 2.645401 12.162521
-0.942276 2.665756 12.169571
-0.949020 2.662979 12.167892
-0.893448 2.677658 12.149643
-0.920425 2.668839 12.151077
-0.913773 2.670792 12.149704
-0.906540 2.672409 12.146286
-0.899582 2.674210 12.143967
-0.932999 2.666183 12.164902
-0.935593 2.668686 12.171829
-0.927414 2.667923 12.157120
-0.889450 2.686722 12.181259
-0.900284 2.688858 12.126633
-0.898575 2.687607 12.186264
-0.882767 2.689194 12.182419
-0.992722 2.659653 12.218979
-0.876755 2.693985 12.193924
-0.859421 2.710037 12.236923
-0.869766 2.732986 12.155685
-0.848770 2.723831 12.141342
-0.874863 2.709152 12.159103
-0.862503 2.729660 12.184280
-0.843826 2.732132 12.168869
-0.833511 2.736984 12.169083
-0.865463 2.705704 12.227005
-0.873428 2.707932 12.219315
-0.858627 2.733871 12.246811
-0.860428 2.900772 12.218246
-0.856857 2.755905 12.080734
-0.838699 2.764633 12.022995
-0.855820 2.757004 12.018265
-0.854019 2.780991 12.019119
-0.852707 2.805618 12.020828
-0.848709 2.781784 12.011795
-0.851517 2.759872 12.049057
-0.844986 2.804703 12.044785
-0.836166 2.807968 12.059341
-0.846085 2.822250 12.019760
-0.853348 2.829788 12.024979
-0.849808 2.836777 12.003036
-0.843643 2.861374 12.030045
-0.860397 2.853867 12.037125
-0.852707 2.779770 12.078659
-0.848495 2.782120 12.084183
-0.848068 2.804153 12.076157
-0.836136 2.782028 12.089218
-0.848404 2.763290 12.112808
-0.843491 2.806351 12.113724
-0.845261 2.823227 12.090500
-0.847672 2.839096 12.069809
-0.842514 2.854416 12.117172
-0.818344 2.851334 12.117783
-0.883102 2.914810 12.080948
-0.877029 2.902451 12.016830
-0.876602 2.902267 12.003128
-0.885056 2.912766 12.013229
-0.902695 2.930893 12.012131
-0.893265 2.921982 12.011520
-0.985489 2.956985 12.023758
-0.969986 2.954330 12.004440
-0.950882 2.955276 12.047806
-0.938095 2.949203 12.037674
-0.925003 2.944168 12.025589
-0.910904 2.940079 12.010696
-0.891525 2.923782 12.079971
-0.896652 2.936966 12.067764
-0.967178 2.957077 12.069595
-0.983994 2.958389 12.092972
-0.947647 2.958481 12.112167
-0.920151 2.948959 12.084946
-0.909927 2.941086 12.081436
-0.934097 2.953171 12.099686
-0.858475 2.884109 12.091080
-0.860245 2.882248 12.022690
-0.867386 2.893509 12.016190
-0.868271 2.878067 12.050369
-0.874191 2.905350 12.082047
-0.864670 2.896347 12.081589
-0.874863 2.877426 12.120010
-0.871140 2.899551 12.118607
-0.852524 2.753372 12.198654
-0.837204 2.759811 12.136185
-0.855148 2.754654 12.140091
-0.850388 2.778458 12.137253
-0.846237 2.802872 12.135361
-0.832108 2.794357 12.133560
-0.842117 2.788986 12.138382
-0.844589 2.767441 12.175003
-0.833054 2.771774 12.179276
-0.822983 2.767380 12.184555
-0.840103 2.809952 12.177628
-0.810623 2.797714 12.134811
-0.847214 2.839645 12.142380
-0.856461 2.851273 12.154984
-0.844467 2.824112 12.162216
-0.836044 2.832626 12.156387
-0.852676 2.871292 12.176651
-0.814133 2.845688 12.174210
-0.846054 2.777023 12.193619
-0.840103 2.791214 12.206528
-0.829849 2.811569 12.199661
-0.835434 2.753952 12.247147
-0.821487 2.764389 12.245377
-0.842606 2.769852 12.243210
-0.829544 2.785782 12.231522
-0.808456 2.794052 12.194351
-0.847336 2.825912 12.202011
-0.851456 2.849716 12.210587
-0.835587 2.814804 12.238632
-0.840073 2.828812 12.223495
-0.849319 2.874802 12.241623
-0.855179 2.873550 12.218765
-0.834549 2.854233 12.239975
-0.805984 2.836166 12.224991
-0.876205 2.921829 12.209610
-0.878860 2.919113 12.142593
-0.889023 2.925247 12.144821
-0.883926 2.931473 12.131393
-0.961624 2.962509 12.127274
-0.977066 2.965164 12.146713
-0.994736 2.966599 12.171402
-0.956100 2.967911 12.185593
-0.942184 2.963852 12.170486
-0.903763 2.947281 12.137253
-0.917862 2.951248 12.152634
-0.927933 2.959244 12.155777
-0.893814 2.939835 12.133560
-0.919693 2.951248 12.187149
-0.884201 2.931198 12.207352
-0.886734 2.923874 12.203781
-0.971664 2.970383 12.205612
-0.939041 2.966965 12.236343
-0.903183 2.947861 12.210709
-0.890915 2.942764 12.199844
-0.916733 2.949814 12.245468
-0.924820 2.962326 12.221634
-0.915115 2.953995 12.219498
-0.869339 2.910416 12.216782
-0.862656 2.898422 12.149918
-0.871628 2.908005 12.148666
-0.868179 2.898148 12.176559
-0.860336 2.875107 12.163284
-0.856705 2.886002 12.160080
-0.834427 2.911362 12.175491
-0.843033 2.883255 12.230453
-0.856644 2.886124 12.235092
-0.865585 2.896805 12.235367
-0.827347 2.902878 12.227921
-0.947800 2.661148 12.497940
-0.953415 2.643936 12.330215
-0.942093 2.665298 12.307632
-0.979599 2.662491 12.288589
-0.954117 2.659775 12.283554
-0.915848 2.687454 12.270401
-0.928726 2.669662 12.295609
-0.879929 2.707138 12.290024
-0.978409 2.633255 12.317093
-0.956741 2.664017 12.323715
-0.949417 2.664139 12.313461
-0.994797 2.642349 12.361923
-0.972458 2.665817 12.354324
-0.965256 2.666855 12.347977
-0.902878 2.672195 12.365860
-0.928329 2.663071 12.354721
-0.884323 2.730392 12.361618
-0.845627 2.738022 12.334122
-0.854599 2.698044 12.262741
-0.854721 2.718857 12.267044
-0.871872 2.730789 12.282822
-0.849472 2.726089 12.289993
-0.921677 2.684250 12.467148
-0.953659 2.656845 12.416031
-0.979050 2.656479 12.416885
-0.928177 2.664932 12.425705
-0.892441 2.705551 12.432266
-0.887009 2.704056 12.488968
-0.878067 2.727646 12.480453
-0.873978 2.905777 12.461655
-0.828232 2.769302 12.318771
-0.856186 2.752426 12.265671
-0.846756 2.775894 12.256821
-0.839584 2.791824 12.280106
-0.841476 2.800217 12.253433
-0.807693 2.791763 12.256241
-0.827957 2.831711 12.277847
-0.845657 2.824600 12.262161
-0.849014 2.848404 12.269821
-0.844925 2.860245 12.257584
-0.851761 2.872147 12.276810
-0.840225 2.828720 12.299606
-0.805099 2.833725 12.286850
-0.858597 2.751419 12.331467
-0.856552 2.775406 12.332108
-0.846207 2.799362 12.322128
-0.841965 2.808182 12.334152
-0.814804 2.797043 12.330307
-0.854599 2.757187 12.355911
-0.847641 2.823593 12.327408
-0.850174 2.847305 12.334061
-0.849625 2.874557 12.318649
-0.855026 2.871231 12.343735
-0.844559 2.860672 12.332718
-0.842789 2.844711 12.354935
-0.811569 2.838455 12.360123
-0.883163 2.921249 12.324051
-0.887100 2.922775 12.266464
-0.879501 2.918503 12.295639
-0.887497 2.927933 12.293289
-0.958694 2.965317 12.268906
-0.998703 2.962753 12.258194
-0.894058 2.939651 12.285324
-0.918350 2.950760 12.305374
-0.919418 2.948898 12.311325
-0.907028 2.944016 12.298386
-0.897690 2.935989 12.373367
-0.983261 2.959061 12.315933
-0.953018 2.953171 12.354904
-0.934036 2.953201 12.325790
-0.824814 2.897232 12.350845
-0.827621 2.901596 12.291519
-0.854691 2.888168 12.305099
-0.863510 2.895432 12.295181
-0.861862 2.899368 12.298569
-0.870132 2.909622 12.295212
-0.867477 2.894577 12.363174
-0.870438 2.909378 12.372879
-0.829208 2.767105 12.448074
-0.841995 2.751083 12.383224
-0.857895 2.774307 12.396957
-0.830490 2.769913 12.385941
-0.847824 2.783249 12.381729
-0.816055 2.796707 12.395981
-0.837784 2.787521 12.386765
-0.855453 2.756424 12.434982
-0.838638 2.764542 12.434464
-0.848190 2.801743 12.430313
-0.864059 2.799454 12.408340
-0.833969 2.825668 12.397781
-0.849350 2.822525 12.392746
-0.842453 2.826462 12.383011
-0.850388 2.846146 12.397507
-0.851578 2.872635 12.401596
-0.854507 2.869980 12.406296
-0.845322 2.859970 12.412094
-0.812363 2.837631 12.425247
-0.850937 2.779984 12.468613
-0.853775 2.797531 12.458603
-0.815475 2.794540 12.459183
-0.843521 2.806747 12.493179
-0.837112 2.811234 12.482651
-0.841934 2.827103 12.458603
-0.849960 2.821365 12.457077
-0.844650 2.842850 12.437973
-0.849594 2.844894 12.460037
-0.812912 2.836563 12.490341
-0.844650 2.860733 12.487808
-0.852615 2.871567 12.482773
-0.855606 2.868881 12.471359
-0.892410 2.919662 12.462509
-0.886826 2.920395 12.391830
-0.881912 2.916122 12.379898
-0.892471 2.922897 12.385513
-0.973495 2.950790 12.390030
-0.943344 2.943985 12.431198
-0.910355 2.940689 12.385513
-0.926376 2.942795 12.406876
-0.893753 2.921616 12.467331
-0.882645 2.915390 12.459946
-0.899857 2.933853 12.457657
-0.959335 2.946915 12.451492
-0.998306 2.944351 12.438034
-0.978470 2.945938 12.482651
-0.928696 2.940475 12.491959
-0.912613 2.938461 12.470200
-0.863907 2.897354 12.459488
-0.858414 2.884415 12.393509
-0.864029 2.897171 12.382156
-0.867355 2.893356 12.426315
-0.831039 2.901718 12.424057
-0.824295 2.893539 12.478073
-0.870255 2.892410 12.493759
-0.857986 2.884872 12.470016
-0.861069 2.715347 12.694168
-0.855423 2.721298 12.711838
-0.980087 2.661728 12.603928
-0.983841 2.643051 12.518387
-0.926529 2.683334 12.537430
-0.888779 2.702927 12.555435
-0.902420 2.677841 12.580551
-0.877853 2.687180 12.592270
-0.909561 2.681351 12.617599
-0.926224 2.682114 12.601395
-0.902969 2.684372 12.620956
-0.859451 2.746719 12.587692
-0.990891 2.647141 12.743668
-0.979263 2.678543 12.655380
-0.993423 2.661270 12.686050
-0.940079 2.681625 12.663101
-0.927780 2.670639 12.641800
-0.931564 2.679977 12.643600
-0.917587 2.682053 12.632065
-0.925186 2.682755 12.646011
-0.925919 2.680893 12.665817
-0.877640 2.687180 12.662277
-0.885696 2.698288 12.655563
-0.878860 2.700638 12.656052
-0.897720 2.690628 12.639999
-0.894394 2.702072 12.627365
-0.889267 2.700577 12.685654
-0.892563 2.696304 12.656754
-0.876266 2.723923 12.671646
-0.927322 2.661484 12.699539
-0.931015 2.679977 12.737747
-0.901962 2.676468 12.719040
-0.877396 2.686386 12.731735
-0.876907 2.722733 12.737839
-0.848801 2.724167 12.715225
-0.854141 2.724869 12.642929
-0.857742 2.745377 12.650223
-0.853470 2.702896 12.682999
-0.873001 2.706253 12.671677
-0.866684 2.709732 12.677902
-0.870926 2.721298 12.669449
-0.858566 2.744247 12.716537
-0.843918 2.732651 12.744888
-0.866074 2.726578 12.733444
-0.827530 2.730820 12.720474
-0.857193 2.885849 12.705917
-0.856918 2.770645 12.587631
-0.851852 2.771530 12.516647
-0.851822 2.760391 12.500778
-0.837753 2.787521 12.528061
-0.816635 2.794052 12.525406
-0.848831 2.782303 12.539749
-0.839249 2.811356 12.557877
-0.832687 2.821365 12.518661
-0.838303 2.830978 12.525284
-0.834885 2.855453 12.519119
-0.843399 2.844254 12.512009
-0.849564 2.874802 12.551712
-0.807755 2.829941 12.547043
-0.851456 2.760880 12.577682
-0.857742 2.795395 12.592178
-0.814682 2.790543 12.587204
-0.847092 2.784317 12.612808
-0.835068 2.804398 12.594284
-0.839706 2.818253 12.571976
-0.829239 2.836197 12.575119
-0.849960 2.866043 12.592392
-0.845993 2.859421 12.570694
-0.838760 2.849167 12.576065
-0.839035 2.830307 12.606613
-0.805099 2.825729 12.607834
-0.886826 2.916794 12.583359
-0.889603 2.918228 12.522751
-0.875046 2.904739 12.543533
-0.914658 2.936417 12.555283
-0.903671 2.930038 12.548203
-0.883896 2.914139 12.542435
-0.893326 2.922104 12.544540
-0.957657 2.948563 12.524612
-0.998306 2.944321 12.515884
-0.945114 2.942245 12.514755
-0.942886 2.947311 12.531540
-0.902756 2.930954 12.624832
-0.943741 2.943588 12.589493
-0.996445 2.946121 12.588913
-0.979233 2.945175 12.563431
-0.957260 2.947342 12.614517
-0.956894 2.949295 12.601334
-0.928421 2.940750 12.570053
-0.815384 2.881577 12.593765
-0.818558 2.886276 12.533768
-0.862045 2.890579 12.547195
-0.857254 2.885696 12.546249
-0.863235 2.898087 12.535873
-0.862930 2.889450 12.612839
-0.874588 2.905197 12.621628
-0.864700 2.896622 12.619888
-0.844589 2.768387 12.714279
-0.847458 2.765213 12.643845
-0.853897 2.769241 12.648453
-0.850388 2.793686 12.647324
-0.841721 2.790085 12.675064
-0.812119 2.786453 12.648392
-0.843185 2.817307 12.641251
-0.843124 2.840775 12.644608
-0.836075 2.814774 12.626938
-0.849533 2.874924 12.631119
-0.838089 2.849930 12.653580
-0.843216 2.862381 12.641434
-0.835403 2.834213 12.674667
-0.801834 2.820938 12.668015
-0.848892 2.767685 12.707016
-0.848709 2.792374 12.710281
-0.806717 2.779587 12.705460
-0.842728 2.839523 12.709335
-0.839035 2.815750 12.700912
-0.833725 2.817368 12.699203
-0.846786 2.863388 12.718246
-0.841232 2.864487 12.715530
-0.833420 2.836380 12.748978
-0.837112 2.851028 12.730972
-0.808548 2.871658 12.713791
-0.805374 2.822739 12.739090
-0.894058 2.921402 12.706741
-0.886917 2.915604 12.648209
-0.914230 2.936874 12.633469
-0.894302 2.921127 12.627121
-0.885941 2.912094 12.628372
-0.977554 2.946762 12.637589
-0.947769 2.939590 12.681961
-0.948837 2.945419 12.668259
-0.929367 2.939804 12.652634
-0.886612 2.914322 12.712875
-0.882980 2.915146 12.699356
-0.901382 2.932327 12.700912
-0.961838 2.944412 12.696548
-0.978867 2.945480 12.721909
-0.942093 2.945236 12.744888
-0.935135 2.943039 12.715347
-0.912735 2.938339 12.709305
-0.928421 2.940781 12.730301
-0.848923 2.875565 12.709610
-0.813553 2.878189 12.656082
-0.857681 2.885300 12.627121
-0.849899 2.887192 12.660538
-0.874771 2.905075 12.702560
-0.862564 2.898849 12.693497
-0.853683 2.715836 12.991531
-0.967697 2.673721 12.821915
-0.952744 2.657639 12.766281
-0.960251 2.673904 12.811264
-0.945633 2.675400 12.795456
-0.938583 2.677383 12.793411
-0.952835 2.673843 12.799728
-0.895676 2.684494 12.761093
-0.923813 2.678879 12.777878
-0.916946 2.680222 12.773575
-0.909714 2.681900 12.770157
-0.934250 2.678940 12.807755
-0.930832 2.677902 12.784134
-0.901657 2.671768 12.783432
-0.877060 2.680649 12.794754
-0.889359 2.699326 12.751236
-0.878860 2.700699 12.806747
-0.904495 2.689011 12.793015
-0.891525 2.693161 12.792313
-0.884842 2.695724 12.793869
-0.876419 2.721481 12.802994
-0.982712 2.672897 12.841660
-0.975998 2.675644 12.842819
-0.934311 2.677719 12.874008
-0.900650 2.698776 12.832138
-0.875626 2.720200 12.868149
-0.853867 2.716354 12.839737
-0.838547 2.739914 12.768784
-0.857712 2.742935 12.781113
-0.872147 2.703659 12.810196
-0.858871 2.734390 12.790512
-0.832687 2.745102 12.783340
-0.859604 2.710739 12.823318
-0.865829 2.707047 12.816025
-0.849747 2.744278 12.841904
-0.853561 2.741440 12.841660
-0.847824 2.721054 12.851700
-0.841843 2.725967 12.864883
-0.953842 2.676651 12.967300
-0.976364 2.648636 12.921432
-0.937759 2.675034 12.935867
-0.902298 2.682480 12.915359
-0.929855 2.675095 12.924179
-0.923111 2.676834 12.921616
-0.916275 2.678360 12.918076
-0.908920 2.679581 12.912613
-0.895248 2.683243 12.908554
-0.890396 2.696945 12.884781
-0.945602 2.675339 12.949051
-0.968979 2.677353 12.993698
-0.960648 2.675095 12.971024
-0.935715 2.676529 12.942490
-0.896042 2.696030 12.959091
-0.879013 2.701157 12.963028
-0.891586 2.693405 12.947311
-0.885513 2.697769 12.957443
-0.878586 2.719131 12.938828
-0.859665 2.711014 12.978714
-0.836563 2.733139 12.888809
-0.851944 2.740097 12.905991
-0.845139 2.749313 12.908463
-0.831345 2.740677 12.914505
-0.872452 2.704666 12.968979
-0.865952 2.707504 12.972275
-0.847214 2.719131 12.997147
-0.851212 2.738785 12.971970
-0.844803 2.880051 12.942642
-0.849716 2.765274 12.839828
-0.850388 2.766556 12.774673
-0.841812 2.790085 12.755600
-0.844131 2.768997 12.793198
-0.854721 2.791519 12.783920
-0.805588 2.776871 12.769547
-0.843277 2.814835 12.772141
-0.840225 2.838120 12.771622
-0.841507 2.861710 12.776901
-0.834763 2.816360 12.783401
-0.834518 2.853775 12.803970
-0.840469 2.865372 12.794357
-0.805954 2.867447 12.775528
-0.804581 2.820328 12.803787
-0.837570 2.794632 12.823013
-0.841080 2.772354 12.864670
-0.830429 2.763260 12.857895
-0.851089 2.790085 12.845200
-0.826218 2.799545 12.856216
-0.800278 2.770096 12.827377
-0.841324 2.813492 12.835648
-0.836777 2.836655 12.833023
-0.833481 2.836380 12.830673
-0.840012 2.860367 12.840927
-0.831528 2.819839 12.854599
-0.836960 2.869064 12.865097
-0.802414 2.819839 12.842270
-0.802170 2.862106 12.835709
-0.802109 2.816269 12.866196
-0.892136 2.923416 12.864090
-0.881271 2.916916 12.775131
-0.899734 2.934036 12.776993
-0.894516 2.920975 12.789474
-0.958084 2.948105 12.765762
-0.981522 2.942886 12.811264
-0.927200 2.941147 12.770340
-0.926682 2.942490 12.806290
-0.913467 2.937637 12.792953
-0.880661 2.917587 12.855179
-0.899368 2.934433 12.857956
-0.956345 2.949844 12.841995
-0.943924 2.943405 12.832321
-0.923538 2.939590 12.831284
-0.912613 2.938522 12.872513
-0.845840 2.878922 12.862991
-0.862320 2.899155 12.773849
-0.872574 2.907333 12.776779
-0.855667 2.887466 12.782272
-0.846481 2.878189 12.782944
-0.842453 2.884140 12.781601
-0.847153 2.883286 12.853989
-0.862137 2.899399 12.855362
-0.852036 2.891281 12.852554
-0.869492 2.910538 12.848953
-0.841293 2.762222 12.961899
-0.825424 2.772141 12.889389
-0.845840 2.763779 12.901169
-0.835831 2.796585 12.899277
-0.839188 2.788010 12.895676
-0.840958 2.812210 12.901627
-0.833542 2.780472 12.922165
-0.821274 2.782822 12.929764
-0.799026 2.811630 12.927994
-0.829819 2.840347 12.900986
-0.838181 2.835495 12.901382
-0.837814 2.858963 12.904495
-0.833054 2.855423 12.881271
-0.831497 2.819992 12.937027
-0.822952 2.814835 12.916794
-0.800613 2.858932 12.899673
-0.827347 2.753036 12.962631
-0.840195 2.786819 12.963974
-0.826645 2.806442 12.951859
-0.833939 2.810440 12.959061
-0.842575 2.752182 12.982559
-0.828171 2.786301 12.987442
-0.816849 2.794083 12.972336
-0.790421 2.801620 12.981369
-0.819016 2.827805 12.966751
-0.832352 2.856247 12.962173
-0.838028 2.868057 12.951614
-0.829544 2.840683 12.983444
-0.839188 2.834305 12.969681
-0.838150 2.857712 12.971909
-0.799759 2.856430 12.965164
-0.889908 2.925674 12.940079
-0.878799 2.919479 12.932297
-0.897598 2.936264 12.935257
-0.939133 2.948166 12.899643
-0.980148 2.944168 12.889084
-0.957321 2.948837 12.927811
-0.924820 2.944351 12.882736
-0.895309 2.933456 12.993301
-0.976974 2.947281 12.962051
-0.940506 2.946793 12.987381
-0.923111 2.946091 12.960526
-0.910233 2.940872 12.948135
-0.865128 2.907608 12.948715
-0.869186 2.909225 12.887466
-0.851242 2.892166 12.932938
-0.846115 2.881943 12.919205
-0.859146 2.902512 12.928635
-0.868607 2.911453 12.929092
-0.848434 2.880875 12.989395
-1.011429 2.653244 13.194138
-1.053970 2.681778 13.211868
-1.042648 2.674515 13.243332
-1.002121 2.685043 13.078812
-1.012711 2.655350 13.060104
-1.074997 2.709915 13.039993
-1.084305 2.728500 13.031326
-1.080460 2.718979 13.032486
-1.086014 2.738541 13.038681
-1.056564 2.735977 13.025925
-1.051712 2.684830 13.090317
-1.039749 2.677750 13.123947
-1.065048 2.702255 13.065323
-1.058151 2.693527 13.078598
-1.032425 2.703812 13.207626
-1.028915 2.670059 13.152878
-1.021164 2.661087 13.169113
-1.068283 2.698959 13.182846
-1.073471 2.707993 13.176132
-1.079330 2.716965 13.167007
-1.084488 2.726120 13.160690
-1.092087 2.744431 13.158188
-1.088699 2.735428 13.158157
-1.013687 2.694321 13.136917
-1.023727 2.701157 13.182236
-1.060379 2.690536 13.200150
-1.041641 2.707260 13.237534
-1.031723 2.930283 13.247818
-1.092484 2.809952 13.113419
-1.096786 2.776779 13.052200
-1.095474 2.766586 13.043015
-1.098251 2.786942 13.061050
-1.087204 2.824692 13.020645
-1.068741 2.865036 13.010880
-1.084518 2.836166 13.046127
-1.091446 2.799606 13.102676
-1.075638 2.849899 13.096451
-1.053116 2.881760 13.088303
-1.042099 2.920303 13.026230
-1.003860 2.938736 13.019028
-1.005203 2.937424 13.107559
-1.045242 2.917191 13.120163
-1.092697 2.775803 13.199020
-1.089584 2.821609 13.139969
-1.068710 2.862900 13.138901
-1.086929 2.833206 13.165634
-1.098282 2.784653 13.191299
-1.091537 2.797348 13.233139
-1.083572 2.845078 13.194321
-1.077377 2.857834 13.234543
-1.003799 2.938766 13.188309
-1.063339 2.876144 13.176468
-1.032791 2.899399 13.183273
-1.033524 2.928574 13.167801
-1.017868 2.668137 13.461685
-1.004074 2.652756 13.354874
-1.028488 2.656601 13.271591
-1.033249 2.666428 13.266830
-1.079758 2.714432 13.297714
-1.073959 2.705429 13.306686
-1.085037 2.734146 13.305252
-1.085068 2.723557 13.290817
-1.088211 2.743271 13.306290
-1.066910 2.696915 13.320908
-1.052872 2.690231 13.363113
-1.012161 2.658524 13.470230
-1.042404 2.682571 13.391190
-1.030594 2.675369 13.424698
-1.079514 2.733414 13.463058
-1.075302 2.724045 13.465561
-1.081894 2.742783 13.467209
-1.068802 2.715225 13.477219
-1.060898 2.706772 13.494919
-1.028183 2.896683 13.463425
-1.088242 2.753738 13.320572
-1.086258 2.809738 13.269424
-1.086685 2.820297 13.282852
-1.079056 2.833572 13.328995
-1.071793 2.846786 13.373825
-1.058609 2.875595 13.325943
-1.045395 2.892960 13.262924
-1.027634 2.934189 13.321365
-1.086685 2.762344 13.477005
-1.078903 2.809830 13.433121
-1.081009 2.798416 13.409225
-1.068375 2.858658 13.403122
-1.084946 2.752335 13.469406
-1.076889 2.821243 13.456619
-1.070450 2.834152 13.498520
-1.006638 2.935928 13.459274
-1.051498 2.875839 13.488022
-1.029007 2.670731 13.706497
-1.012558 2.653244 13.744675
-1.024704 2.674484 13.584824
-1.034744 2.682205 13.558060
-1.052414 2.698624 13.515091
-1.043106 2.690506 13.538315
-1.014542 2.666489 13.611771
-1.027145 2.674881 13.609665
-1.066788 2.713333 13.623795
-1.075272 2.732224 13.618454
-1.084885 2.749954 13.607834
-1.073349 2.722153 13.611588
-1.078964 2.741226 13.617386
-1.003281 2.697708 13.564835
-1.029221 2.722458 13.602859
-1.030869 2.720078 13.601151
-1.020493 2.662247 13.726944
-1.007156 2.657303 13.627060
-1.037216 2.678940 13.686874
-1.007217 2.698868 13.636795
-1.051895 2.696213 13.655594
-1.060623 2.704330 13.634232
-1.043869 2.687729 13.673996
-1.017319 2.704117 13.676895
-1.042618 2.730576 13.666458
-1.068771 2.699448 13.741440
-1.072708 2.709061 13.740036
-1.078354 2.718155 13.731674
-1.085159 2.747391 13.747421
-1.081558 2.727829 13.733231
-1.084518 2.737076 13.735153
-1.026291 2.708054 13.709274
-1.052750 2.736221 13.708115
-1.037827 2.888931 13.695694
-1.077225 2.808029 13.576492
-1.082779 2.774246 13.508041
-1.084915 2.784256 13.514542
-1.078384 2.796890 13.556259
-1.069107 2.845444 13.519577
-1.087021 2.759811 13.613785
-1.077133 2.818832 13.592545
-1.073410 2.830887 13.623520
-1.053482 2.872910 13.615952
-1.033859 2.892563 13.574997
-1.005325 2.937180 13.544388
-1.078445 2.794479 13.695236
-1.087173 2.781143 13.643814
-1.087296 2.770432 13.627975
-1.071823 2.842270 13.646042
-1.065750 2.855026 13.686905
-1.073410 2.806900 13.731766
-1.000809 2.941513 13.711166
-1.002609 2.939804 13.625778
-1.002548 2.704086 13.965134
-1.034012 2.666702 13.827499
-1.001816 2.635178 13.761154
-1.053604 2.682388 13.775009
-1.026749 2.674149 13.763870
-1.044174 2.674393 13.799576
-1.062607 2.690598 13.752518
-1.064285 2.745621 13.768631
-1.054489 2.732407 13.852768
-1.044601 2.693100 13.971390
-1.080154 2.735825 13.897049
-1.078445 2.726212 13.889664
-1.065750 2.708511 13.912704
-1.081100 2.746078 13.908066
-1.028458 2.721512 13.913651
-1.033676 2.928085 13.977097
-1.082687 2.801498 13.835068
-1.091812 2.777237 13.765671
-1.087814 2.757126 13.751450
-1.088547 2.767563 13.763809
-1.085190 2.789932 13.808792
-1.072647 2.817947 13.750656
-1.068527 2.840988 13.799850
-1.068466 2.830185 13.784073
-1.082626 2.812302 13.851303
-1.066483 2.852432 13.824326
-1.033859 2.899094 13.868179
-1.020370 2.906021 13.783676
-1.050186 2.882462 13.784012
-1.035263 2.926651 13.795059
-1.022202 2.939285 13.844345
-1.070999 2.848557 13.948746
-1.085281 2.776810 13.937088
-1.082413 2.766983 13.933548
-1.083328 2.755966 13.914047
-1.077560 2.824814 13.888687
-1.075516 2.836319 13.913559
-1.052628 2.879318 13.915573
-0.872208 2.713699 13.201401
-0.846390 2.733414 13.237747
-0.799515 2.742569 13.242752
-0.944321 2.674515 13.088699
-0.938614 2.675461 13.013474
-0.977127 2.678787 13.012466
-0.983200 2.674301 13.002731
-0.992691 2.679245 13.038956
-0.877060 2.717789 13.003922
-0.908279 2.695511 13.042953
-0.960373 2.650467 13.108078
-0.876205 2.681808 13.085281
-0.882858 2.716873 13.079361
-0.908218 2.694229 13.110641
-0.851944 2.694565 13.102432
-0.825363 2.677444 13.004044
-0.835495 2.729782 13.027725
-0.841354 2.724350 13.011887
-0.851700 2.737564 13.040054
-0.830002 2.736343 13.049026
-0.800308 2.746597 13.028061
-0.826126 2.749008 13.099319
-0.853195 2.736374 13.109940
-0.951889 2.666672 13.214859
-0.990005 2.651077 13.135269
-0.977646 2.668747 13.145309
-0.952133 2.668777 13.143906
-0.946854 2.673386 13.160233
-0.926285 2.667282 13.140396
-0.879654 2.715408 13.143051
-0.896500 2.692276 13.162857
-0.977402 2.667160 13.216965
-0.959824 2.648148 13.238541
-0.875473 2.668686 13.214005
-0.934738 2.671432 13.212112
-0.907791 2.676315 13.214066
-0.922256 2.674423 13.227585
-0.929214 2.673386 13.233566
-0.915237 2.675369 13.221024
-0.900406 2.671829 13.219650
-0.902176 2.682205 13.231674
-0.889694 2.687790 13.238022
-0.883072 2.690445 13.240097
-0.896103 2.690964 13.230942
-0.825851 2.714676 13.129990
-0.851669 2.735031 13.176254
-0.799850 2.747269 13.175491
-0.853134 2.901596 13.203629
-0.837112 2.759415 13.091354
-0.839005 2.760818 13.026138
-0.822861 2.763596 13.002457
-0.836746 2.785324 13.026627
-0.832321 2.809067 13.024185
-0.825333 2.807938 13.031082
-0.812881 2.806625 13.021133
-0.837570 2.757645 13.049393
-0.818069 2.772018 13.032700
-0.825211 2.789566 13.061417
-0.788620 2.798172 13.045731
-0.828629 2.823135 13.011032
-0.836899 2.832901 13.033920
-0.831955 2.856705 13.044968
-0.835709 2.856277 13.035934
-0.837296 2.868881 13.033310
-0.798019 2.853073 13.029556
-0.834732 2.783890 13.091690
-0.826797 2.807388 13.084396
-0.813126 2.781357 13.066879
-0.834854 2.760666 13.124619
-0.823715 2.809738 13.110275
-0.808945 2.793106 13.112503
-0.787094 2.794998 13.110916
-0.825089 2.826920 13.083725
-0.827927 2.830948 13.089493
-0.828659 2.841721 13.064713
-0.829453 2.859421 13.121689
-0.835709 2.855026 13.103806
-0.835037 2.871323 13.110764
-0.787735 2.841324 13.080643
-0.811050 2.826523 13.103958
-0.882706 2.929886 13.111374
-0.896927 2.936935 13.017075
-0.887650 2.927994 13.016708
-0.878128 2.920181 13.014145
-0.893143 2.932022 13.057755
-0.955338 2.950790 13.005081
-0.976822 2.947403 13.045395
-0.906784 2.944382 13.020920
-0.920090 2.949081 13.034958
-0.876968 2.921402 13.095230
-0.886337 2.929337 13.097336
-0.953598 2.952499 13.083969
-0.939316 2.947952 13.068100
-0.893509 2.940384 13.090927
-0.920273 2.948898 13.120743
-0.905624 2.945572 13.102188
-0.862350 2.904892 13.079758
-0.842361 2.882645 13.018539
-0.851425 2.892044 13.017532
-0.863266 2.906235 13.013382
-0.858078 2.903671 13.008987
-0.865707 2.914474 13.003494
-0.843399 2.879196 13.049973
-0.856094 2.905746 13.087326
-0.866379 2.913834 13.090561
-0.851425 2.892075 13.102463
-0.839737 2.877640 13.112869
-0.840012 2.885147 13.095718
-0.829788 2.926437 13.114822
-0.819717 2.804367 13.211472
-0.815720 2.764114 13.151871
-0.821426 2.758896 13.136429
-0.826584 2.806137 13.152298
-0.821976 2.793137 13.135330
-0.827347 2.768845 13.184494
-0.840591 2.758377 13.164383
-0.837448 2.782822 13.163651
-0.788040 2.794235 13.180496
-0.805618 2.807632 13.171249
-0.818985 2.833450 13.148544
-0.824783 2.845871 13.136948
-0.819016 2.814804 13.179916
-0.827347 2.829605 13.156937
-0.832291 2.874252 13.187424
-0.828354 2.853195 13.162003
-0.789688 2.841537 13.151566
-0.817001 2.798538 13.204147
-0.836288 2.756790 13.227158
-0.832718 2.781204 13.225876
-0.811020 2.774185 13.189896
-0.806290 2.783981 13.226822
-0.820267 2.850723 13.207748
-0.826553 2.862564 13.197891
-0.823044 2.828018 13.219681
-0.816757 2.835892 13.227158
-0.833878 2.874619 13.241959
-0.824631 2.851608 13.225571
-0.782547 2.832870 13.208298
-0.808853 2.846939 13.188797
-0.975540 2.948593 13.211960
-0.884018 2.931717 13.175552
-0.875443 2.927994 13.169632
-0.937698 2.949539 13.148148
-0.978592 2.945663 13.135880
-0.950241 2.955795 13.158646
-0.904373 2.946823 13.184006
-0.890884 2.943039 13.168106
-0.949905 2.956131 13.243912
-0.931992 2.955215 13.215775
-0.916641 2.952530 13.194870
-0.887985 2.945999 13.245285
-0.842850 2.901016 13.246475
-0.854782 2.903000 13.137466
-0.812943 2.908188 13.155807
-0.847672 2.896042 13.175735
-0.839249 2.886002 13.178970
-0.835861 2.876053 13.175919
-0.862198 2.918137 13.162491
-0.854141 2.907791 13.166641
-0.874069 2.924393 13.171494
-0.834274 2.891190 13.249069
-0.860367 2.920059 13.243149
-0.868942 2.926132 13.229294
-0.850601 2.911453 13.241592
-0.870621 2.927933 13.246750
-0.800735 2.894516 13.204361
-0.852524 2.712265 13.458755
-0.880814 2.711624 13.351700
-0.991837 2.648148 13.257828
-0.945480 2.675064 13.266190
-0.952713 2.673599 13.271072
-0.938583 2.677505 13.266220
-0.945999 2.670792 13.296555
-0.960800 2.675583 13.292496
-0.899887 2.660843 13.278275
-0.900681 2.689926 13.306381
-0.833267 2.722549 13.312759
-0.870285 2.712296 13.267654
-0.863266 2.699234 13.250717
-0.857498 2.704239 13.264786
-0.847488 2.732162 13.308548
-0.826920 2.726303 13.320908
-0.960251 2.668961 13.455734
-0.961044 2.670334 13.386795
-0.980972 2.648483 13.432907
-0.942551 2.650162 13.436722
-0.938522 2.677383 13.430435
-0.894577 2.681412 13.381241
-0.929825 2.675125 13.406845
-0.923233 2.677292 13.406357
-0.903427 2.685959 13.414963
-0.916550 2.689560 13.398087
-0.891251 2.692551 13.426315
-0.884598 2.695175 13.428177
-0.883560 2.710495 13.425522
-0.953720 2.676468 13.450363
-0.946579 2.678268 13.447159
-0.915756 2.688187 13.467209
-0.883102 2.709152 13.495346
-0.865372 2.705826 13.448105
-0.824722 2.744492 13.399429
-0.853897 2.731308 13.387253
-0.858749 2.708267 13.449661
-0.854416 2.729996 13.458237
-0.830399 2.876419 13.444778
-0.836807 2.754227 13.366776
-0.822617 2.774002 13.254440
-0.819992 2.803085 13.280960
-0.835007 2.755447 13.294632
-0.831192 2.779800 13.292923
-0.815872 2.799850 13.286789
-0.802597 2.797226 13.280136
-0.818314 2.815659 13.263901
-0.823746 2.865555 13.275406
-0.824966 2.826889 13.291519
-0.831039 2.873093 13.307236
-0.821335 2.850052 13.290115
-0.817001 2.854202 13.283676
-0.779587 2.828262 13.272049
-0.805557 2.835373 13.291458
-0.833725 2.778671 13.366135
-0.824417 2.772202 13.347458
-0.824692 2.802109 13.357132
-0.820328 2.832230 13.326492
-0.828842 2.825882 13.366592
-0.820663 2.813309 13.359299
-0.830704 2.849472 13.372910
-0.822372 2.867081 13.358536
-0.828873 2.871628 13.373917
-0.778580 2.825516 13.339218
-0.884293 2.931473 13.351334
-0.881363 2.934372 13.253738
-0.969833 2.954208 13.280106
-0.997208 2.945175 13.253250
-0.899979 2.951218 13.256485
-0.916183 2.952988 13.280411
-0.934372 2.952866 13.310837
-0.952225 2.953812 13.338974
-0.993973 2.948288 13.329880
-0.891312 2.942642 13.344223
-0.826614 2.880264 13.342972
-0.828201 2.878555 13.260544
-0.841782 2.899368 13.256821
-0.862473 2.924332 13.289444
-0.790298 2.882553 13.255997
-0.841690 2.902267 13.330338
-0.833786 2.891800 13.335037
-0.838120 2.897751 13.321091
-0.871170 2.927383 13.336502
-0.859451 2.921036 13.327835
-0.850082 2.912247 13.327194
-0.862198 2.922989 13.358505
-0.787796 2.878403 13.320633
-0.830429 2.765884 13.455978
-0.821152 2.794357 13.392441
-0.819321 2.751846 13.425125
-0.829453 2.801132 13.433975
-0.820114 2.851028 13.382309
-0.829178 2.824570 13.437241
-0.822403 2.830185 13.421768
-0.825241 2.847763 13.435410
-0.787521 2.832565 13.423172
-0.839218 2.753067 13.440353
-0.835495 2.777481 13.438797
-0.824661 2.809189 13.461441
-0.815628 2.763870 13.474106
-0.823349 2.792160 13.488602
-0.826492 2.862839 13.461655
-0.831406 2.870499 13.447708
-0.820694 2.850540 13.473312
-0.786758 2.830063 13.491592
-0.889969 2.925766 13.459488
-0.975815 2.948288 13.387497
-0.939072 2.948227 13.414627
-0.923660 2.945541 13.393326
-0.911484 2.939713 13.382797
-0.878830 2.919662 13.451187
-0.959793 2.946335 13.452591
-0.980301 2.943893 13.491104
-0.896347 2.937607 13.450180
-0.910202 2.941025 13.467636
-0.923965 2.945267 13.483658
-0.869156 2.922256 13.438309
-0.843307 2.896866 13.398178
-0.846329 2.897598 13.434830
-0.837234 2.888290 13.435623
-0.864487 2.915939 13.433701
-0.854019 2.908310 13.429276
-0.789474 2.878281 13.392502
-0.848557 2.895981 13.475845
-0.791367 2.878403 13.465164
-0.873520 2.652084 13.722275
-0.849075 2.658401 13.730667
-0.973495 2.647903 13.597794
-0.994431 2.652756 13.527512
-0.985550 2.680771 13.520859
-0.976822 2.673630 13.527847
-0.963150 2.667801 13.530319
-0.899582 2.672440 13.521957
-0.925308 2.669357 13.518692
-0.912796 2.686691 13.533768
-0.893631 2.678665 13.535538
-0.958817 2.666275 13.595322
-0.950943 2.669357 13.596817
-0.936844 2.649124 13.593063
-0.924973 2.664871 13.588730
-0.915237 2.685532 13.608414
-0.899277 2.669907 13.594955
-0.996262 2.689041 13.575150
-0.877090 2.695419 13.586960
-0.889938 2.688614 13.575150
-0.884964 2.707932 13.568954
-0.850021 2.680283 13.608047
-0.829025 2.733231 13.520859
-0.850418 2.687607 13.542038
-0.856857 2.728836 13.532486
-0.824417 2.713821 13.579453
-0.826187 2.749435 13.590439
-0.858780 2.708389 13.619339
-0.871414 2.701675 13.607162
-0.861771 2.727829 13.610764
-0.940414 2.645584 13.715591
-0.993179 2.650528 13.669785
-0.966934 2.665359 13.678299
-0.950729 2.669052 13.673691
-0.917557 2.684341 13.683395
-0.924667 2.662094 13.661911
-0.889755 2.706894 13.647293
-0.994064 2.683182 13.715836
-0.975143 2.644852 13.729050
-0.975876 2.663223 13.744339
-0.958817 2.663589 13.738846
-0.950424 2.665970 13.746933
-0.892807 2.676224 13.695175
-0.920944 2.670822 13.714340
-0.914291 2.672775 13.712784
-0.907486 2.675644 13.715317
-0.912735 2.682693 13.748734
-0.928146 2.670425 13.723953
-0.889206 2.686508 13.737076
-0.875900 2.691849 13.741653
-0.890030 2.705551 13.719681
-0.823654 2.699539 13.712906
-0.873917 2.660416 13.656967
-0.853134 2.714310 13.638260
-0.847031 2.749619 13.665115
-0.841782 2.725998 13.675613
-0.850082 2.692520 13.703568
-0.865707 2.726700 13.688248
-0.829941 2.736313 13.706253
-0.848373 2.748337 13.739273
-0.829758 2.877365 13.715622
-0.841629 2.775253 13.589401
-0.838638 2.776382 13.513901
-0.843857 2.752090 13.517593
-0.826614 2.799606 13.500565
-0.834915 2.761246 13.560501
-0.822037 2.812088 13.541885
-0.811722 2.776749 13.526749
-0.829605 2.823288 13.508499
-0.823532 2.829056 13.514969
-0.836533 2.869583 13.525681
-0.830307 2.846817 13.513199
-0.828140 2.861252 13.557327
-0.832596 2.874222 13.542282
-0.786484 2.828049 13.561295
-0.847244 2.750961 13.593643
-0.822464 2.793167 13.575363
-0.828964 2.798447 13.575027
-0.820084 2.832809 13.593460
-0.825150 2.821640 13.573318
-0.826340 2.845169 13.578781
-0.823380 2.847824 13.572769
-0.834000 2.868057 13.593338
-0.817093 2.817429 13.615311
-0.781357 2.821304 13.623276
-0.789749 2.873337 13.602737
-0.876480 2.922104 13.624435
-0.890335 2.925461 13.550827
-0.897171 2.936783 13.543106
-0.876541 2.922043 13.533493
-0.939835 2.947433 13.506760
-0.956955 2.949112 13.532883
-0.907455 2.943802 13.548538
-0.980301 2.943893 13.581070
-0.954575 2.951462 13.615585
-0.939682 2.947556 13.596848
-0.922348 2.950607 13.588089
-0.922256 2.946976 13.568192
-0.873734 2.919968 13.586319
-0.856277 2.906021 13.526932
-0.847061 2.896866 13.527328
-0.865097 2.915359 13.525650
-0.869766 2.921005 13.509689
-0.847763 2.894608 13.545578
-0.840225 2.885239 13.535904
-0.795273 2.880508 13.541550
-0.857956 2.904373 13.623795
-0.848709 2.895218 13.624069
-0.846664 2.893173 13.615372
-0.863602 2.916946 13.611588
-0.828751 2.795731 13.718582
-0.821640 2.759689 13.630722
-0.829514 2.797134 13.647446
-0.841232 2.754623 13.672806
-0.839890 2.773819 13.658615
-0.823990 2.791672 13.671524
-0.805008 2.805740 13.648209
-0.820572 2.819931 13.638382
-0.819351 2.852127 13.649979
-0.825058 2.843765 13.648605
-0.826584 2.862961 13.643112
-0.816605 2.836594 13.672714
-0.829788 2.866379 13.659073
-0.787308 2.869156 13.669388
-0.835403 2.760971 13.743851
-0.841324 2.772537 13.732895
-0.819626 2.796463 13.748093
-0.811905 2.777420 13.698135
-0.806931 2.786392 13.732407
-0.823898 2.818832 13.715286
-0.816513 2.818192 13.704758
-0.822464 2.842178 13.717026
-0.816544 2.855148 13.732529
-0.823410 2.864548 13.722092
-0.823807 2.865921 13.725723
-0.784897 2.822952 13.700089
-0.802231 2.823776 13.725784
-0.782547 2.862686 13.732529
-0.997787 2.916092 13.737534
-0.887497 2.928329 13.632370
-0.974777 2.949295 13.653732
-0.895035 2.938950 13.627029
-0.911850 2.939407 13.654831
-0.935837 2.951370 13.675400
-0.925980 2.949570 13.664719
-0.921890 2.947311 13.658493
-0.875992 2.922684 13.714859
-0.887985 2.927872 13.726364
-0.953384 2.952621 13.703384
-0.974777 2.949265 13.745773
-0.893631 2.940414 13.714432
-0.920029 2.949203 13.744553
-0.915787 2.947372 13.722214
-0.905258 2.945999 13.724686
-0.837479 2.888260 13.709518
-0.841049 2.884506 13.629807
-0.831039 2.875931 13.627975
-0.872147 2.918533 13.655594
-0.840012 2.891281 13.677719
-0.846786 2.897263 13.709518
-0.864456 2.916550 13.716690
-0.864395 2.916183 13.706467
-0.855209 2.907242 13.706467
-0.835709 2.889572 13.743881
-0.866226 2.745377 13.985306
-0.989304 2.648880 13.825607
-0.959366 2.637985 13.778671
-0.950638 2.661758 13.799698
-0.887894 2.704056 13.789230
-0.950150 2.663773 13.822098
-0.976028 2.673294 13.837875
-0.972305 2.686783 13.870377
-0.898483 2.666092 13.822861
-0.920029 2.681778 13.831924
-0.846848 2.718216 13.820724
-0.873337 2.654892 13.804794
-0.857620 2.704849 13.774521
-0.870041 2.697403 13.758408
-0.864548 2.725296 13.758957
-0.826248 2.749649 13.762253
-0.848251 2.746994 13.811935
-0.866684 2.724075 13.834976
-0.842300 2.727676 13.858047
-0.946060 2.681900 13.942825
-0.900070 2.703445 13.879837
-0.880966 2.723557 13.929123
-0.976425 2.690567 13.943100
-0.898972 2.692307 13.941452
-0.912613 2.702805 13.971756
-0.886612 2.701431 13.979599
-0.879990 2.704422 13.983505
-0.856583 2.746140 13.897324
-0.823715 2.728592 13.913406
-0.836868 2.885574 13.965561
-0.817764 2.798569 13.834427
-0.837723 2.770950 13.800430
-0.823868 2.794022 13.784195
-0.802109 2.795609 13.768021
-0.812820 2.840683 13.751785
-0.814529 2.820358 13.790573
-0.821182 2.817276 13.784012
-0.819351 2.840591 13.785233
-0.821609 2.863022 13.792160
-0.778488 2.856949 13.797195
-0.825729 2.792801 13.860062
-0.818649 2.853073 13.833237
-0.824142 2.865646 13.820267
-0.825546 2.816238 13.863541
-0.816605 2.836807 13.858719
-0.823624 2.839554 13.864578
-0.781540 2.858139 13.874252
-0.886703 2.929428 13.814957
-0.875290 2.923416 13.805862
-0.993027 2.949112 13.777481
-0.951126 2.954849 13.788559
-0.934128 2.953079 13.762222
-0.909714 2.945480 13.785873
-0.892532 2.941544 13.803970
-0.970779 2.953384 13.824997
-0.988022 2.953964 13.853958
-0.919998 2.949234 13.838089
-0.909622 2.941666 13.833176
-0.936111 2.951126 13.862778
-0.906693 2.943863 13.854446
-0.837601 2.888351 13.819382
-0.858871 2.914719 13.781204
-0.844986 2.899216 13.796432
-0.836960 2.888870 13.801010
-0.827072 2.880203 13.799515
-0.863663 2.916946 13.797287
-0.854172 2.908340 13.796066
-0.855148 2.913040 13.848831
-0.833359 2.791946 13.944931
-0.850235 2.770401 13.891861
-0.823135 2.811417 13.914780
-0.828812 2.862228 13.875839
-0.820114 2.851639 13.933029
-0.824661 2.865189 13.916611
-0.853073 2.769211 13.969894
-0.830582 2.785080 13.974228
-0.828476 2.815048 13.941574
-0.829269 2.838577 13.946579
-0.826370 2.860672 13.946091
-0.821579 2.831650 13.971237
-0.785110 2.859848 13.952652
-0.806747 2.839737 13.974869
-0.882065 2.934158 13.988937
-0.885483 2.930679 13.905319
-0.876694 2.922043 13.905319
-0.952255 2.953720 13.886398
-0.967392 2.956711 13.907608
-0.893112 2.940933 13.900589
-0.910324 2.940964 13.930405
-0.916428 2.952805 13.920486
-0.895798 2.941574 13.912064
-0.948349 2.957535 13.968094
-0.993088 2.948990 13.965714
-0.966202 2.957840 13.998886
-0.933334 2.953842 13.948166
-0.889542 2.944565 13.983658
-0.888412 2.939529 13.975174
-0.829453 2.877884 13.997971
-0.828903 2.878403 13.900314
-0.845322 2.898941 13.891953
-0.837204 2.888687 13.896225
-0.835892 2.886887 13.890305
-0.863083 2.917587 13.889542
-0.853287 2.909317 13.887405
-0.857559 2.911850 13.925797
-0.836166 2.889847 13.988144
-0.844650 2.899673 13.985123
-0.851273 2.909988 13.990677
-0.862167 2.918594 13.981888
-0.852280 2.910385 13.979294
-0.873154 2.925644 13.988480
-1.012894 2.677689 14.222458
-1.002396 2.715927 14.225082
-1.024704 2.685135 14.187485
-1.037399 2.692429 14.148972
-1.071365 2.746445 14.096176
-1.028793 2.735123 14.013718
-1.052963 2.709549 14.113541
-1.044876 2.701004 14.132339
-1.057449 2.883957 14.203354
-1.075668 2.755753 14.093430
-1.077042 2.811661 14.019699
-1.074020 2.791000 14.000229
-1.076981 2.800858 14.003830
-1.073746 2.823593 14.050064
-1.062302 2.862961 14.002640
-1.078384 2.776413 14.113571
-1.077103 2.766068 14.103043
-1.072311 2.834946 14.072647
-1.073074 2.845474 14.085739
-1.077988 2.945816 14.073807
-1.030716 2.897873 14.023849
-1.030685 2.930954 14.062271
-1.079544 2.762589 14.242538
-1.075699 2.809586 14.173508
-1.070572 2.800369 14.179001
-1.071701 2.789169 14.157944
-1.063248 2.860245 14.145187
-1.061539 2.871536 14.169022
-1.075027 2.753311 14.246109
-1.070724 2.822067 14.211288
-1.073624 2.832047 14.215500
-1.073135 2.842972 14.234116
-1.029617 2.907303 14.191635
-1.010513 2.916275 14.125839
-1.023392 2.938034 14.133682
-1.006424 2.954483 14.172470
-1.053360 2.896713 14.238663
-1.023849 2.920517 14.233353
-1.085770 2.951401 14.205063
-1.007553 2.676346 14.396408
-1.023178 2.682785 14.344803
-1.063705 2.735489 14.263565
-1.068863 2.744583 14.257034
-1.049088 2.707962 14.280228
-1.056046 2.716812 14.265945
-1.062424 2.725662 14.254166
-1.028427 2.740677 14.264816
-1.043869 2.698563 14.287003
-1.002243 2.718277 14.310654
-1.034286 2.690598 14.312759
-1.028519 2.747543 14.357651
-1.041458 2.898392 14.440536
-1.078659 2.827866 14.345169
-1.073380 2.775375 14.285416
-1.077805 2.795517 14.298904
-1.074203 2.785843 14.298019
-1.071335 2.855087 14.259720
-1.068832 2.866623 14.287125
-1.059494 2.880844 14.344681
-1.015518 2.934494 14.285873
-1.012741 2.964828 14.264084
-1.018204 2.915176 14.714127
-1.001907 2.946121 14.665604
-1.016891 2.929214 14.582169
-1.003036 2.948166 14.507523
-1.032730 2.876328 14.596756
-1.003738 2.928848 14.954758
-1.008377 2.859268 14.825058
-1.003189 2.943192 14.816727
-1.010971 2.928818 14.763748
-1.010941 2.903854 14.886429
-1.007767 2.916245 14.918869
-0.869064 2.717606 14.211502
-0.848923 2.707443 14.203751
-0.873459 2.700516 14.194229
-0.967972 2.695724 14.082993
-0.959122 2.691788 14.050247
-0.885666 2.722488 14.010086
-0.921951 2.701981 14.059738
-0.977432 2.700943 14.122971
-0.889633 2.721329 14.090561
-0.823441 2.740829 14.091599
-0.868729 2.716446 14.022781
-0.874649 2.711777 14.009689
-0.851151 2.732071 14.069992
-0.849808 2.724747 14.068314
-0.871384 2.744339 14.067398
-0.845963 2.739670 14.098099
-0.840652 2.746902 14.124466
-0.961868 2.661392 14.242355
-0.989151 2.665390 14.144028
-0.994614 2.705582 14.173386
-0.988144 2.709244 14.179337
-0.935471 2.701401 14.154495
-0.924210 2.691391 14.182816
-0.891403 2.720047 14.168442
-0.921188 2.664230 14.248520
-0.976456 2.709549 14.213669
-0.945969 2.698837 14.244461
-0.948257 2.700729 14.248917
-0.875504 2.714493 14.206528
-0.936966 2.695908 14.215866
-0.882339 2.711716 14.203751
-0.889267 2.709579 14.204453
-0.886520 2.718307 14.237045
-0.867050 2.741226 14.211807
-0.874069 2.715591 14.136093
-0.873032 2.743027 14.144974
-0.823227 2.742050 14.174301
-0.843643 2.732162 14.242538
-0.863388 2.723099 14.228928
-0.856003 2.723587 14.220108
-0.849258 2.726089 14.222031
-0.826859 2.918198 14.214371
-0.820267 2.811691 14.078598
-0.830276 2.763107 14.005569
-0.837082 2.790848 14.024734
-0.859482 2.768265 14.053757
-0.797501 2.773300 14.059433
-0.825424 2.813461 14.011368
-0.820694 2.814072 14.001266
-0.823257 2.836746 14.012070
-0.817612 2.854385 14.019791
-0.822372 2.858963 14.014542
-0.823135 2.866867 14.006882
-0.816818 2.836807 14.050125
-0.781540 2.854507 14.019302
-0.763596 2.835098 14.061722
-0.804337 2.858261 14.056137
-0.829147 2.786697 14.064651
-0.834641 2.789261 14.096024
-0.814743 2.787186 14.096176
-0.818893 2.835037 14.080460
-0.814590 2.820663 14.075455
-0.820511 2.857407 14.086563
-0.818436 2.871933 14.086624
-0.813156 2.859116 14.100754
-0.802048 2.823196 14.068192
-0.796921 2.831894 14.101547
-0.961685 2.962265 14.079666
-0.877029 2.937180 14.032852
-0.944931 2.960922 14.052383
-0.987991 2.953964 14.043869
-0.927444 2.959732 14.023605
-0.906265 2.945023 14.012131
-0.911850 2.957352 14.000351
-0.882889 2.951309 14.056870
-0.980850 2.960861 14.115982
-0.877213 2.939072 14.068680
-0.909775 2.959427 14.090012
-0.897202 2.954117 14.077103
-0.919876 2.963974 14.099747
-0.921127 2.965927 14.098709
-0.821732 2.881546 14.092545
-0.833023 2.883865 14.034317
-0.846329 2.908127 14.057968
-0.857193 2.923691 14.060959
-0.825699 2.881882 14.081223
-0.841843 2.902634 14.071915
-0.831741 2.894485 14.068954
-0.863480 2.934647 14.087662
-0.848892 2.913925 14.063919
-0.867020 2.931931 14.063461
-0.835495 2.905869 14.117020
-0.800919 2.915756 14.089798
-0.817917 2.771896 14.209915
-0.859024 2.766800 14.128159
-0.817184 2.810043 14.149338
-0.823288 2.793076 14.140121
-0.830887 2.787613 14.165817
-0.814590 2.833298 14.149399
-0.808792 2.826950 14.151627
-0.792709 2.843613 14.150284
-0.811111 2.842911 14.126572
-0.811600 2.855301 14.148727
-0.806107 2.866623 14.173019
-0.855667 2.765182 14.198746
-0.813644 2.803482 14.202621
-0.850601 2.773544 14.223495
-0.828445 2.785995 14.238174
-0.815109 2.808487 14.222061
-0.811691 2.776810 14.224442
-0.805771 2.782547 14.243454
-0.770676 2.786728 14.240616
-0.807602 2.831345 14.214828
-0.792191 2.815201 14.196762
-0.801865 2.852768 14.190964
-0.788071 2.854782 14.195908
-0.787155 2.823807 14.230331
-0.802231 2.833969 14.225998
-0.807816 2.853622 14.218979
-0.761826 2.871780 14.243820
-0.995132 2.932877 14.207474
-0.970596 2.932510 14.147507
-0.955460 2.968369 14.155380
-0.938095 2.967606 14.125839
-0.972488 2.969040 14.184616
-0.890915 2.960037 14.132309
