-2.240707 5.817490 -0.761765
-2.243820 5.839676 -0.758560
-2.238937 5.846451 -0.759842
-2.241318 5.873978 -0.758621
-2.245102 5.875046 -0.756516
-2.226730 5.909195 -0.836349
-2.222092 5.882004 -0.864639
-2.222092 5.911087 -0.866623
-2.220810 5.911606 -0.862656
-2.230484 5.936447 -0.862534
-2.230392 5.919937 -0.846268
-2.220901 5.908249 -0.856827
-2.234360 5.933975 -0.851151
-2.229568 5.878891 -0.838547
-2.235977 5.894699 -0.822647
-2.234940 5.926620 -0.835617
-2.238174 5.933304 -0.836563
-2.235031 5.924973 -0.818771
-2.233658 5.923813 -0.825119
-2.247574 5.954941 -0.834610
-2.233566 5.943680 -0.866104
-2.242691 5.959885 -0.862900
-2.242081 5.962143 -0.872726
-2.247726 5.966080 -0.843979
-2.246323 5.983047 -0.874283
-2.249924 5.986038 -0.862381
-2.249313 5.969986 -0.852097
-2.246292 5.982346 -0.857315
-2.248337 5.958755 -0.828506
-2.245651 5.958664 -0.836136
-2.245377 5.876816 -0.760849
-2.235977 5.876236 -0.812332
-2.241226 5.900528 -0.801834
-2.240982 5.903336 -0.784164
-2.235733 5.916367 -0.803482
-2.233444 5.906418 -0.810196
-2.244614 5.935318 -0.805099
-2.240768 5.932236 -0.809738
-2.247787 5.929367 -0.783585
-2.248032 5.900436 -0.758011
-2.249405 5.945602 -0.797226
-2.248611 5.955093 -0.812210
-2.249649 5.957016 -0.809525
-2.106827 5.632736 -0.527542
-2.061783 5.562302 -0.654953
-2.070633 5.503342 -0.709122
-2.067123 5.500229 -0.714828
-2.074478 5.507797 -0.695236
-2.073318 5.510483 -0.695023
-2.062546 5.523422 -0.695999
-2.042679 5.531265 -0.715988
-2.054153 5.500961 -0.738113
-2.048355 5.508926 -0.735062
-2.043472 5.512985 -0.739059
-2.033646 5.529587 -0.740585
-2.037003 5.525284 -0.735764
-2.056198 5.506393 -0.723831
-2.045700 5.518997 -0.724838
-2.036423 5.527969 -0.724564
-2.036331 5.536911 -0.726517
-2.025742 5.544174 -0.736740
-2.022110 5.540146 -0.741348
-2.013077 5.538559 -0.747940
-2.027603 5.561417 -0.721359
-2.028336 5.557175 -0.728531
-2.026932 5.554794 -0.729141
-2.052994 5.513962 -0.715134
-2.059982 5.516556 -0.710159
-2.049850 5.530167 -0.711258
-2.061386 5.522507 -0.695694
-2.052567 5.520615 -0.699936
-2.040390 5.547409 -0.712814
-2.035110 5.553787 -0.717453
-2.052628 5.537704 -0.697189
-2.046707 5.535721 -0.695969
-2.043686 5.556320 -0.698868
-2.042313 5.554764 -0.696609
-2.043076 5.562057 -0.697922
-2.041092 5.615341 -0.707352
-2.018967 5.565689 -0.738174
-2.015213 5.564651 -0.743942
-2.006332 5.571030 -0.745010
-2.008652 5.591812 -0.747635
-2.029709 5.576736 -0.719070
-2.020004 5.577866 -0.730576
-2.026230 5.591080 -0.719406
-2.024612 5.591354 -0.731155
-2.036209 5.612808 -0.722458
-2.034195 5.615097 -0.718979
-2.018997 5.595413 -0.740738
-2.012497 5.597214 -0.744217
-2.023575 5.615982 -0.742752
-2.023392 5.619949 -0.744308
-2.024246 5.601913 -0.727768
-2.033005 5.569992 -0.715073
-2.044113 5.563797 -0.697098
-2.038437 5.585617 -0.694290
-2.043320 5.590500 -0.700241
-2.042526 5.588547 -0.694839
-2.045395 5.602097 -0.699387
-2.046158 5.609756 -0.693832
-2.063675 5.545090 -0.645645
-2.086197 5.502151 -0.679642
-2.078842 5.506363 -0.685135
-2.072495 5.511581 -0.675827
-2.074783 5.514328 -0.680496
-2.076462 5.510269 -0.674881
-2.068832 5.530197 -0.676071
-2.087265 5.504929 -0.664993
-2.076309 5.518417 -0.666000
-2.065842 5.532211 -0.682083
-2.066666 5.534439 -0.667313
-2.062729 5.552261 -0.656784
-2.094498 5.500076 -0.654373
-2.097275 5.503281 -0.634140
-2.084152 5.513596 -0.640854
-2.084579 5.506088 -0.650467
-2.089249 5.510208 -0.650650
-2.080185 5.514389 -0.654770
-2.078934 5.525375 -0.651810
-2.090561 5.513657 -0.636063
-2.085434 5.519943 -0.634811
-2.080276 5.528915 -0.637192
-2.071426 5.533279 -0.655777
-2.067337 5.536179 -0.652481
-2.073868 5.536179 -0.635452
-2.071609 5.547653 -0.638779
-2.068649 5.558517 -0.636917
-2.055527 5.544754 -0.676529
-2.054214 5.541916 -0.682663
-2.053909 5.550247 -0.685196
-2.055099 5.548996 -0.671463
-2.058334 5.553024 -0.668930
-2.064163 5.612015 -0.645004
-2.062881 5.610672 -0.661423
-2.065079 5.566452 -0.641068
-2.066666 5.575485 -0.641403
-2.067764 5.576920 -0.631973
-2.070572 5.586044 -0.627457
-2.065048 5.585037 -0.638748
-2.065292 5.613602 -0.640976
-2.067581 5.614609 -0.634079
-2.062180 5.602554 -0.642197
-2.051956 5.571213 -0.678452
-2.047318 5.566269 -0.685013
-2.053482 5.582962 -0.671921
-2.057388 5.577072 -0.658463
-2.059952 5.572220 -0.664871
-2.048355 5.581161 -0.668747
-2.055191 5.602646 -0.681137
-2.058212 5.614517 -0.672043
-2.058731 5.604141 -0.656265
-2.054245 5.606125 -0.668045
-2.058884 5.609451 -0.666946
-2.060074 5.575882 -0.643417
-2.155075 5.685135 -0.641464
-2.207657 5.687424 -0.710159
-2.222610 5.682877 -0.748520
-2.222397 5.684311 -0.730545
-2.210709 5.686172 -0.738022
-2.205368 5.681381 -0.748642
-2.188339 5.685349 -0.747604
-2.205276 5.681412 -0.730911
-2.188278 5.684982 -0.730026
-2.222122 5.686630 -0.712387
-2.222122 5.685684 -0.694931
-2.204971 5.684219 -0.712692
-2.188065 5.687027 -0.711929
-2.204788 5.685318 -0.694809
-2.188004 5.686752 -0.694351
-2.138779 5.684738 -0.711899
-2.171921 5.687332 -0.747025
-2.171799 5.687454 -0.729324
-2.138779 5.686661 -0.746841
-2.138718 5.686417 -0.729233
-2.155167 5.687241 -0.693893
-2.138657 5.684769 -0.694260
-2.234695 5.732040 -0.711136
-2.230148 5.705215 -0.739487
-2.232376 5.733047 -0.738144
-2.232559 5.704147 -0.712448
-2.155228 5.687790 -0.711441
-2.155319 5.688950 -0.746506
-2.155228 5.689072 -0.728836
-2.127731 5.692337 -0.726700
-2.171738 5.687637 -0.711624
-2.171585 5.688278 -0.693863
-2.132462 5.690262 -0.700302
-2.187943 5.686417 -0.676743
-2.222000 5.686142 -0.677200
-2.204453 5.687393 -0.659134
-2.187820 5.686752 -0.659073
-2.143051 5.685623 -0.647568
-2.155136 5.687119 -0.676315
-2.138687 5.683487 -0.676865
-2.140152 5.686905 -0.674301
-2.155106 5.685867 -0.658951
-2.138779 5.680832 -0.659744
-2.138840 5.678970 -0.642532
-2.241013 5.729263 -0.630051
-2.234726 5.703201 -0.685410
-2.234909 5.703049 -0.658066
-2.221725 5.688522 -0.659103
-2.204514 5.687668 -0.676712
-2.238174 5.730576 -0.684311
-2.240707 5.729416 -0.657333
-2.221542 5.689835 -0.641251
-2.235153 5.702927 -0.630753
-2.237808 5.699905 -0.639542
-2.204269 5.688919 -0.641251
-2.187607 5.688187 -0.641220
-2.198441 5.691299 -0.654160
-2.193192 5.693497 -0.626144
-2.171066 5.691971 -0.640335
-2.171402 5.689713 -0.675949
-2.171432 5.688248 -0.658646
-2.057388 5.630295 -0.686722
-2.088577 5.667709 -0.714920
-2.104477 5.685196 -0.746841
-2.121964 5.687393 -0.728836
-2.104630 5.681931 -0.729813
-2.087784 5.682541 -0.747238
-2.071518 5.675827 -0.748520
-2.077072 5.684616 -0.747574
-2.068069 5.659561 -0.720810
-2.072006 5.666672 -0.732712
-2.091324 5.678391 -0.722733
-2.088272 5.673569 -0.731400
-2.075699 5.656204 -0.694931
-2.072769 5.651199 -0.700394
-2.122025 5.685349 -0.711624
-2.104843 5.677414 -0.713089
-2.121994 5.684494 -0.694138
-2.105087 5.672226 -0.696457
-2.101486 5.673935 -0.697250
-2.072495 5.657059 -0.716965
-2.088791 5.662949 -0.698196
-2.054581 5.637222 -0.693314
-2.041428 5.635605 -0.734756
-2.039963 5.638474 -0.738235
-2.055984 5.655197 -0.734940
-2.037552 5.644760 -0.744705
-2.046951 5.640579 -0.719162
-2.040543 5.626694 -0.722855
-2.056656 5.645432 -0.719193
-2.056137 5.664810 -0.745956
-2.057022 5.637802 -0.702957
-2.121933 5.689835 -0.746048
-2.122757 5.670242 -0.644058
-2.073074 5.645126 -0.683914
-2.073288 5.639328 -0.667313
-2.062759 5.633560 -0.667526
-2.089249 5.652817 -0.664810
-2.082901 5.653000 -0.668961
-2.105270 5.668198 -0.679611
-2.122299 5.679092 -0.677597
-2.105453 5.664200 -0.662735
-2.107162 5.671402 -0.670975
-2.122360 5.676651 -0.660446
-2.088882 5.659561 -0.681168
-2.070267 5.630234 -0.641617
-2.073288 5.638474 -0.649765
-2.089493 5.647293 -0.648209
-2.088760 5.650406 -0.642807
-2.073898 5.626816 -0.634293
-2.089676 5.642960 -0.631332
-2.105667 5.659439 -0.645981
-2.109055 5.670578 -0.644211
-2.122910 5.666550 -0.627151
-2.105484 5.661026 -0.628036
-2.101974 5.543686 -0.519150
-2.087448 5.547958 -0.579178
-2.099625 5.506058 -0.613815
-2.102524 5.502914 -0.620468
-2.103806 5.506210 -0.605850
-2.086990 5.521622 -0.614334
-2.091629 5.516434 -0.621384
-2.092850 5.526047 -0.596664
-2.092911 5.519852 -0.606766
-2.092300 5.527267 -0.594376
-2.080154 5.542770 -0.615585
-2.081894 5.533188 -0.622665
-2.074905 5.540024 -0.620193
-2.076401 5.560471 -0.610062
-2.073349 5.552322 -0.624222
-2.086411 5.534805 -0.594711
-2.084610 5.540421 -0.608444
-2.086044 5.544235 -0.593826
-2.083359 5.546402 -0.595352
-2.104111 5.507065 -0.590988
-2.101486 5.508377 -0.593399
-2.095016 5.525345 -0.592361
-2.105789 5.511429 -0.576462
-2.105118 5.512070 -0.573196
-2.094833 5.531021 -0.568771
-2.096786 5.530075 -0.577866
-2.094131 5.529556 -0.573929
-2.098404 5.534286 -0.563278
-2.090164 5.555161 -0.564865
-2.086624 5.550064 -0.575058
-2.085800 5.606827 -0.579086
-2.073990 5.564224 -0.616898
-2.070297 5.571243 -0.617905
-2.073410 5.593704 -0.619064
-2.080154 5.570694 -0.596939
-2.080887 5.572433 -0.596268
-2.078018 5.582748 -0.599197
-2.077835 5.585068 -0.596878
-2.075424 5.599167 -0.613754
-2.071701 5.598312 -0.616531
-2.074265 5.619400 -0.617996
-2.077499 5.598221 -0.598862
-2.083450 5.623062 -0.601669
-2.077469 5.568008 -0.591812
-2.083664 5.579880 -0.581955
-2.084183 5.565018 -0.565689
-2.084610 5.575577 -0.576797
-2.085800 5.585617 -0.567429
-2.085220 5.587143 -0.566177
-2.082840 5.593277 -0.564041
-2.077164 5.595840 -0.590286
-2.090652 5.623428 -0.581955
-2.084183 5.624008 -0.589584
-2.091049 5.616104 -0.565598
-2.092941 5.620132 -0.563797
-2.102982 5.546371 -0.504410
-2.117966 5.500717 -0.560959
-2.106644 5.514053 -0.552750
-2.106674 5.513779 -0.561752
-2.108444 5.518326 -0.547226
-2.118698 5.502670 -0.546219
-2.110580 5.518326 -0.532547
-2.109238 5.520432 -0.532455
-2.100449 5.528458 -0.542435
-2.098709 5.534500 -0.553818
-2.097885 5.532852 -0.552261
-2.099380 5.536911 -0.548538
-2.101639 5.537827 -0.533493
-2.100449 5.539658 -0.533798
-2.095627 5.559830 -0.534744
-2.092422 5.556229 -0.555069
-2.093155 5.560959 -0.539871
-2.119278 5.504135 -0.516464
-2.118515 5.502151 -0.531235
-2.110550 5.523911 -0.517807
-2.108353 5.524826 -0.516373
-2.120468 5.507187 -0.501816
-2.112259 5.528366 -0.503250
-2.111374 5.519699 -0.512039
-2.102798 5.539566 -0.512985
-2.104202 5.541580 -0.507889
-2.096786 5.559280 -0.513290
-2.102310 5.597214 -0.500168
-2.094223 5.565964 -0.535812
-2.095993 5.593216 -0.533340
-2.093491 5.564041 -0.550705
-2.088974 5.580338 -0.556595
-2.091995 5.583847 -0.536209
-2.089554 5.590256 -0.537918
-2.096939 5.618301 -0.537277
-2.102859 5.624466 -0.539444
-2.089127 5.594467 -0.553207
-2.090500 5.603500 -0.552597
-2.091690 5.604141 -0.550064
-2.093185 5.614548 -0.559128
-2.095993 5.570663 -0.521194
-2.098373 5.590530 -0.516190
-2.098740 5.563400 -0.514389
-2.096146 5.587326 -0.511765
-2.101151 5.616440 -0.510818
-2.107559 5.620560 -0.512009
-2.139267 5.664566 -0.522232
-2.154984 5.683090 -0.589188
-2.155045 5.684586 -0.624039
-2.143326 5.685440 -0.620468
-2.138748 5.679062 -0.624924
-2.146194 5.684158 -0.593765
-2.154892 5.685532 -0.606277
-2.138718 5.678146 -0.607498
-2.138779 5.676193 -0.590317
-2.127609 5.662399 -0.565598
-2.147263 5.683670 -0.566818
-2.155014 5.681778 -0.571884
-2.138931 5.672897 -0.573380
-2.239517 5.733963 -0.581223
-2.237473 5.702744 -0.621414
-2.221390 5.690750 -0.623520
-2.220932 5.695023 -0.605179
-2.233932 5.703415 -0.603256
-2.204056 5.690384 -0.623398
-2.203873 5.691757 -0.605606
-2.190414 5.694626 -0.598495
-2.240097 5.729599 -0.602615
-2.221054 5.693100 -0.587997
-2.237198 5.704514 -0.586044
-2.220993 5.692459 -0.570572
-2.233475 5.703537 -0.575912
-2.203751 5.692245 -0.587967
-2.203598 5.693100 -0.570267
-2.189865 5.694839 -0.571213
-2.239426 5.729843 -0.575241
-2.187057 5.692307 -0.587784
-2.187393 5.689957 -0.623306
-2.171036 5.691025 -0.622971
-2.187241 5.690903 -0.605576
-2.171036 5.689957 -0.605606
-2.170914 5.690506 -0.587967
-2.186935 5.692947 -0.570145
-2.170822 5.690750 -0.570419
-2.154800 5.681015 -0.519516
-2.139114 5.668869 -0.556564
-2.154892 5.682358 -0.554276
-2.128708 5.661880 -0.538681
-2.139236 5.666183 -0.539474
-2.154556 5.685349 -0.536240
-2.148209 5.683243 -0.539841
-2.139084 5.666000 -0.504471
-2.131119 5.660812 -0.511948
-2.155045 5.676529 -0.502792
-2.152786 5.681198 -0.513351
-2.234665 5.731735 -0.520065
-2.237167 5.702713 -0.551407
-2.236252 5.702347 -0.548996
-2.220932 5.692368 -0.553085
-2.220993 5.690750 -0.535904
-2.203537 5.693008 -0.552811
-2.203445 5.693130 -0.535294
-2.189316 5.694992 -0.543961
-2.236008 5.731247 -0.547501
-2.237900 5.734299 -0.547012
-2.236130 5.702347 -0.521713
-2.220779 5.692307 -0.518143
-2.220749 5.691666 -0.500778
-2.203232 5.694595 -0.517563
-2.189194 5.695023 -0.516769
-2.203262 5.693283 -0.500351
-2.236832 5.734879 -0.512894
-2.186783 5.691818 -0.517899
-2.186874 5.692154 -0.552780
-2.170792 5.690262 -0.552994
-2.186813 5.691910 -0.535355
-2.170731 5.689713 -0.535599
-2.170670 5.689316 -0.518204
-2.186722 5.691269 -0.500565
-2.170731 5.687698 -0.501022
-2.123398 5.651749 -0.524338
-2.123123 5.660904 -0.593002
-2.096603 5.646927 -0.616898
-2.106064 5.649216 -0.595016
-2.079422 5.626144 -0.615921
-2.089859 5.638290 -0.614578
-2.090317 5.630447 -0.598343
-2.123032 5.663651 -0.610062
-2.118240 5.666519 -0.618454
-2.105698 5.656296 -0.611343
-2.100449 5.645187 -0.590378
-2.100143 5.631912 -0.569260
-2.123428 5.655167 -0.576462
-2.102310 5.644363 -0.563583
-2.106186 5.646133 -0.577988
-2.121658 5.665024 -0.591843
-2.111435 5.640274 -0.510788
-2.123428 5.654068 -0.559067
-2.106216 5.644730 -0.560623
-2.108505 5.636917 -0.536209
-2.106461 5.639450 -0.543961
-2.123337 5.653824 -0.541519
-2.106674 5.642380 -0.537155
-2.123550 5.648422 -0.507370
-2.116928 5.641922 -0.503098
-2.304794 5.876907 -0.589554
-2.424454 5.848404 -0.648544
-2.408768 5.844284 -0.718246
-2.409286 5.839157 -0.701981
-2.422440 5.867722 -0.713699
-2.423325 5.859665 -0.698074
-2.437881 5.873398 -0.643936
-2.438553 5.867447 -0.627884
-2.424515 5.847641 -0.631454
-2.409744 5.834824 -0.685532
-2.410233 5.829941 -0.669174
-2.423691 5.856155 -0.681534
-2.423874 5.853714 -0.664749
-2.410294 5.828903 -0.652084
-2.410263 5.828201 -0.634903
-2.393234 5.831741 -0.633926
-2.257187 5.854874 -0.644608
-2.251053 5.869919 -0.705582
-2.251389 5.854202 -0.690414
-2.255814 5.871811 -0.692795
-2.371689 5.871323 -0.643112
-2.372208 5.866043 -0.626968
-2.263199 5.866989 -0.648819
-2.256332 5.865738 -0.676804
-2.253311 5.868942 -0.678665
-2.250717 5.846268 -0.656357
-2.250839 5.854263 -0.668808
-2.256912 5.858414 -0.661087
-2.251511 5.841049 -0.625443
-2.259262 5.866470 -0.652298
-2.257065 5.855087 -0.627365
-2.262619 5.865097 -0.625534
-2.437119 5.880997 -0.676804
-2.449478 5.912888 -0.704971
-2.447922 5.926620 -0.736435
-2.448410 5.922226 -0.720200
-2.451340 5.935226 -0.728226
-2.495651 5.936996 -0.701065
-2.479416 5.930557 -0.702011
-2.462814 5.934006 -0.718063
-2.450119 5.907181 -0.688980
-2.443802 5.908981 -0.700974
-2.463791 5.925674 -0.702652
-2.465561 5.929642 -0.702682
-2.387161 5.888657 -0.708725
-2.418289 5.904373 -0.740463
-2.421494 5.876419 -0.729172
-2.434616 5.903488 -0.723770
-2.385269 5.906082 -0.722244
-2.434097 5.908096 -0.740036
-2.431778 5.913773 -0.726791
-2.401718 5.906815 -0.739609
-2.383835 5.919540 -0.736588
-2.435837 5.892685 -0.708847
-2.436630 5.885422 -0.693130
-2.497452 5.945633 -0.705948
-2.475693 5.961136 -0.746902
-2.477036 5.950211 -0.732101
-2.492142 5.964951 -0.729355
-2.472488 5.955399 -0.729935
-2.460068 5.955093 -0.747818
-2.461349 5.944412 -0.732956
-2.490982 5.974350 -0.744431
-2.494186 5.948746 -0.715683
-2.478195 5.940567 -0.717056
-2.381882 5.937515 -0.749893
-2.499100 5.908981 -0.655380
-2.451431 5.896072 -0.674088
-2.452713 5.905411 -0.674606
-2.437515 5.877060 -0.660385
-2.452103 5.889969 -0.658127
-2.466812 5.899857 -0.656479
-2.496445 5.930527 -0.685287
-2.480728 5.923630 -0.677200
-2.480209 5.923691 -0.686295
-2.497604 5.921219 -0.670029
-2.481125 5.916306 -0.670670
-2.466019 5.906723 -0.672226
-2.464828 5.916672 -0.687363
-2.499557 5.905258 -0.638962
-2.483505 5.896347 -0.640335
-2.440079 5.880753 -0.646652
-2.452682 5.884781 -0.641983
-2.467636 5.892838 -0.640732
-2.464096 5.900864 -0.648575
-2.453323 5.878860 -0.625992
-2.482193 5.907211 -0.655350
-2.430344 5.884689 -0.672867
-2.304428 5.906387 -0.655869
-2.332535 5.930954 -0.716141
-2.366592 5.920761 -0.718857
-2.365524 5.931412 -0.733749
-2.349228 5.936356 -0.732407
-2.368301 5.904190 -0.688004
-2.368118 5.906387 -0.704697
-2.349991 5.928452 -0.716934
-2.350693 5.921341 -0.701309
-2.315872 5.931686 -0.715683
-2.333450 5.921432 -0.701004
-2.316727 5.922836 -0.700455
-2.277328 5.917343 -0.706436
-2.253159 5.903702 -0.737717
-2.253433 5.899460 -0.721420
-2.250290 5.899490 -0.731094
-2.282974 5.932358 -0.732132
-2.266953 5.934158 -0.748581
-2.268051 5.921585 -0.734146
-2.265640 5.922104 -0.731888
-2.254410 5.888046 -0.706650
-2.255325 5.886368 -0.714767
-2.257034 5.896713 -0.704910
-2.264786 5.888382 -0.693832
-2.267166 5.898636 -0.694717
-2.301804 5.936050 -0.708603
-2.299973 5.931198 -0.715500
-2.283310 5.928024 -0.715897
-2.300888 5.921555 -0.700424
-2.283981 5.920517 -0.700394
-2.268478 5.916397 -0.718124
-2.269333 5.906876 -0.702988
-2.330612 5.950699 -0.746109
-2.364456 5.941513 -0.748703
-2.348343 5.945175 -0.747604
-2.314041 5.951218 -0.745712
-2.331894 5.937698 -0.731796
-2.315262 5.938522 -0.731339
-2.298386 5.948837 -0.745926
-2.282211 5.940872 -0.747391
-2.298965 5.942123 -0.730301
-2.285934 5.942398 -0.733475
-2.335464 5.900162 -0.654007
-2.369064 5.896378 -0.672440
-2.370560 5.882278 -0.658127
-2.352829 5.900040 -0.671432
-2.334915 5.905960 -0.669937
-2.351517 5.913040 -0.685898
-2.334305 5.912582 -0.685715
-2.317551 5.913925 -0.685165
-2.317825 5.910599 -0.668747
-2.354660 5.881790 -0.640762
-2.353622 5.892075 -0.655899
-2.318832 5.899796 -0.653793
-2.336044 5.893784 -0.638107
-2.319626 5.891586 -0.638290
-2.274704 5.889481 -0.653030
-2.302261 5.906021 -0.669418
-2.285538 5.903030 -0.669754
-2.267746 5.892319 -0.679245
-2.270645 5.891190 -0.671921
-2.269760 5.901260 -0.686996
-2.271378 5.882339 -0.656540
-2.301498 5.914322 -0.684830
-2.289719 5.912338 -0.680984
-2.284866 5.910629 -0.685287
-2.302658 5.901474 -0.653183
-2.286026 5.897110 -0.653824
-2.285782 5.884964 -0.627396
-2.303268 5.894516 -0.637497
-2.286545 5.890945 -0.637924
-2.271713 5.878403 -0.640182
-2.394394 5.817123 -0.515976
-2.439682 5.856522 -0.578415
-2.453842 5.874130 -0.609726
-2.438919 5.863968 -0.611343
-2.439285 5.860275 -0.594894
-2.469894 5.872757 -0.575974
-2.454208 5.870682 -0.593216
-2.458603 5.873245 -0.566299
-2.454147 5.870651 -0.576065
-2.429428 5.856064 -0.591324
-2.410263 5.827927 -0.617691
-2.410507 5.825180 -0.600937
-2.425095 5.841599 -0.598129
-2.393967 5.824417 -0.618057
-2.394333 5.820694 -0.601517
-2.424820 5.844254 -0.614822
-2.423691 5.858383 -0.618149
-2.410507 5.824631 -0.583786
-2.425156 5.840378 -0.581131
-2.410568 5.823593 -0.566727
-2.425064 5.840408 -0.563919
-2.393997 5.823227 -0.583755
-2.394730 5.815903 -0.567886
-2.435013 5.853775 -0.564499
-2.455826 5.855667 -0.527390
-2.486679 5.869186 -0.559799
-2.469559 5.874893 -0.558456
-2.487167 5.864914 -0.543442
-2.470169 5.869461 -0.542313
-2.440048 5.852951 -0.561874
-2.454666 5.866135 -0.559769
-2.455521 5.858627 -0.543991
-2.440109 5.851944 -0.544907
-2.463058 5.871445 -0.539261
-2.487564 5.861252 -0.526962
-2.470718 5.864639 -0.526047
-2.487869 5.858353 -0.510330
-2.479568 5.864792 -0.513809
-2.471024 5.861740 -0.509445
-2.440018 5.851974 -0.527756
-2.456192 5.852280 -0.510849
-2.441849 5.850937 -0.510239
-2.440445 5.848190 -0.511276
-2.425278 5.839462 -0.529739
-2.410751 5.821487 -0.549881
-2.410385 5.823959 -0.532211
-2.425125 5.839645 -0.546860
-2.394791 5.814896 -0.550797
-2.394638 5.815750 -0.533432
-2.437027 5.852921 -0.537155
-2.410568 5.821915 -0.515396
-2.425552 5.836533 -0.513077
-2.251846 5.812485 -0.518051
-2.338089 5.871933 -0.573868
-2.372757 5.860428 -0.610855
-2.373215 5.855637 -0.594589
-2.373642 5.850967 -0.578293
-2.356186 5.865280 -0.592514
-2.356430 5.862686 -0.575851
-2.321426 5.871017 -0.573807
-2.270035 5.858200 -0.589310
-2.258072 5.842575 -0.595383
-2.252213 5.840744 -0.598312
-2.257309 5.851700 -0.610825
-2.255447 5.850113 -0.622513
-2.272141 5.872940 -0.624130
-2.272751 5.865463 -0.608383
-2.265152 5.863998 -0.598679
-2.252090 5.828354 -0.580917
-2.258347 5.838791 -0.578934
-2.255661 5.839249 -0.571579
-2.288010 5.873703 -0.589920
-2.305252 5.871689 -0.573441
-2.288010 5.872696 -0.573013
-2.273178 5.860275 -0.592239
-2.273514 5.856033 -0.575912
-2.273941 5.860367 -0.572708
-2.250717 5.797897 -0.514542
-2.339188 5.859299 -0.524857
-2.373795 5.849106 -0.561478
-2.356827 5.858261 -0.559525
-2.374130 5.845413 -0.544968
-2.357040 5.855728 -0.542862
-2.338272 5.869186 -0.557266
-2.321762 5.867264 -0.557388
-2.338821 5.863449 -0.541214
-2.322220 5.861923 -0.541275
-2.374344 5.842636 -0.528336
-2.374771 5.838333 -0.511948
-2.357040 5.854843 -0.525925
-2.357529 5.850052 -0.509659
-2.322495 5.858597 -0.524765
-2.339615 5.854416 -0.508621
-2.322891 5.853806 -0.508530
-2.288620 5.854294 -0.520218
-2.253494 5.815964 -0.552017
-2.258774 5.835464 -0.560196
-2.258530 5.835953 -0.562271
-2.258591 5.834305 -0.545425
-2.256424 5.838913 -0.544479
-2.305344 5.870102 -0.556625
-2.288895 5.863083 -0.557693
-2.289291 5.858047 -0.541519
-2.282791 5.856705 -0.546677
-2.305862 5.864090 -0.540634
-2.273880 5.851212 -0.559677
-2.274307 5.845932 -0.543503
-2.256668 5.819046 -0.518082
-2.274765 5.840225 -0.527390
-2.261154 5.836929 -0.517929
-2.258560 5.833878 -0.528336
-2.259628 5.821640 -0.513382
-2.274887 5.838181 -0.510635
-2.289902 5.850845 -0.525711
-2.305984 5.861984 -0.523941
-2.306564 5.855667 -0.507980
-2.290237 5.846756 -0.509354
-2.453964 5.875168 -0.593307
-2.485306 5.880936 -0.591904
-2.484055 5.891617 -0.624161
-2.479874 5.894577 -0.623154
-2.490891 5.890182 -0.596970
-2.484482 5.887955 -0.607712
-2.468918 5.881485 -0.608627
-2.468063 5.888840 -0.624344
-2.446640 5.878128 -0.619949
-2.469070 5.879929 -0.591782
-2.485733 5.877213 -0.575455
-2.303818 5.888382 -0.621597
-2.337662 5.876480 -0.590103
-2.355270 5.875473 -0.624863
-2.355209 5.875259 -0.607742
-2.336868 5.885605 -0.622604
-2.319595 5.890915 -0.621323
-2.337570 5.878128 -0.606918
-2.320236 5.884140 -0.605545
-2.321060 5.875443 -0.590073
-2.287491 5.880295 -0.622910
-2.304276 5.882767 -0.605545
-2.295486 5.880966 -0.601486
-2.287827 5.876450 -0.606522
-2.242935 5.787918 -0.518265
-2.241318 5.788803 -0.654221
-2.238144 5.790207 -0.708298
-2.238937 5.760880 -0.737411
-2.242661 5.769058 -0.720047
-2.238022 5.790298 -0.735611
-2.243515 5.805740 -0.722244
-2.239243 5.760696 -0.710098
-2.245346 5.807693 -0.688187
-2.243637 5.844406 -0.706039
-2.242264 5.816788 -0.734665
-2.242050 5.839951 -0.724136
-2.240158 5.841965 -0.731918
-2.239151 5.874466 -0.743668
-2.238815 5.846420 -0.732559
-2.246536 5.871811 -0.732162
-2.242020 5.816849 -0.707321
-2.242020 5.840225 -0.716324
-2.247604 5.843704 -0.690353
-2.249557 5.851791 -0.711655
-2.243423 5.807907 -0.653824
-2.241043 5.759903 -0.683060
-2.241898 5.769791 -0.685837
-2.240311 5.789261 -0.681351
-2.240799 5.759964 -0.655685
-2.240128 5.770065 -0.651535
-2.239243 5.760544 -0.628189
-2.241898 5.788528 -0.627029
-2.245316 5.819931 -0.644424
-2.246048 5.819443 -0.687393
-2.242447 5.816666 -0.680130
-2.245224 5.843704 -0.679001
-2.245285 5.819290 -0.665848
-2.240158 5.817551 -0.652512
-2.248184 5.842484 -0.652176
-2.241104 5.817093 -0.625412
-2.243729 5.816910 -0.634567
-2.249557 5.880051 -0.735580
-2.249832 5.880081 -0.726944
-2.245499 5.791275 -0.518539
-2.244186 5.789780 -0.577896
-2.238907 5.770615 -0.617325
-2.239944 5.760239 -0.600998
-2.245102 5.809799 -0.619797
-2.242752 5.787796 -0.599075
-2.240494 5.789047 -0.599594
-2.241348 5.772842 -0.583389
-2.238022 5.761002 -0.573471
-2.239761 5.789322 -0.572250
-2.248611 5.812546 -0.585831
-2.243607 5.817520 -0.617172
-2.245407 5.820633 -0.623001
-2.244827 5.815536 -0.598740
-2.248459 5.824173 -0.601944
-2.247757 5.814285 -0.571915
-2.245682 5.788284 -0.501816
-2.242081 5.774277 -0.549332
-2.239243 5.760452 -0.546402
-2.246872 5.793015 -0.556839
-2.248611 5.795273 -0.535660
-2.243240 5.787827 -0.545486
-2.236893 5.761368 -0.518875
-2.245407 5.776932 -0.515427
-2.249039 5.813675 -0.544876
-2.548080 5.410690 -0.026321
-2.551590 5.415207 -0.261063
-2.547043 5.412796 -0.396744
-2.536026 5.420151 -0.463425
-2.512558 5.404037 -0.491684
-2.517807 5.394577 -0.477554
-2.511978 5.402786 -0.476486
-2.502151 5.397507 -0.477859
-2.535446 5.418869 -0.493576
-2.542679 5.412186 -0.478226
-2.536026 5.420181 -0.478561
-2.561508 5.432144 -0.478989
-2.511307 5.401321 -0.461288
-2.520950 5.393906 -0.450333
-2.510757 5.400101 -0.446152
-2.542801 5.413101 -0.451096
-2.535263 5.418472 -0.448166
-2.561203 5.433273 -0.451859
-2.588242 5.479965 -0.453537
-2.576462 5.454147 -0.479782
-2.588455 5.478867 -0.480667
-2.576675 5.455002 -0.452652
-2.565323 5.433029 -0.397537
-2.565079 5.432175 -0.424667
-2.533493 5.414688 -0.402542
-2.524673 5.392899 -0.423111
-2.509872 5.398209 -0.430954
-2.509445 5.397263 -0.415848
-2.545578 5.412582 -0.423904
-2.532883 5.413437 -0.432632
-2.533432 5.414566 -0.417648
-2.526077 5.393112 -0.395950
-2.509354 5.397110 -0.400803
-2.509628 5.397629 -0.385818
-2.532516 5.412613 -0.387314
-2.587936 5.482071 -0.399307
-2.576889 5.455887 -0.425522
-2.588425 5.480850 -0.426407
-2.580734 5.454788 -0.398392
-2.506210 5.390274 -0.280350
-2.565323 5.434982 -0.343307
-2.566269 5.433487 -0.370438
-2.566452 5.435349 -0.316177
-2.550278 5.412979 -0.342453
-2.526810 5.393723 -0.368790
-2.509293 5.396957 -0.370743
-2.508652 5.395523 -0.355637
-2.547287 5.413651 -0.369614
-2.532364 5.412308 -0.372208
-2.531784 5.411057 -0.357040
-2.526413 5.394882 -0.341629
-2.508011 5.394150 -0.340530
-2.500839 5.377029 -0.313522
-2.527786 5.395126 -0.314438
-2.507431 5.392899 -0.325455
-2.532333 5.412216 -0.342056
-2.547867 5.415237 -0.315323
-2.531357 5.410080 -0.326859
-2.559708 5.435501 -0.313644
-2.584030 5.487076 -0.317886
-2.580246 5.456009 -0.371262
-2.578781 5.457779 -0.344162
-2.588272 5.482864 -0.372147
-2.586807 5.484634 -0.345016
-2.578110 5.459061 -0.317001
-2.562424 5.441269 -0.329147
-2.566879 5.437057 -0.261948
-2.567886 5.435532 -0.289047
-2.529190 5.405441 -0.266434
-2.531357 5.394211 -0.287308
-2.529312 5.405746 -0.311569
-2.506363 5.390640 -0.310349
-2.502213 5.377274 -0.286301
-2.528244 5.403458 -0.281357
-2.528885 5.404800 -0.296463
-2.506577 5.391068 -0.295395
-2.550400 5.414871 -0.288223
-2.531906 5.394913 -0.260147
-2.506027 5.389847 -0.250412
-2.503983 5.377304 -0.259140
-2.506241 5.390335 -0.265396
-2.529129 5.405319 -0.251419
-2.582443 5.489883 -0.263565
-2.577652 5.460312 -0.289902
-2.584091 5.488022 -0.290726
-2.578629 5.460739 -0.262772
-2.547043 5.408493 -0.011307
-2.557632 5.415878 -0.152603
-2.555954 5.414841 -0.206833
-2.533798 5.394882 -0.233017
-2.505600 5.388962 -0.235397
-2.527939 5.402786 -0.236282
-2.505814 5.389389 -0.220444
-2.503098 5.378738 -0.231918
-2.527756 5.402390 -0.221237
-2.553085 5.415421 -0.233932
-2.534653 5.395401 -0.205856
-2.505264 5.378555 -0.204758
-2.505875 5.389511 -0.205521
-2.528305 5.403519 -0.206284
-2.504898 5.387405 -0.190475
-2.528549 5.404068 -0.191269
-2.555038 5.425522 -0.207352
-2.554642 5.424728 -0.192245
-2.585129 5.490402 -0.209274
-2.567825 5.437515 -0.234787
-2.579422 5.461288 -0.235641
-2.583603 5.490250 -0.236435
-2.569290 5.437698 -0.207687
-2.579483 5.462234 -0.208481
-2.557877 5.416733 -0.125473
-2.534714 5.396317 -0.178696
-2.508224 5.377975 -0.177567
-2.505020 5.387650 -0.175552
-2.527267 5.401321 -0.176193
-2.504013 5.385483 -0.160538
-2.527328 5.401413 -0.161179
-2.554031 5.416824 -0.179672
-2.537216 5.395981 -0.151596
-2.503403 5.384201 -0.145554
-2.509628 5.378220 -0.150406
-2.527328 5.401413 -0.146194
-2.503433 5.384262 -0.130630
-2.525467 5.397476 -0.131088
-2.586380 5.491653 -0.154953
-2.570023 5.438278 -0.180588
-2.581161 5.462326 -0.181412
-2.586990 5.490341 -0.182144
-2.571701 5.438370 -0.153488
-2.581009 5.463364 -0.154251
-2.572556 5.438889 -0.126358
-2.581223 5.464218 -0.127121
-2.586899 5.492386 -0.127823
-2.521957 5.389938 -0.026199
-2.561783 5.416580 -0.071274
-2.538345 5.396347 -0.124435
-2.541733 5.395157 -0.097366
-2.502762 5.382797 -0.115677
-2.511459 5.378220 -0.123245
-2.524551 5.395493 -0.116074
-2.513870 5.377945 -0.096115
-2.501328 5.379684 -0.100693
-2.524368 5.395096 -0.101089
-2.559677 5.416733 -0.098373
-2.541824 5.396072 -0.070206
-2.501419 5.379898 -0.085770
-2.523666 5.393600 -0.086075
-2.517258 5.377151 -0.068985
-2.501205 5.379440 -0.070847
-2.523361 5.392960 -0.071121
-2.590530 5.492355 -0.073563
-2.575638 5.438217 -0.099289
-2.583542 5.463943 -0.100021
-2.589645 5.491867 -0.100723
-2.576889 5.438522 -0.072189
-2.586533 5.463333 -0.072952
-2.566391 5.416092 -0.017136
-2.563858 5.416458 -0.044235
-2.522903 5.376083 -0.014786
-2.544510 5.395584 -0.043137
-2.500015 5.376877 -0.055923
-2.522629 5.391373 -0.056137
-2.519180 5.377090 -0.041855
-2.521835 5.389664 -0.041153
-2.500198 5.377243 -0.041000
-2.549149 5.412979 -0.041367
-2.546066 5.395767 -0.016037
-2.520584 5.386978 -0.011246
-2.593246 5.492844 -0.019333
-2.579330 5.438156 -0.045151
-2.586441 5.464340 -0.045822
-2.592178 5.492447 -0.046463
-2.580582 5.438492 -0.018051
-2.588669 5.464127 -0.018753
-2.257675 5.376053 -0.025681
-2.278976 5.388412 -0.275925
-2.443863 5.374527 -0.394547
-2.393600 5.393478 -0.397354
-2.454697 5.384933 -0.458328
-2.472610 5.388351 -0.489120
-2.492081 5.394974 -0.490280
-2.471878 5.386734 -0.473984
-2.480545 5.381821 -0.477005
-2.491592 5.393875 -0.475174
-2.455795 5.387405 -0.488480
-2.460037 5.387711 -0.496719
-2.438736 5.384872 -0.487717
-2.455826 5.384598 -0.475296
-2.455276 5.386215 -0.473404
-2.439468 5.386520 -0.472885
-2.471024 5.384903 -0.458847
-2.491135 5.392868 -0.460037
-2.492172 5.395370 -0.468094
-2.489609 5.389572 -0.444748
-2.485397 5.380264 -0.449692
-2.470810 5.384384 -0.443832
-2.453232 5.382889 -0.454056
-2.439377 5.386307 -0.457932
-2.453995 5.383438 -0.443222
-2.438705 5.384781 -0.442856
-2.394485 5.395493 -0.457138
-2.423019 5.386581 -0.487289
-2.426346 5.386002 -0.495255
-2.407669 5.389969 -0.487045
-2.424911 5.385300 -0.474167
-2.422745 5.385971 -0.472305
-2.407303 5.389175 -0.472031
-2.394882 5.396866 -0.487137
-2.400375 5.393051 -0.494644
-2.382706 5.403732 -0.487228
-2.381577 5.403885 -0.494614
-2.399277 5.392593 -0.473618
-2.394638 5.396317 -0.472153
-2.380295 5.403305 -0.473557
-2.382492 5.403183 -0.472244
-2.422775 5.386032 -0.457382
-2.429794 5.386765 -0.467270
-2.406754 5.387955 -0.457016
-2.422501 5.385422 -0.442398
-2.433029 5.378220 -0.449295
-2.423264 5.384445 -0.453049
-2.406662 5.387711 -0.442062
-2.395493 5.395401 -0.468185
-2.382217 5.402634 -0.457260
-2.385941 5.401810 -0.466721
-2.394547 5.395615 -0.442245
-2.398392 5.392380 -0.452652
-2.382126 5.402390 -0.442337
-2.378067 5.401901 -0.452469
-2.451981 5.378952 -0.398056
-2.489639 5.378983 -0.422379
-2.488754 5.387741 -0.429611
-2.488480 5.386703 -0.434464
-2.488632 5.389481 -0.423294
-2.470383 5.383469 -0.428787
-2.486771 5.385788 -0.413254
-2.488388 5.386887 -0.414566
-2.470078 5.382797 -0.413773
-2.453354 5.381973 -0.428177
-2.439774 5.375687 -0.421890
-2.448135 5.381790 -0.435440
-2.452103 5.382431 -0.432938
-2.438126 5.383499 -0.427811
-2.453079 5.381393 -0.413193
-2.449631 5.380844 -0.411758
-2.494583 5.377396 -0.395157
-2.488022 5.386093 -0.399521
-2.482590 5.382675 -0.391861
-2.469925 5.382462 -0.398788
-2.485886 5.384720 -0.378525
-2.487473 5.384933 -0.384445
-2.469254 5.380997 -0.383743
-2.443069 5.380692 -0.401016
-2.453262 5.381760 -0.383347
-2.447739 5.379745 -0.390610
-2.379959 5.397415 -0.397202
-2.429276 5.385239 -0.422592
-2.421646 5.383499 -0.427322
-2.421097 5.383072 -0.431931
-2.407669 5.389969 -0.427322
-2.437363 5.381851 -0.412766
-2.419693 5.382401 -0.410873
-2.421585 5.383377 -0.412399
-2.407333 5.389206 -0.412369
-2.394150 5.394699 -0.427261
-2.391861 5.394882 -0.433945
-2.397018 5.391739 -0.431595
-2.384354 5.398697 -0.422073
-2.376419 5.400986 -0.431442
-2.381363 5.400650 -0.427261
-2.396286 5.391647 -0.410629
-2.393723 5.393753 -0.412277
-2.381088 5.400040 -0.412308
-2.437149 5.381302 -0.397781
-2.420853 5.381760 -0.397385
-2.407181 5.388870 -0.397446
-2.436386 5.379654 -0.382767
-2.427658 5.382126 -0.377945
-2.420883 5.381821 -0.382492
-2.418625 5.382034 -0.389847
-2.406937 5.388290 -0.382492
-2.389359 5.394882 -0.399765
-2.393387 5.393021 -0.382401
-2.395615 5.391617 -0.389694
-2.379593 5.396591 -0.382278
-2.382553 5.395248 -0.377426
-2.266037 5.396103 -0.394089
-2.337265 5.407669 -0.466110
-2.317978 5.404343 -0.485153
-2.320480 5.404373 -0.492203
-2.334854 5.406143 -0.470932
-2.333511 5.397659 -0.477005
-2.318588 5.403214 -0.471237
-2.317337 5.402878 -0.470139
-2.369278 5.409134 -0.487198
-2.351822 5.409012 -0.486618
-2.356400 5.409378 -0.493942
-2.368515 5.407394 -0.472122
-2.354324 5.408096 -0.472885
-2.351395 5.408005 -0.471603
-2.335098 5.406693 -0.485886
-2.367783 5.405746 -0.457047
-2.367508 5.405045 -0.442062
-2.350571 5.406082 -0.441635
-2.350052 5.404800 -0.451645
-2.334091 5.404373 -0.455917
-2.317368 5.402939 -0.455276
-2.333664 5.403397 -0.440933
-2.338150 5.396255 -0.449356
-2.316879 5.401749 -0.440323
-2.315598 5.401077 -0.450180
-2.351028 5.407150 -0.456619
-2.266068 5.396225 -0.453262
-2.301620 5.403214 -0.484543
-2.301987 5.404068 -0.499496
-2.286087 5.401260 -0.490646
-2.285355 5.403549 -0.498886
-2.300949 5.401657 -0.469559
-2.284134 5.400040 -0.469742
-2.284256 5.392258 -0.476669
-2.284744 5.402115 -0.483902
-2.284378 5.401291 -0.469009
-2.267838 5.400436 -0.498062
-2.251846 5.398453 -0.489120
-2.252365 5.400650 -0.497574
-2.267227 5.399002 -0.483109
-2.252121 5.400040 -0.482712
-2.300491 5.400497 -0.454605
-2.283859 5.400070 -0.454056
-2.300491 5.400528 -0.439774
-2.283951 5.400284 -0.439255
-2.288284 5.391129 -0.448898
-2.278702 5.399796 -0.465317
-2.267349 5.399277 -0.468338
-2.250931 5.398178 -0.468399
-2.251968 5.399673 -0.467880
-2.266556 5.397354 -0.438553
-2.280685 5.397476 -0.448715
-2.251175 5.397720 -0.438126
-2.251266 5.397964 -0.452927
-2.332230 5.400070 -0.396103
-2.366928 5.403763 -0.427048
-2.350235 5.405350 -0.426682
-2.348770 5.404190 -0.430679
-2.373154 5.398636 -0.410294
-2.366684 5.403152 -0.412094
-2.349594 5.403854 -0.411667
-2.346176 5.402451 -0.409622
-2.333511 5.403030 -0.426041
-2.313400 5.399673 -0.429214
-2.316391 5.400650 -0.425400
-2.333206 5.402359 -0.411118
-2.341202 5.395676 -0.421768
-2.336258 5.405350 -0.421494
-2.315903 5.399521 -0.410446
-2.366531 5.402817 -0.397171
-2.345535 5.394394 -0.394119
-2.348801 5.402023 -0.396652
-2.365524 5.400497 -0.382126
-2.371994 5.398178 -0.389328
-2.348892 5.402206 -0.381790
-2.344070 5.401108 -0.388626
-2.315933 5.399521 -0.395615
-2.332199 5.399948 -0.381241
-2.333359 5.400345 -0.376907
-2.315506 5.398575 -0.380722
-2.250565 5.396286 -0.393723
-2.300308 5.400070 -0.424881
-2.282669 5.397232 -0.424210
-2.310287 5.397476 -0.408188
-2.299545 5.398270 -0.409927
-2.282822 5.397568 -0.409439
-2.291153 5.390640 -0.421188
-2.278122 5.395737 -0.427780
-2.266312 5.396774 -0.423721
-2.250595 5.396317 -0.423233
-2.277390 5.395645 -0.407028
-2.277084 5.396591 -0.420822
-2.266190 5.396439 -0.408920
-2.250839 5.396927 -0.408524
-2.294510 5.389938 -0.393478
-2.299393 5.397934 -0.395096
-2.282120 5.395920 -0.394516
-2.299210 5.397537 -0.380264
-2.308334 5.396255 -0.387283
-2.282028 5.395706 -0.379715
-2.276871 5.395523 -0.376358
-2.266068 5.396164 -0.379318
-2.275284 5.394302 -0.386185
-2.250717 5.396622 -0.378983
-2.449875 5.374313 -0.278580
-2.457047 5.369614 -0.339890
-2.451248 5.371658 -0.367203
-2.458084 5.370071 -0.312607
-2.463669 5.369095 -0.258072
-2.461868 5.369064 -0.285324
-2.449875 5.374313 -0.293442
-2.450180 5.374954 -0.263718
-2.438278 5.374771 -0.264328
-2.404587 5.382584 -0.278061
-2.451370 5.377609 -0.338303
-2.494980 5.378159 -0.367935
-2.487167 5.384232 -0.369431
-2.479355 5.380417 -0.370590
-2.469131 5.380661 -0.368759
-2.486313 5.382431 -0.354355
-2.476791 5.378738 -0.349380
-2.469070 5.380600 -0.353836
-2.452377 5.379807 -0.368271
-2.445206 5.378098 -0.369461
-2.443161 5.376846 -0.348373
-2.451797 5.378525 -0.353287
-2.486557 5.384903 -0.333786
-2.495682 5.378738 -0.340714
-2.486496 5.382767 -0.339432
-2.474930 5.377701 -0.328232
-2.468979 5.380386 -0.338882
-2.486526 5.382889 -0.324478
-2.468460 5.379227 -0.323898
-2.451523 5.377884 -0.323441
-2.442825 5.377090 -0.327408
-2.405594 5.385300 -0.337631
-2.434799 5.378159 -0.366440
-2.436661 5.380234 -0.367905
-2.421188 5.382492 -0.367630
-2.418350 5.382339 -0.368942
-2.436386 5.379623 -0.352951
-2.416855 5.381546 -0.347916
-2.420303 5.380508 -0.352615
-2.406113 5.386429 -0.367477
-2.392776 5.391586 -0.367416
-2.394485 5.391190 -0.368698
-2.382462 5.392929 -0.365372
-2.379044 5.395340 -0.367294
-2.392105 5.389603 -0.347641
-2.405991 5.386154 -0.352585
-2.392197 5.390305 -0.352463
-2.378555 5.394241 -0.352341
-2.432297 5.378189 -0.332199
-2.427078 5.380508 -0.333267
-2.436081 5.378952 -0.338028
-2.420700 5.381393 -0.337784
-2.435471 5.377609 -0.323044
-2.415421 5.380844 -0.326920
-2.419601 5.378952 -0.322769
-2.391983 5.389816 -0.337570
-2.380722 5.391800 -0.332809
-2.378189 5.393387 -0.337418
-2.376297 5.391342 -0.331070
-2.404922 5.383804 -0.322678
-2.391495 5.388657 -0.322617
-2.389847 5.388199 -0.326614
-2.377579 5.392044 -0.322495
-2.467789 5.377762 -0.279068
-2.486221 5.382156 -0.309494
-2.474533 5.377884 -0.307205
-2.485214 5.382156 -0.289047
-2.485428 5.380508 -0.294479
-2.473495 5.377548 -0.286118
-2.467545 5.377243 -0.308853
-2.450516 5.375717 -0.308426
-2.440781 5.375870 -0.306320
-2.468155 5.378555 -0.294022
-2.440536 5.376236 -0.285385
-2.485825 5.381332 -0.279587
-2.485580 5.380783 -0.264633
-2.473373 5.377975 -0.265121
-2.468216 5.378647 -0.264206
-2.389847 5.384995 -0.277878
-2.430374 5.378433 -0.298019
-2.435440 5.377518 -0.308182
-2.419724 5.379227 -0.307907
-2.412674 5.379013 -0.305832
-2.425705 5.377670 -0.288620
-2.435257 5.377121 -0.293289
-2.410324 5.377457 -0.284805
-2.420059 5.379898 -0.293076
-2.404190 5.382156 -0.307724
-2.391068 5.387741 -0.307724
-2.387894 5.387009 -0.305649
-2.376999 5.390671 -0.307541
-2.404221 5.381760 -0.292862
-2.385635 5.385574 -0.284653
-2.390060 5.385422 -0.292740
-2.376694 5.389999 -0.292679
-2.379837 5.389725 -0.288193
-2.435349 5.377304 -0.278427
-2.419601 5.378922 -0.278183
-2.434891 5.376297 -0.263504
-2.423691 5.376633 -0.263657
-2.418167 5.375717 -0.263168
-2.410782 5.378464 -0.263962
-2.376175 5.388809 -0.277786
-2.404190 5.381668 -0.263138
-2.389236 5.383591 -0.262955
-2.383224 5.383987 -0.263657
-2.375320 5.386887 -0.262833
-2.263412 5.389786 -0.275711
-2.331680 5.397141 -0.332352
-2.365097 5.399551 -0.367172
-2.369949 5.396896 -0.368301
-2.350998 5.392563 -0.366562
-2.348373 5.401047 -0.366867
-2.368423 5.396103 -0.347336
-2.364700 5.398636 -0.352249
-2.348007 5.400131 -0.351944
-2.331985 5.399460 -0.366348
-2.342209 5.400040 -0.367691
-2.314804 5.396866 -0.365799
-2.340103 5.398697 -0.346725
-2.331711 5.398819 -0.351486
-2.314255 5.395584 -0.350876
-2.363937 5.396866 -0.337296
-2.356522 5.390671 -0.339005
-2.347153 5.398178 -0.336960
-2.366196 5.394699 -0.326370
-2.363266 5.395340 -0.322342
-2.347488 5.398941 -0.322159
-2.331253 5.397781 -0.336594
-2.314102 5.395279 -0.336075
-2.336105 5.395676 -0.325668
-2.330551 5.396133 -0.321671
-2.313614 5.394119 -0.321182
-2.281052 5.393326 -0.335220
-2.300613 5.387772 -0.365799
-2.305740 5.394485 -0.366379
-2.298294 5.395370 -0.365311
-2.281448 5.394272 -0.364822
-2.298447 5.395737 -0.350540
-2.304367 5.393814 -0.345535
-2.281509 5.394455 -0.350052
-2.273453 5.393204 -0.365372
-2.264725 5.392960 -0.364334
-2.250473 5.396011 -0.364182
-2.271622 5.392105 -0.344589
-2.265091 5.393784 -0.349655
-2.304886 5.386551 -0.338150
-2.297897 5.394424 -0.335648
-2.302444 5.392624 -0.324692
-2.297531 5.393509 -0.320816
-2.275223 5.392319 -0.331894
-2.264603 5.392654 -0.334824
-2.250076 5.395035 -0.334610
-2.280960 5.393143 -0.320450
-2.270248 5.391403 -0.323837
-2.264572 5.392593 -0.320084
-2.328964 5.392441 -0.277023
-2.363876 5.393143 -0.305374
-2.362381 5.393326 -0.307388
-2.345840 5.395187 -0.307114
-2.370346 5.389847 -0.296799
-2.361404 5.391525 -0.284409
-2.362320 5.393173 -0.292526
-2.345871 5.395218 -0.292282
-2.333694 5.394058 -0.304733
-2.330307 5.395584 -0.306808
-2.313217 5.393204 -0.306351
-2.314285 5.383713 -0.282883
-2.329514 5.393173 -0.287827
-2.329788 5.394333 -0.291946
-2.331100 5.392288 -0.283829
-2.312881 5.392410 -0.291519
-2.361923 5.392288 -0.277664
-2.345413 5.394150 -0.277420
-2.366135 5.389053 -0.262680
-2.358902 5.389847 -0.263443
-2.361282 5.390793 -0.262741
-2.344315 5.391647 -0.262497
-2.317947 5.382767 -0.255295
-2.328690 5.391769 -0.262222
-2.328903 5.390884 -0.262955
-2.279007 5.388474 -0.261215
-2.309067 5.385391 -0.310501
-2.300430 5.391373 -0.303848
-2.297440 5.393326 -0.306015
-2.297928 5.389664 -0.283005
-2.284439 5.389542 -0.294327
-2.296677 5.391525 -0.291153
-2.268204 5.390121 -0.303055
-2.280228 5.391403 -0.305588
-2.264175 5.391647 -0.305283
-2.273544 5.389084 -0.287430
-2.279160 5.388870 -0.290695
-2.266953 5.389542 -0.282364
-2.263748 5.390579 -0.290482
-2.312332 5.391129 -0.276657
-2.296402 5.390884 -0.276352
-2.311783 5.389816 -0.261826
-2.294754 5.387375 -0.262131
-2.295395 5.388474 -0.261490
-2.275925 5.386856 -0.260208
-2.264236 5.387650 -0.261551
-2.263016 5.388840 -0.260941
-2.186539 5.436386 -0.276352
-2.183212 5.428177 -0.393967
-2.208633 5.410751 -0.467361
-2.236160 5.400436 -0.497025
-2.235733 5.398880 -0.495712
-2.226822 5.402481 -0.488388
-2.222916 5.405838 -0.497025
-2.237320 5.403214 -0.482498
-2.222672 5.405228 -0.482193
-2.206680 5.412247 -0.488205
-2.209030 5.411728 -0.497055
-2.195175 5.416641 -0.496994
-2.187881 5.422836 -0.488144
-2.209366 5.412491 -0.482315
-2.195480 5.417404 -0.482254
-2.237717 5.404129 -0.467758
-2.236191 5.400162 -0.462021
-2.227463 5.401352 -0.464645
-2.225266 5.401596 -0.467636
-2.221970 5.403580 -0.467239
-2.236984 5.402359 -0.438034
-2.249313 5.397263 -0.447586
-2.237411 5.403458 -0.452927
-2.222153 5.404007 -0.437729
-2.222275 5.404282 -0.452530
-2.224442 5.401443 -0.446945
-2.206161 5.412308 -0.467575
-2.195572 5.417587 -0.467484
-2.209366 5.412491 -0.437973
-2.209122 5.411911 -0.452682
-2.206131 5.412857 -0.446976
-2.195236 5.416733 -0.437851
-2.195663 5.417831 -0.452713
-2.186234 5.421860 -0.467422
-2.173203 5.436874 -0.488480
-2.182114 5.425461 -0.497269
-2.182114 5.425491 -0.482468
-2.170486 5.436569 -0.473190
-2.183395 5.428665 -0.453140
-2.183090 5.427872 -0.467880
-2.185379 5.423325 -0.464157
-2.172470 5.436722 -0.467850
-2.171494 5.437027 -0.453415
-2.183609 5.429153 -0.438400
-2.186539 5.422714 -0.446884
-2.172989 5.435379 -0.446182
-2.171219 5.436142 -0.447159
-2.138779 5.481277 -0.467545
-2.172104 5.438583 -0.498001
-2.159775 5.452377 -0.488937
-2.163406 5.439835 -0.499588
-2.160812 5.449539 -0.498489
-2.172073 5.438431 -0.483139
-2.161728 5.451797 -0.469009
-2.161057 5.450119 -0.483719
-2.151230 5.465897 -0.484634
-2.147781 5.468521 -0.489487
-2.150833 5.464920 -0.499405
-2.151474 5.466537 -0.469803
-2.133957 5.483688 -0.489944
-2.140335 5.479568 -0.485336
-2.139053 5.476273 -0.499924
-2.131149 5.495316 -0.486282
-2.129684 5.485428 -0.493576
-2.149429 5.470657 -0.469070
-2.141953 5.483749 -0.470810
-2.137955 5.488022 -0.469711
-2.131851 5.497086 -0.471512
-2.171829 5.437881 -0.468277
-2.159744 5.452896 -0.468338
-2.162399 5.453506 -0.454330
-2.172592 5.439713 -0.438828
-2.162247 5.453079 -0.439468
-2.160477 5.454117 -0.447830
-2.151718 5.467148 -0.455002
-2.156113 5.459396 -0.463852
-2.142288 5.484573 -0.456009
-2.152390 5.468857 -0.440292
-2.150833 5.472519 -0.448624
-2.143417 5.479141 -0.440903
-2.143021 5.486435 -0.441269
-2.139053 5.489578 -0.449203
-2.209946 5.413895 -0.393753
-2.246262 5.395065 -0.426682
-2.236130 5.401199 -0.428360
-2.237137 5.402725 -0.423294
-2.225021 5.402512 -0.426376
-2.222031 5.403732 -0.422958
-2.237198 5.402847 -0.408554
-2.222000 5.403580 -0.408188
-2.229782 5.404037 -0.420273
-2.205399 5.412704 -0.426346
-2.209122 5.411911 -0.423141
-2.195724 5.417923 -0.423172
-2.209915 5.413803 -0.408524
-2.196030 5.418716 -0.408463
-2.236588 5.401382 -0.393661
-2.247238 5.396500 -0.406113
-2.231125 5.400070 -0.394394
-2.224808 5.402847 -0.405746
-2.223068 5.406174 -0.393631
-2.237076 5.402573 -0.378983
-2.247696 5.397507 -0.385544
-2.230423 5.404251 -0.375839
-2.223373 5.402115 -0.385056
-2.222397 5.404587 -0.378738
-2.205307 5.413223 -0.405746
-2.197006 5.421127 -0.393875
-2.209183 5.412033 -0.378860
-2.204056 5.412613 -0.385056
-2.196579 5.420059 -0.379044
-2.177628 5.433212 -0.392075
-2.187393 5.424057 -0.426376
-2.183548 5.429062 -0.423599
-2.183182 5.428085 -0.408737
-2.186295 5.423965 -0.419754
-2.175980 5.434006 -0.419205
-2.187393 5.424606 -0.405807
-2.187149 5.424393 -0.375381
-2.186996 5.424820 -0.385208
-2.183853 5.429733 -0.379318
-2.154678 5.474655 -0.396164
-2.173386 5.438705 -0.426773
-2.172562 5.439713 -0.424026
-2.160812 5.455002 -0.427322
-2.162735 5.454361 -0.424728
-2.172775 5.440231 -0.409256
-2.163193 5.455521 -0.410019
-2.157425 5.460587 -0.419418
-2.161606 5.456314 -0.406784
-2.150375 5.472641 -0.427994
-2.153305 5.471146 -0.425613
-2.141068 5.492050 -0.428818
-2.143997 5.488937 -0.426590
-2.153549 5.471756 -0.410812
-2.148758 5.476700 -0.414352
-2.152420 5.475113 -0.407547
-2.144485 5.490219 -0.411789
-2.142075 5.493546 -0.408279
-2.173264 5.441422 -0.394547
-2.173264 5.439133 -0.406174
-2.163925 5.457291 -0.395309
-2.173630 5.442337 -0.379837
-2.172867 5.439346 -0.385574
-2.164597 5.459030 -0.380630
-2.162369 5.457596 -0.386276
-2.159775 5.463242 -0.375015
-2.145370 5.492447 -0.397049
-2.155777 5.477432 -0.381516
-2.152847 5.476028 -0.387009
-2.151291 5.475479 -0.387436
-2.146378 5.495041 -0.382370
-2.143631 5.495590 -0.387802
-2.186325 5.435898 -0.261581
-2.209641 5.413132 -0.334702
-2.245590 5.396133 -0.364731
-2.236893 5.402145 -0.364212
-2.233109 5.402023 -0.360855
-2.224197 5.403397 -0.364548
-2.222122 5.403885 -0.363968
-2.249802 5.394455 -0.349319
-2.245102 5.396225 -0.344101
-2.236893 5.402145 -0.349442
-2.222763 5.405441 -0.349319
-2.225052 5.404739 -0.344009
-2.209702 5.413254 -0.364212
-2.205368 5.414352 -0.364578
-2.196426 5.419632 -0.364273
-2.187729 5.426041 -0.364700
-2.209610 5.413071 -0.349442
-2.205246 5.414841 -0.344009
-2.196884 5.420761 -0.349564
-2.188583 5.427383 -0.344193
-2.236435 5.400986 -0.334641
-2.231369 5.404831 -0.331436
-2.249802 5.394424 -0.319839
-2.242752 5.394638 -0.323318
-2.236557 5.401291 -0.319931
-2.231094 5.402176 -0.327072
-2.224747 5.405014 -0.323410
-2.223526 5.407242 -0.334702
-2.223099 5.406265 -0.319901
-2.196548 5.419968 -0.334793
-2.189804 5.427567 -0.331009
-2.209946 5.413895 -0.319992
-2.204880 5.415054 -0.323410
-2.196884 5.420731 -0.320084
-2.188156 5.427536 -0.323654
-2.185196 5.433060 -0.335220
-2.184525 5.431442 -0.364670
-2.179214 5.432449 -0.364944
-2.184708 5.431900 -0.349930
-2.183090 5.430649 -0.338089
-2.185440 5.433640 -0.320511
-2.157394 5.472672 -0.333755
-2.173752 5.440689 -0.365097
-2.174118 5.443588 -0.365128
-2.164871 5.459702 -0.365860
-2.164597 5.460190 -0.365860
-2.174545 5.444595 -0.350388
-2.175888 5.443253 -0.344711
-2.165665 5.461655 -0.351151
-2.165268 5.461380 -0.345383
-2.156387 5.480484 -0.346115
-2.156815 5.480057 -0.351974
-2.154617 5.473984 -0.360641
-2.155869 5.477646 -0.366684
-2.155319 5.478897 -0.366623
-2.146591 5.495529 -0.367508
-2.144058 5.496567 -0.367233
-2.145340 5.498337 -0.346756
-2.147415 5.497696 -0.352768
-2.175369 5.446701 -0.335739
-2.163406 5.467941 -0.330582
-2.166641 5.464127 -0.336502
-2.176437 5.444260 -0.324173
-2.175735 5.447556 -0.320999
-2.167252 5.463821 -0.324936
-2.166885 5.464737 -0.321701
-2.157791 5.482529 -0.337296
-2.158432 5.482956 -0.325668
-2.158737 5.484879 -0.322556
-2.209793 5.413467 -0.275772
-2.242874 5.395309 -0.302719
-2.249619 5.393936 -0.305099
-2.236252 5.400528 -0.305130
-2.222885 5.403854 -0.302689
