-3.618881 -2.973801 4.585129
-3.615646 -2.973495 4.521286
-3.615189 -2.974838 4.529922
-3.604416 -2.986862 4.503342
-3.603378 -2.987534 4.512711
-3.614456 -2.975113 4.506363
-3.606552 -2.982651 4.506119
-3.608902 -2.977463 4.516220
-3.603317 -2.983566 4.529648
-3.590073 -2.991104 4.530716
-3.579391 -2.997513 4.501541
-3.590805 -2.993729 4.505020
-3.576523 -2.999985 4.507431
-3.577103 -2.999466 4.531204
-3.615463 -2.973801 4.554306
-3.599533 -2.988602 4.538589
-3.612869 -2.974960 4.537552
-3.614761 -2.973984 4.544357
-3.609177 -2.976181 4.545212
-3.599350 -2.988937 4.561081
-3.611099 -2.976273 4.558914
-3.604507 -2.984055 4.552597
-3.591293 -2.991684 4.553635
-3.580307 -2.994400 4.531418
-3.570541 -2.999863 4.543472
-3.579483 -2.996414 4.558609
-3.577835 -2.999252 4.554855
-3.503281 -2.998276 4.527451
-3.503555 -2.998642 4.504410
-3.502274 -2.998764 4.549637
-3.597610 -2.989609 4.585190
-3.615402 -2.974136 4.566086
-3.616531 -2.974167 4.577499
-3.605576 -2.981705 4.575546
-3.605515 -2.984299 4.575943
-3.607590 -2.980392 4.571243
-3.579300 -2.996475 4.586899
-3.591751 -2.990982 4.577805
-3.570450 -2.999252 4.566940
-3.570450 -2.998581 4.590683
-3.616959 -2.973404 4.601791
-3.617752 -2.974319 4.608749
-3.607742 -2.979477 4.600143
-3.605362 -2.982559 4.601089
-3.603653 -2.982895 4.597061
-3.579269 -2.996109 4.615494
-3.593399 -2.992203 4.600266
-3.578384 -2.997269 4.603775
-3.592819 -2.990860 4.612350
-3.568832 -2.999680 4.612411
-3.501968 -2.998398 4.572891
-3.506790 -2.999191 4.573166
-3.512039 -2.999680 4.577011
-3.503311 -2.995468 4.622238
-3.506516 -2.999649 4.601242
-3.502579 -2.997025 4.597427
-3.510513 -2.998886 4.604294
-3.659897 -2.841568 4.571274
-3.657669 -2.840836 4.524826
-3.663712 -2.873703 4.522110
-3.656601 -2.860580 4.510910
-3.654892 -2.848862 4.510941
-3.656113 -2.872116 4.512955
-3.644272 -2.815598 4.516647
-3.651993 -2.837784 4.512192
-3.652451 -2.825333 4.507431
-3.648972 -2.826431 4.513596
-3.655533 -2.837509 4.530960
-3.652023 -2.823502 4.529068
-3.657333 -2.849075 4.552963
-3.658890 -2.871964 4.532425
-3.657761 -2.860733 4.531937
-3.663620 -2.867691 4.540573
-3.656479 -2.848892 4.531570
-3.660172 -2.872055 4.553421
-3.659317 -2.860764 4.552658
-3.663467 -2.861984 4.559280
-3.657883 -2.839676 4.549332
-3.651779 -2.819168 4.548813
-3.649338 -2.826675 4.535385
-3.645432 -2.815720 4.537704
-3.654587 -2.837967 4.554092
-3.650589 -2.826767 4.556442
-3.645370 -2.816025 4.560013
-3.625839 -2.783890 4.521408
-3.631851 -2.793961 4.525711
-3.639572 -2.799057 4.510056
-3.629715 -2.793991 4.505630
-3.635513 -2.805283 4.523636
-3.631210 -2.794388 4.548538
-3.638901 -2.799942 4.533859
-3.637466 -2.805283 4.543961
-3.625443 -2.781662 4.542740
-3.638321 -2.800034 4.557083
-3.649094 -2.827316 4.580246
-3.663071 -2.859756 4.580856
-3.660599 -2.872269 4.575333
-3.658707 -2.861313 4.575607
-3.656021 -2.849625 4.576614
-3.644577 -2.816483 4.583206
-3.655960 -2.838058 4.575089
-3.651138 -2.820206 4.572922
-3.662521 -2.852158 4.621658
-3.660568 -2.872604 4.597824
-3.663101 -2.874496 4.596970
-3.659256 -2.861526 4.597549
-3.662918 -2.854813 4.600296
-3.656448 -2.849869 4.598618
-3.662674 -2.861282 4.616714
-3.662918 -2.872604 4.622391
-3.660812 -2.872879 4.620132
-3.657700 -2.849960 4.619980
-3.658371 -2.835892 4.623825
-3.652939 -2.827316 4.621536
-3.654495 -2.838608 4.598984
-3.655655 -2.832748 4.602798
-3.650345 -2.827408 4.601517
-3.650711 -2.818039 4.594498
-3.647324 -2.816330 4.603012
-3.656174 -2.838638 4.619919
-3.648209 -2.816513 4.624710
-3.634323 -2.794540 4.590256
-3.638901 -2.805649 4.587265
-3.637589 -2.805557 4.566147
-3.631973 -2.794571 4.570114
-3.638168 -2.794846 4.576187
-3.633469 -2.794968 4.613632
-3.640030 -2.805801 4.608658
-3.637772 -2.792587 4.597702
-3.650711 -2.811264 4.612442
-3.637131 -2.793320 4.621719
-3.624557 -2.778580 4.586746
-3.613235 -2.776169 4.527420
-3.616226 -2.784470 4.517136
-3.606308 -2.774460 4.523239
-3.612289 -2.773849 4.513840
-3.619583 -2.781052 4.512650
-3.601151 -2.774246 4.508011
-3.598251 -2.767929 4.509567
-3.602890 -2.774277 4.528488
-3.584579 -2.764877 4.522415
-3.584244 -2.761826 4.505142
-3.578201 -2.763229 4.514633
-3.577621 -2.765610 4.506912
-3.570724 -2.756851 4.501663
-3.566422 -2.763382 4.508011
-3.583725 -2.761276 4.527756
-3.569717 -2.761154 4.528122
-3.622299 -2.784134 4.555740
-3.619156 -2.784348 4.536484
-3.611435 -2.770493 4.557358
-3.611740 -2.773605 4.536697
-3.597702 -2.767502 4.532272
-3.607285 -2.771591 4.542740
-3.604263 -2.774368 4.549393
-3.605301 -2.772079 4.551620
-3.597275 -2.765976 4.554184
-3.603928 -2.769028 4.561356
-3.583298 -2.759567 4.549515
-3.588913 -2.757462 4.538284
-3.585556 -2.765060 4.543686
-3.579788 -2.764450 4.539352
-3.567398 -2.763504 4.537857
-3.569351 -2.758682 4.549240
-3.576981 -2.762283 4.558670
-3.558823 -2.762222 4.521378
-3.554977 -2.759048 4.527023
-3.555649 -2.758347 4.503403
-3.549057 -2.757767 4.510452
-3.540482 -2.758743 4.504318
-3.539871 -2.761978 4.506210
-3.533340 -2.761032 4.527542
-3.538925 -2.761246 4.527695
-3.540054 -2.756973 4.525925
-3.524185 -2.763657 4.517471
-3.525467 -2.761337 4.506973
-3.508438 -2.765579 4.506210
-3.510757 -2.763962 4.509659
-3.508408 -2.768173 4.523544
-3.525009 -2.759872 4.528854
-3.554459 -2.758255 4.549515
-3.557449 -2.761154 4.542404
-3.534653 -2.760147 4.546219
-3.539261 -2.759232 4.550858
-3.539474 -2.761673 4.551224
-3.533310 -2.759903 4.556625
-3.524612 -2.757919 4.550430
-3.510391 -2.767105 4.531448
-3.522537 -2.762344 4.538132
-3.510056 -2.764786 4.533401
-3.509048 -2.766037 4.552505
-3.508682 -2.767380 4.552841
-3.520096 -2.760452 4.557846
-3.509537 -2.764145 4.556046
-3.604599 -2.769547 4.585190
-3.622940 -2.784378 4.577469
-3.604446 -2.769882 4.580246
-3.609726 -2.773880 4.566422
-3.624924 -2.780991 4.565414
-3.596634 -2.766342 4.577744
-3.608688 -2.774307 4.589859
-3.587509 -2.765396 4.586563
-3.587906 -2.764999 4.563736
-3.582718 -2.759537 4.572708
-3.566971 -2.761856 4.566696
-3.564926 -2.753067 4.571213
-3.568893 -2.757645 4.571640
-3.582443 -2.756241 4.593307
-3.576523 -2.761917 4.581039
-3.623825 -2.784866 4.621658
-3.623093 -2.784683 4.599777
-3.595871 -2.761765 4.620743
-3.613998 -2.773849 4.607224
-3.610336 -2.769577 4.603226
-3.596298 -2.763931 4.599075
-3.623886 -2.779526 4.610916
-3.606339 -2.771042 4.610641
-3.606522 -2.771408 4.611191
-3.581650 -2.758072 4.618210
-3.590317 -2.765274 4.606308
-3.568253 -2.757889 4.595139
-3.567825 -2.761856 4.596573
-3.575607 -2.761215 4.602951
-3.567795 -2.756485 4.617416
-3.547562 -2.758926 4.578659
-3.556534 -2.760422 4.587112
-3.555862 -2.759903 4.563248
-3.554001 -2.756821 4.571518
-3.536270 -2.760239 4.567032
-3.536087 -2.759018 4.569778
-3.538925 -2.756332 4.571762
-3.533127 -2.758560 4.585617
-3.535782 -2.758774 4.592392
-3.538559 -2.754257 4.593338
-3.522018 -2.761948 4.583298
-3.523941 -2.758530 4.574142
-3.509109 -2.762497 4.577957
-3.507828 -2.765091 4.573868
-3.507248 -2.764450 4.580795
-3.553024 -2.754623 4.616440
-3.550858 -2.758743 4.598007
-3.553421 -2.756943 4.594955
-3.554214 -2.758621 4.607193
-3.557663 -2.751968 4.609482
-3.554092 -2.758591 4.617477
-3.534470 -2.759201 4.615921
-3.535995 -2.758957 4.615829
-3.538010 -2.753708 4.616318
-3.523117 -2.755020 4.618027
-3.523422 -2.757919 4.596939
-3.521347 -2.761429 4.605515
-3.506790 -2.764267 4.595566
-3.508499 -2.762558 4.601364
-3.507797 -2.764023 4.610428
-3.508072 -2.760941 4.623459
-3.505661 -2.763382 4.617264
-3.642014 -2.949478 4.703140
-3.641495 -2.946793 4.649673
-3.639725 -2.948624 4.655991
-3.630020 -2.963699 4.626328
-3.632858 -2.959976 4.637314
-3.638199 -2.947098 4.630203
-3.638077 -2.947342 4.633347
-3.629684 -2.961624 4.652023
-3.643021 -2.952652 4.676224
-3.632980 -2.960281 4.659958
-3.642685 -2.946884 4.671341
-3.652267 -2.948044 4.671524
-3.644241 -2.956253 4.685349
-3.631332 -2.962814 4.674789
-3.639389 -2.959366 4.676468
-3.640915 -2.952591 4.676407
-3.663712 -2.884537 4.641617
-3.657028 -2.909225 4.651749
-3.657455 -2.908859 4.628616
-3.655930 -2.917801 4.644638
-3.648514 -2.931442 4.630783
-3.647232 -2.933578 4.638229
-3.652176 -2.921463 4.635574
-3.647781 -2.934067 4.641678
-3.655502 -2.921158 4.655014
-3.659714 -2.897141 4.647324
-3.660507 -2.897507 4.631546
-3.660934 -2.896744 4.656143
-3.659500 -2.909103 4.672104
-3.657028 -2.918137 4.668198
-3.653610 -2.921829 4.679733
-3.647659 -2.933517 4.658279
-3.650986 -2.933792 4.661270
-3.648849 -2.934769 4.660965
-3.648239 -2.932205 4.687271
-3.666245 -2.884720 4.684769
-3.662521 -2.896957 4.667343
-3.663589 -2.884903 4.664536
-3.661789 -2.896622 4.680161
-3.635147 -2.960526 4.703720
-3.641281 -2.947464 4.695663
-3.630142 -2.959366 4.702011
-3.642929 -2.947800 4.740219
-3.630844 -2.959000 4.726425
-3.628830 -2.962021 4.733170
-3.640671 -2.947891 4.719345
-3.641922 -2.947769 4.728806
-3.644730 -2.940598 4.740768
-3.673935 -2.875137 4.711136
-3.660141 -2.909653 4.717453
-3.657730 -2.917801 4.692490
-3.662674 -2.908859 4.691849
-3.647934 -2.934982 4.710220
-3.646469 -2.934952 4.688675
-3.653397 -2.922165 4.702927
-3.647202 -2.933853 4.715652
-3.649399 -2.932602 4.710953
-3.664444 -2.885361 4.709579
-3.660904 -2.897568 4.691849
-3.668472 -2.877579 4.689682
-3.662796 -2.896774 4.704086
-3.663528 -2.897415 4.712265
-3.668411 -2.875870 4.715347
-3.660568 -2.909897 4.740128
-3.657120 -2.915146 4.718979
-3.658157 -2.915390 4.742935
-3.649612 -2.935013 4.731644
-3.650955 -2.933762 4.733994
-3.652542 -2.922684 4.726883
-3.663376 -2.897781 4.735550
-3.663651 -2.896683 4.728287
-3.664078 -2.885757 4.733078
-3.607864 -2.977524 4.709824
-3.619644 -2.974869 4.647934
-3.610947 -2.973373 4.654404
-3.617935 -2.974594 4.631210
-3.617691 -2.973129 4.625717
-3.608292 -2.977432 4.629776
-3.607895 -2.977463 4.626419
-3.605881 -2.981979 4.625290
-3.605179 -2.979324 4.651566
-3.579727 -2.994339 4.644974
-3.579697 -2.997971 4.626846
-3.592178 -2.988815 4.627090
-3.589218 -2.991867 4.638504
-3.569290 -2.998520 4.636917
-3.579697 -2.996536 4.651962
-3.592758 -2.988235 4.651413
-3.617020 -2.969040 4.677200
-3.615036 -2.975479 4.656784
-3.608749 -2.975571 4.659348
-3.610123 -2.973618 4.677475
-3.612625 -2.976273 4.682083
-3.605850 -2.978958 4.675766
-3.607620 -2.978470 4.686417
-3.579361 -2.994492 4.677689
-3.584061 -2.993240 4.666367
-3.569229 -2.997818 4.660934
-3.580643 -2.991074 4.675369
-3.592178 -2.985794 4.677536
-3.563400 -2.998795 4.682266
-3.519821 -2.996689 4.655045
-3.504166 -2.993851 4.647293
-3.518173 -2.999191 4.628891
-3.521683 -2.998184 4.638718
-3.507156 -2.997238 4.630997
-3.506393 -2.997574 4.636246
-3.551224 -2.998459 4.673141
-3.553513 -2.999191 4.666550
-3.534653 -2.997574 4.687271
-3.520035 -2.995743 4.679459
-3.530228 -2.999527 4.662338
-3.523788 -2.997421 4.668228
-3.506638 -2.996536 4.661057
-3.507278 -2.996262 4.660019
-3.505020 -2.992203 4.672562
-3.506607 -2.995102 4.686356
-3.608932 -2.974197 4.717514
-3.618088 -2.969315 4.700943
-3.594437 -2.988052 4.699448
-3.604568 -2.979080 4.694412
-3.607529 -2.980270 4.698532
-3.578964 -2.992416 4.703659
-3.580154 -2.994339 4.693130
-3.571609 -2.994461 4.688217
-3.581192 -2.989059 4.705124
-3.563950 -2.998215 4.706772
-3.572556 -2.992691 4.713760
-3.619675 -2.968948 4.749527
-3.594406 -2.986557 4.724899
-3.609909 -2.977463 4.730881
-3.606583 -2.977158 4.725510
-3.605118 -2.977768 4.719467
-3.607376 -2.976944 4.749863
-3.608810 -2.974075 4.746414
-3.607315 -2.974594 4.746841
-3.572769 -2.991776 4.738419
-3.581009 -2.989120 4.733810
-3.579391 -2.991592 4.728531
-3.574448 -2.995773 4.721817
-3.564499 -2.997604 4.731461
-3.573105 -2.996353 4.746384
-3.618393 -2.968338 4.725906
-3.534378 -2.997147 4.711197
-3.549362 -2.999832 4.694870
-3.520279 -2.994766 4.703995
-3.530777 -2.997421 4.692093
-3.529648 -2.996689 4.699936
-3.527542 -2.998581 4.698898
-3.507858 -2.994034 4.689804
-3.504440 -2.992172 4.695938
-3.506790 -2.993942 4.711472
-3.547501 -2.998795 4.738541
-3.553635 -2.997940 4.724503
-3.549698 -2.998795 4.719620
-3.536392 -2.995682 4.732224
-3.550400 -2.997299 4.744980
-3.534500 -2.996292 4.735733
-3.527969 -2.996353 4.749252
-3.528244 -2.998276 4.723282
-3.530777 -2.996964 4.721024
-3.521072 -2.993149 4.729477
-3.508194 -2.992569 4.719284
-3.504807 -2.990982 4.720779
-3.506485 -2.991989 4.737473
-3.508438 -2.991379 4.748703
-3.505753 -2.989243 4.746475
-3.658066 -2.827744 4.707779
-3.660904 -2.838638 4.645187
-3.659348 -2.849991 4.640976
-3.662460 -2.845566 4.639877
-3.664047 -2.873032 4.645859
-3.662643 -2.872849 4.641006
-3.661240 -2.861832 4.640793
-3.654404 -2.827377 4.642746
-3.655533 -2.839066 4.643234
-3.649612 -2.816605 4.646011
-3.662033 -2.850174 4.683975
-3.662460 -2.873184 4.663956
-3.662979 -2.861832 4.661819
-3.666092 -2.874985 4.668045
-3.659500 -2.850296 4.663620
-3.665024 -2.873093 4.684280
-3.662582 -2.862228 4.685135
-3.656296 -2.827713 4.686539
-3.662094 -2.842606 4.661118
-3.660873 -2.837051 4.670639
-3.656631 -2.839218 4.664902
-3.662186 -2.834427 4.678146
-3.659500 -2.839035 4.684891
-3.654129 -2.816513 4.687210
-3.652634 -2.827988 4.667313
-3.652817 -2.816422 4.665573
-3.636795 -2.790237 4.642715
-3.627335 -2.784622 4.640884
-3.642807 -2.805679 4.628555
-3.650406 -2.807510 4.632889
-3.634201 -2.795181 4.635574
-3.646103 -2.805466 4.647964
-3.637955 -2.795212 4.677383
-3.649796 -2.808121 4.656967
-3.646194 -2.805771 4.670700
-3.635605 -2.795242 4.656876
-3.628403 -2.784805 4.662582
-3.636246 -2.789566 4.665756
-3.649734 -2.801529 4.675247
-3.629013 -2.785019 4.684860
-3.635910 -2.786880 4.687241
-3.661728 -2.825027 4.718063
-3.661850 -2.850510 4.707169
-3.665176 -2.873367 4.707138
-3.663071 -2.862442 4.707626
-3.660934 -2.839127 4.706467
-3.663651 -2.840317 4.691757
-3.662033 -2.828537 4.697098
-3.663986 -2.839340 4.716782
-3.653946 -2.816849 4.710373
-3.666733 -2.871384 4.743668
-3.663437 -2.874008 4.731949
-3.664932 -2.862442 4.728867
-3.662796 -2.850815 4.729324
-3.661362 -2.822464 4.739914
-3.661057 -2.839432 4.729477
-3.658463 -2.828018 4.730484
-3.664383 -2.838425 4.741837
-3.652420 -2.817429 4.735031
-3.634293 -2.778244 4.708054
-3.633163 -2.784714 4.703720
-3.646896 -2.805984 4.692917
-3.648941 -2.803604 4.700699
-3.639847 -2.795242 4.698471
-3.646439 -2.806351 4.716385
-3.635849 -2.780594 4.705826
-3.641922 -2.795547 4.742630
-3.648636 -2.800491 4.722000
-3.639236 -2.795639 4.722122
-3.635147 -2.781815 4.730728
-3.632095 -2.785202 4.727859
-3.647964 -2.806442 4.738022
-3.648270 -2.797470 4.743423
-3.633652 -2.785263 4.749527
-3.604965 -2.764694 4.705917
-3.596115 -2.765060 4.645950
-3.595444 -2.760208 4.642960
-3.612167 -2.774429 4.631607
-3.623489 -2.777115 4.632401
-3.609879 -2.768204 4.625534
-3.602402 -2.768051 4.628830
-3.605667 -2.769150 4.639877
-3.614090 -2.774490 4.652481
-3.623184 -2.773819 4.653244
-3.609360 -2.767319 4.648331
-3.594620 -2.762039 4.642105
-3.581161 -2.757065 4.640884
-3.593246 -2.765182 4.626053
-3.567703 -2.760544 4.625748
-3.575272 -2.760971 4.625748
-3.567368 -2.754807 4.639511
-3.572678 -2.758987 4.645676
-3.567001 -2.758560 4.654587
-3.601028 -2.764969 4.686813
-3.604782 -2.766922 4.668655
-3.594894 -2.759720 4.666153
-3.608994 -2.764664 4.669785
-3.595749 -2.762924 4.666946
-3.597549 -2.765152 4.667343
-3.615677 -2.774551 4.673721
-3.622635 -2.773331 4.676498
-3.591171 -2.759415 4.684525
-3.580673 -2.755692 4.663315
-3.566818 -2.754227 4.662643
-3.571091 -2.757736 4.667007
-3.570206 -2.757187 4.669998
-3.580490 -2.751663 4.683670
-3.566360 -2.752609 4.684952
-3.577377 -2.756485 4.685898
-3.566086 -2.756271 4.683273
-3.553757 -2.758286 4.653183
-3.561813 -2.758102 4.655380
-3.554581 -2.758926 4.630905
-3.557327 -2.758438 4.637009
-3.552353 -2.755325 4.640518
-3.536148 -2.759079 4.639328
-3.537338 -2.754318 4.640305
-3.552750 -2.751358 4.648544
-3.535477 -2.759354 4.646011
-3.522141 -2.758408 4.644302
-3.518661 -2.759323 4.625229
-3.510391 -2.766251 4.641769
-3.521255 -2.761337 4.651932
-3.507706 -2.764999 4.643234
-3.507126 -2.763962 4.649521
-3.551102 -2.756210 4.673141
-3.551895 -2.753922 4.662949
-3.536636 -2.759445 4.663345
-3.536758 -2.754166 4.663773
-3.551407 -2.752884 4.685776
-3.536789 -2.759903 4.676468
-3.535446 -2.758530 4.685287
-3.546402 -2.750443 4.687210
-3.536148 -2.754135 4.687424
-3.521500 -2.761551 4.675735
-3.521561 -2.758316 4.667831
-3.506729 -2.761856 4.671402
-3.510117 -2.764786 4.670883
-3.507706 -2.764999 4.666672
-3.593857 -2.757980 4.712173
-3.608017 -2.762558 4.715500
-3.616531 -2.774734 4.695816
-3.622208 -2.771683 4.698837
-3.594437 -2.757950 4.688370
-3.608414 -2.764511 4.693314
-3.602707 -2.763229 4.696548
-3.621597 -2.774307 4.713760
-3.622726 -2.769394 4.716721
-3.579941 -2.750870 4.706772
-3.570847 -2.757553 4.690201
-3.580460 -2.756302 4.705795
-3.588486 -2.757339 4.704605
-3.565659 -2.753525 4.709457
-3.569595 -2.756607 4.712234
-3.567123 -2.756485 4.713608
-3.614151 -2.763992 4.742996
-3.621994 -2.767197 4.718948
-3.613571 -2.763748 4.720413
-3.602890 -2.762344 4.726242
-3.620438 -2.774796 4.738113
-3.621475 -2.766129 4.741989
-3.618759 -2.766342 4.735306
-3.607559 -2.760757 4.737900
-3.567825 -2.756241 4.743759
-3.584854 -2.754532 4.723557
-3.593552 -2.754593 4.733231
-3.579147 -2.752792 4.732224
-3.579056 -2.756851 4.730301
-3.565323 -2.750809 4.731094
-3.566605 -2.754288 4.732010
-3.550766 -2.753433 4.709976
-3.535812 -2.757523 4.705093
-3.550827 -2.755997 4.696335
-3.535416 -2.755264 4.712173
-3.520798 -2.753891 4.711624
-3.520981 -2.757736 4.691055
-3.519241 -2.759781 4.696304
-3.530838 -2.754929 4.702774
-3.506180 -2.761429 4.694778
-3.507431 -2.764786 4.689804
-3.508133 -2.761124 4.698685
-3.502640 -2.761002 4.707047
-3.515091 -2.756516 4.714432
-3.506210 -2.757187 4.715042
-3.551193 -2.756302 4.744339
-3.550919 -2.756058 4.720139
-3.550217 -2.752701 4.733261
-3.547165 -2.750931 4.728256
-3.535538 -2.758591 4.732803
-3.537308 -2.758286 4.735794
-3.534897 -2.754532 4.735428
-3.519730 -2.758194 4.739151
-3.512222 -2.765213 4.731461
-3.520554 -2.760788 4.745590
-3.506699 -2.764206 4.736282
-3.504868 -2.763565 4.744308
-3.620834 -2.764297 4.829971
-3.645004 -2.938522 4.829056
-3.645340 -2.938461 4.770920
-3.643051 -2.946609 4.778366
-3.627975 -2.962509 4.757248
-3.631180 -2.958054 4.751480
-3.642441 -2.947098 4.753647
-3.645645 -2.947617 4.760788
-3.632004 -2.957901 4.775925
-3.643143 -2.945236 4.804092
-3.626602 -2.963120 4.781998
-3.643814 -2.948288 4.786026
-3.628036 -2.963181 4.804031
-3.631882 -2.956192 4.801926
-3.644669 -2.939865 4.799179
-3.640915 -2.949142 4.812485
-3.665176 -2.886215 4.778580
-3.659134 -2.915573 4.767105
-3.662247 -2.909897 4.761703
-3.654892 -2.923019 4.771042
-3.651871 -2.934891 4.752609
-3.652573 -2.922989 4.750076
-3.651688 -2.933426 4.758560
-3.651505 -2.935318 4.776321
-3.665451 -2.898056 4.780045
-3.665878 -2.897659 4.756271
-3.665482 -2.898300 4.751053
-3.663986 -2.886093 4.756424
-3.666336 -2.898209 4.775436
-3.661972 -2.910629 4.808914
-3.657791 -2.922806 4.791519
-3.663193 -2.910049 4.784164
-3.660782 -2.916733 4.790359
-3.651138 -2.935715 4.800156
-3.651718 -2.931961 4.784256
-3.651993 -2.930832 4.809738
-3.672989 -2.877396 4.811264
-3.672165 -2.875076 4.783279
-3.670731 -2.875107 4.788925
-3.667557 -2.897995 4.801376
-3.666916 -2.897629 4.800400
-3.668564 -2.885941 4.798538
-3.643112 -2.943588 4.830185
-3.639084 -2.949844 4.838028
-3.633011 -2.956528 4.826065
-3.626083 -2.963852 4.829636
-3.650589 -2.944229 4.866379
-3.632889 -2.954727 4.852371
-3.644241 -2.940262 4.857224
-3.643661 -2.942947 4.855392
-3.639206 -2.950150 4.861679
-3.673050 -2.875931 4.837234
-3.665146 -2.910355 4.829269
-3.659897 -2.922745 4.812881
-3.662766 -2.918564 4.813065
-3.656662 -2.923691 4.839890
-3.662216 -2.916061 4.840012
-3.654221 -2.933060 4.832138
-3.651291 -2.935989 4.823624
-3.667770 -2.886398 4.822922
-3.667191 -2.898392 4.825363
-3.666611 -2.895462 4.826920
-3.663559 -2.916763 4.863968
-3.663406 -2.910995 4.854782
-3.658066 -2.923752 4.862228
-3.651291 -2.936661 4.871140
-3.649429 -2.936661 4.849197
-3.654282 -2.931625 4.858139
-3.666031 -2.887375 4.872269
-3.668228 -2.896683 4.850418
-3.669144 -2.898361 4.847000
-3.669540 -2.886398 4.844803
-3.668777 -2.898758 4.871262
-3.608627 -2.973221 4.833786
-3.619522 -2.967117 4.775528
-3.605576 -2.975845 4.769058
-3.594131 -2.984604 4.750900
-3.606461 -2.978439 4.757614
-3.595047 -2.984604 4.775192
-3.608505 -2.974594 4.774979
-3.607895 -2.976364 4.774704
-3.580276 -2.990128 4.778366
-3.580399 -2.991776 4.752518
-3.581314 -2.987686 4.763443
-3.565170 -2.997269 4.755966
-3.571579 -2.992386 4.761368
-3.571091 -2.997086 4.771713
-3.595444 -2.983810 4.800339
-3.603928 -2.979263 4.783493
-3.605545 -2.975174 4.793716
-3.607285 -2.978958 4.803604
-3.608444 -2.974289 4.804153
-3.608780 -2.976334 4.799088
-3.581070 -2.989914 4.802963
-3.581131 -2.987839 4.792252
-3.564804 -2.995163 4.782272
-3.572556 -2.990616 4.787308
-3.567276 -2.998184 4.798996
-3.565353 -2.994553 4.807236
-3.620834 -2.967850 4.799179
-3.551071 -2.995804 4.770462
-3.531387 -2.994125 4.780197
-3.553635 -2.997421 4.753586
-3.548477 -2.998947 4.762680
-3.534714 -2.995377 4.760513
-3.528793 -2.996262 4.773636
-3.521255 -2.992203 4.754166
-3.530899 -2.996078 4.750229
-3.506882 -2.991196 4.762497
-3.521347 -2.991440 4.778854
-3.506119 -2.988113 4.771530
-3.508865 -2.989578 4.778519
-3.531876 -2.992264 4.810135
-3.554825 -2.993393 4.784714
-3.552200 -2.993851 4.796646
-3.547531 -2.995926 4.789871
-3.536392 -2.992783 4.787399
-3.535507 -2.993057 4.810928
-3.528427 -2.994186 4.800003
-3.506485 -2.989090 4.788834
-3.520645 -2.991501 4.802597
-3.506821 -2.986588 4.797134
-3.509232 -2.987961 4.808334
-3.602036 -2.977615 4.838638
-3.622604 -2.969254 4.822342
-3.604324 -2.975754 4.816910
-3.608475 -2.979019 4.826004
-3.595322 -2.982010 4.826492
-3.608658 -2.974533 4.825241
-3.565903 -2.993973 4.832291
-3.581558 -2.989182 4.828110
-3.581619 -2.985855 4.822403
-3.573196 -2.989151 4.812943
-3.564865 -2.998978 4.825027
-3.573990 -2.987564 4.838882
-3.611374 -2.976028 4.873093
-3.610184 -2.975571 4.848892
-3.596542 -2.982559 4.850540
-3.605087 -2.980026 4.853195
-3.602310 -2.976578 4.864029
-3.607834 -2.975143 4.861771
-3.607834 -2.979813 4.874191
-3.573807 -2.987015 4.863632
-3.581680 -2.985275 4.851761
-3.581558 -2.987717 4.854172
-3.566025 -2.992691 4.858139
-3.622879 -2.966599 4.874069
-3.621445 -2.965805 4.850204
-3.624435 -2.964523 4.855087
-3.547836 -2.993454 4.841171
-3.555069 -2.991684 4.843643
-3.547684 -2.994675 4.815506
-3.554398 -2.994217 4.813187
-3.552444 -2.992813 4.821793
-3.532059 -2.991226 4.839737
-3.537338 -2.990280 4.838303
-3.522079 -2.989151 4.829391
-3.528885 -2.993454 4.825180
-3.506729 -2.988022 4.814316
-3.507187 -2.985458 4.822464
-3.506699 -2.986496 4.840317
-3.509659 -2.986160 4.838364
-3.554520 -2.989059 4.874557
-3.553238 -2.991226 4.847794
-3.547440 -2.991318 4.867905
-3.555405 -2.990250 4.873581
-3.537796 -2.988998 4.863968
-3.532455 -2.989517 4.869766
-3.507492 -2.983688 4.872787
-3.529160 -2.992447 4.850754
-3.521042 -2.989609 4.852890
-3.507950 -2.983871 4.848434
-3.507401 -2.986130 4.865341
-3.509506 -2.986130 4.867447
-3.661728 -2.817581 4.842819
-3.662979 -2.839767 4.774063
-3.664108 -2.851273 4.774551
-3.665329 -2.874008 4.753311
-3.666000 -2.862595 4.750961
-3.664719 -2.850845 4.750565
-3.668442 -2.872726 4.766739
-3.667068 -2.862747 4.773239
-3.666550 -2.874100 4.775375
-3.659622 -2.828476 4.775894
-3.661575 -2.839676 4.752151
-3.658432 -2.828354 4.753708
-3.665848 -2.839371 4.765305
-3.660934 -2.820267 4.762100
-3.655197 -2.817642 4.778793
-3.655899 -2.817215 4.754776
-3.672318 -2.865494 4.799515
-3.669754 -2.873856 4.795547
-3.667343 -2.851028 4.794662
-3.666580 -2.863144 4.797195
-3.660172 -2.814713 4.805740
-3.666489 -2.838852 4.790176
-3.660690 -2.815659 4.782364
-3.663437 -2.839981 4.797012
-3.660233 -2.828690 4.798660
-3.669540 -2.842575 4.811264
-3.655991 -2.817825 4.801468
-3.634384 -2.776474 4.774277
-3.634445 -2.785477 4.772049
-3.649551 -2.806534 4.759659
-3.643875 -2.795578 4.763901
-3.647873 -2.795242 4.765579
-3.634720 -2.779831 4.753036
-3.646927 -2.792191 4.811356
-3.649490 -2.806839 4.783066
-3.645065 -2.795700 4.786087
-3.647446 -2.792984 4.787827
-3.635391 -2.785660 4.794510
-3.652115 -2.806778 4.803909
-3.644455 -2.796127 4.810196
-3.625656 -2.774979 4.802872
-3.633865 -2.775620 4.797714
-3.666000 -2.840225 4.841629
-3.672012 -2.853775 4.838364
-3.668930 -2.874344 4.819962
-3.668167 -2.863205 4.819077
-3.672714 -2.852615 4.813034
-3.668808 -2.851120 4.816696
-3.670090 -2.874466 4.842453
-3.668350 -2.863510 4.842575
-3.666916 -2.851761 4.842331
-3.668259 -2.838730 4.839462
-3.664993 -2.840042 4.818985
-3.662460 -2.828659 4.819962
-3.656784 -2.818039 4.824234
-3.668167 -2.851883 4.864853
-3.672104 -2.844681 4.855148
-3.672440 -2.873276 4.864395
-3.670151 -2.874802 4.866196
-3.669571 -2.863602 4.865097
-3.660477 -2.818100 4.867935
-3.662033 -2.829056 4.844101
-3.672012 -2.838486 4.874374
-3.667099 -2.840378 4.864304
-3.670364 -2.840805 4.862228
-3.664658 -2.828964 4.865189
-3.633377 -2.769302 4.840897
-3.659836 -2.811569 4.827408
-3.647842 -2.795914 4.830338
-3.652969 -2.806961 4.826614
-3.638504 -2.785507 4.814865
-3.646835 -2.785965 4.830368
-3.640091 -2.785599 4.836868
-3.633591 -2.771744 4.818649
-3.630600 -2.774551 4.821426
-3.656754 -2.807022 4.870224
-3.659775 -2.804703 4.845993
-3.659286 -2.803207 4.869125
-3.648880 -2.796097 4.852982
-3.654037 -2.807114 4.849197
-3.642288 -2.785568 4.858322
-3.646347 -2.784592 4.853592
-3.625687 -2.764236 4.872513
-3.631454 -2.774765 4.844223
-3.632706 -2.774887 4.866714
-3.633041 -2.765945 4.862442
-3.602097 -2.753616 4.833572
-3.614212 -2.762863 4.777176
-3.623947 -2.774918 4.781174
-3.624985 -2.774429 4.756729
-3.619675 -2.767044 4.760391
-3.615952 -2.764023 4.764450
-3.621140 -2.763107 4.763412
-3.603714 -2.762222 4.756546
-3.607010 -2.760086 4.761337
-3.585403 -2.754959 4.772049
-3.578568 -2.752670 4.756088
-3.593033 -2.753952 4.756668
-3.587845 -2.756851 4.751328
-3.580734 -2.756943 4.751877
-3.564713 -2.750931 4.755173
-3.566483 -2.754196 4.755753
-3.586777 -2.756393 4.769089
-3.592484 -2.753006 4.779922
-3.578171 -2.750198 4.778091
-3.567551 -2.754745 4.773148
-3.566910 -2.754501 4.780289
-3.612442 -2.761520 4.798904
-3.614883 -2.764511 4.788925
-3.620499 -2.763535 4.787857
-3.604599 -2.762222 4.787003
-3.606522 -2.758957 4.784500
-3.615738 -2.764694 4.811569
-3.620071 -2.761307 4.810226
-3.595139 -2.755814 4.807571
-3.606216 -2.755356 4.805557
-3.592087 -2.750809 4.802231
-3.591507 -2.756027 4.787735
-3.583115 -2.753220 4.793076
-3.579178 -2.750198 4.811996
-3.565720 -2.753586 4.802841
-3.567093 -2.753036 4.802475
-3.549667 -2.755112 4.766251
-3.549088 -2.751480 4.780289
-3.549789 -2.750595 4.755478
-3.534561 -2.757828 4.755325
-3.537186 -2.757004 4.765274
-3.534439 -2.752975 4.758102
-3.543411 -2.750565 4.767838
-3.533798 -2.757248 4.778336
-3.517838 -2.758652 4.765854
-3.519180 -2.757523 4.762619
-3.507767 -2.765060 4.761642
-3.511154 -2.762802 4.760178
-3.504257 -2.763718 4.768478
-3.548538 -2.750900 4.803970
-3.549332 -2.754868 4.789841
-3.533768 -2.753433 4.782608
-3.538773 -2.757950 4.796280
-3.534225 -2.757553 4.803024
-3.533127 -2.753464 4.806808
-3.517868 -2.758163 4.811447
-3.503403 -2.765762 4.794388
-3.518692 -2.756332 4.785721
-3.517746 -2.758591 4.789780
-3.506088 -2.763718 4.783371
-3.511032 -2.761429 4.789658
-3.507919 -2.765152 4.810043
-3.600693 -2.756180 4.813614
-3.605515 -2.756210 4.813858
-3.599899 -2.755447 4.826279
-3.605820 -2.753159 4.827988
-3.565598 -2.750015 4.831009
-3.563736 -2.752060 4.824387
-3.604446 -2.755417 4.861191
-3.619125 -2.758377 4.856369
-3.621414 -2.764511 4.853073
-3.605362 -2.751450 4.850876
-3.602341 -2.757095 4.844803
-3.603470 -2.755264 4.846390
-3.601151 -2.754440 4.873734
-3.606033 -2.755203 4.867538
-3.580307 -2.751053 4.862228
-3.563553 -2.751907 4.848495
-3.567337 -2.751083 4.862289
-3.547104 -2.753128 4.835312
-3.532639 -2.752029 4.829880
-3.548447 -2.754166 4.812820
-3.547989 -2.750076 4.827530
-3.533371 -2.756912 4.826157
-3.538651 -2.756668 4.825912
-3.517471 -2.755875 4.833847
-3.519669 -2.760117 4.816605
-3.502945 -2.763992 4.817123
-3.513870 -2.763962 4.821732
-3.518387 -2.759109 4.839218
-3.505722 -2.763412 4.831314
-3.502182 -2.765182 4.842514
-3.531815 -2.755692 4.872910
-3.533859 -2.757278 4.851212
-3.544632 -2.751205 4.856339
-3.531998 -2.752243 4.854446
-3.538376 -2.755203 4.855453
-3.517349 -2.758286 4.862228
-3.516830 -2.755936 4.858292
-3.513596 -2.762497 4.851273
-3.507950 -2.765182 4.858841
-3.501572 -2.765244 4.866989
-3.647202 -2.942276 4.955338
-3.645920 -2.943222 4.904495
-3.634171 -2.953781 4.902756
-3.633804 -2.954758 4.877029
-3.645493 -2.944473 4.878616
-3.641617 -2.949997 4.883072
-3.642715 -2.944260 4.884171
-3.646591 -2.942795 4.929794
-3.641525 -2.950394 4.907181
-3.642319 -2.944901 4.913132
-3.649857 -2.937607 4.920639
-3.634933 -2.953506 4.927902
-3.640182 -2.950974 4.932724
-3.668533 -2.887283 4.893600
-3.667160 -2.910965 4.898697
-3.658707 -2.923965 4.885422
-3.661362 -2.911697 4.880753
-3.664047 -2.916000 4.889481
-3.652725 -2.936722 4.893600
-3.654892 -2.931046 4.883377
-3.669632 -2.898941 4.894333
-3.668716 -2.895859 4.875900
-3.669785 -2.896133 4.900436
-3.666397 -2.911453 4.923599
-3.658005 -2.924423 4.910202
-3.664505 -2.915207 4.915085
-3.658035 -2.924759 4.934341
-3.656021 -2.929764 4.934372
-3.655777 -2.930984 4.908310
-3.672226 -2.875412 4.936142
-3.669296 -2.899307 4.918716
-3.672531 -2.875046 4.911667
-3.669388 -2.887466 4.916763
-3.670822 -2.896286 4.925186
-3.646652 -2.945663 4.962326
-3.652969 -2.937668 4.965927
-3.625870 -2.965591 4.949814
-3.642990 -2.942520 4.943954
-3.650711 -2.937759 4.943954
-3.637070 -2.951920 4.960281
-3.635513 -2.952957 4.953445
-3.653305 -2.937973 4.989975
-3.643448 -2.940689 4.974533
-3.646805 -2.940018 4.982620
-3.635056 -2.950577 4.980881
-3.635880 -2.952469 4.985977
-3.673203 -2.875626 4.959427
-3.665421 -2.913559 4.966721
-3.666122 -2.916397 4.938889
-3.663834 -2.912247 4.950577
-3.656815 -2.929581 4.959610
-3.656174 -2.925430 4.960587
-3.672653 -2.887558 4.961777
-3.672501 -2.899094 4.939529
-3.672775 -2.898026 4.948532
-3.671432 -2.887436 4.938797
-3.674423 -2.899063 4.961777
-3.665543 -2.912613 4.997574
-3.657547 -2.925522 4.983536
-3.667740 -2.911880 4.970749
-3.656876 -2.928024 4.986221
-3.665085 -2.911331 4.994034
-3.653397 -2.937454 4.997269
-3.672501 -2.887924 4.986404
-3.671921 -2.894943 4.976639
-3.674820 -2.875656 4.982071
-3.672592 -2.899887 4.988205
-3.624283 -2.964340 4.950912
-3.623489 -2.965378 4.903946
-3.610764 -2.973495 4.900314
-3.596420 -2.980789 4.876907
-3.600418 -2.977951 4.886581
-3.608017 -2.974075 4.891586
-3.597244 -2.980667 4.901810
-3.582382 -2.986038 4.905228
-3.581131 -2.986374 4.880295
-3.582138 -2.987137 4.879410
-3.565964 -2.991104 4.884415
-3.572800 -2.987442 4.887314
-3.622452 -2.964401 4.901016
-3.622940 -2.965134 4.880508
-3.610886 -2.972122 4.926498
-3.598312 -2.982040 4.908066
-3.601303 -2.976273 4.912979
-3.597824 -2.980026 4.927292
-3.608505 -2.972214 4.921982
-3.599655 -2.977341 4.936081
-3.596085 -2.982803 4.934525
-3.582870 -2.985275 4.930862
-3.581650 -2.984390 4.910660
-3.566757 -2.990860 4.909439
-3.573471 -2.985977 4.913498
-3.567398 -2.990372 4.934799
-3.623306 -2.964218 4.926041
-3.622360 -2.965927 4.929245
-3.547928 -2.990646 4.893326
-3.555954 -2.988083 4.904007
-3.537827 -2.988297 4.889053
-3.555405 -2.987320 4.900955
-3.533218 -2.986771 4.900558
-3.510300 -2.983200 4.898300
-3.522263 -2.987503 4.879654
-3.529739 -2.991837 4.876022
-3.508224 -2.986008 4.890213
-3.522415 -2.986557 4.905106
-3.529129 -2.989395 4.903152
-3.508804 -2.981461 4.899796
-3.555313 -2.986710 4.926132
-3.548111 -2.989395 4.919388
-3.538376 -2.986954 4.915085
-3.556015 -2.987503 4.933640
-3.533005 -2.986832 4.929764
-3.509293 -2.980148 4.925797
-3.507919 -2.984024 4.917038
-3.529831 -2.988968 4.928482
-3.523483 -2.984665 4.931870
-3.510483 -2.982285 4.928055
-3.598160 -2.978256 4.959518
-3.598434 -2.982681 4.956345
-3.611160 -2.970993 4.952591
-3.599503 -2.981277 4.951065
-3.608841 -2.970779 4.952194
-3.583969 -2.985550 4.955612
-3.574020 -2.984604 4.939651
-3.582077 -2.981735 4.941483
-3.566147 -2.986771 4.963394
-3.573318 -2.984665 4.964157
-3.611923 -2.970688 4.977982
-3.596786 -2.979050 4.983170
-3.596603 -2.983353 4.982620
-3.598862 -2.978714 4.978683
-3.608627 -2.970901 4.981613
-3.581406 -2.982864 4.999680
-3.584396 -2.984695 4.981552
-3.581589 -2.982742 4.970261
-3.566940 -2.986221 4.988937
-3.573807 -2.983383 4.990433
-3.619705 -2.967087 4.980667
-3.624405 -2.962936 4.977371
-3.556503 -2.985519 4.964157
-3.532913 -2.986588 4.959244
-3.548233 -2.988083 4.945633
-3.554825 -2.986526 4.950851
-3.538162 -2.986404 4.940170
-3.538071 -2.985794 4.965500
-3.524826 -2.982376 4.959244
-3.505997 -2.979416 4.946457
-3.509506 -2.979172 4.951523
-3.528519 -2.985397 4.957016
-3.511215 -2.979538 4.959000
-3.557022 -2.983444 4.994797
-3.549484 -2.988632 4.970139
-3.555954 -2.984512 4.978012
-3.549088 -2.986435 4.997482
-3.533340 -2.984848 4.989670
-3.538803 -2.984207 4.992203
-3.511276 -2.978775 4.988876
-3.529190 -2.984970 4.982559
-3.524368 -2.982162 4.984177
-3.506180 -2.978256 4.972733
-3.510757 -2.977005 4.978836
-3.666245 -2.818497 4.958267
-3.671585 -2.835861 4.896805
-3.670212 -2.851852 4.886581
-3.671890 -2.874802 4.888290
-3.673111 -2.872849 4.889603
-3.671097 -2.863693 4.887436
-3.662277 -2.818130 4.889969
-3.672318 -2.842545 4.885391
-3.668930 -2.840378 4.886276
-3.666000 -2.829056 4.887650
-3.673691 -2.851944 4.931137
-3.674881 -2.874252 4.913101
-3.674179 -2.863510 4.908188
-3.672195 -2.851852 4.908524
-3.674576 -2.863754 4.931931
-3.676254 -2.846176 4.931808
-3.671494 -2.821671 4.934036
-3.672836 -2.841812 4.910965
-3.669632 -2.840622 4.909561
-3.666336 -2.829361 4.911362
-3.671494 -2.829361 4.915878
-3.665085 -2.818039 4.911026
-3.672897 -2.840408 4.930252
-3.669571 -2.829147 4.932083
-3.664078 -2.818527 4.936295
-3.645401 -2.781143 4.899704
-3.656815 -2.807327 4.894089
-3.658981 -2.799301 4.890366
-3.651474 -2.796341 4.898087
-3.649979 -2.796249 4.875687
-3.645798 -2.783707 4.877304
-3.641068 -2.786087 4.883469
-3.642929 -2.786148 4.905533
-3.631424 -2.775436 4.891922
-3.632370 -2.766983 4.887863
-3.659470 -2.807266 4.915359
-3.658401 -2.798996 4.914749
-3.645584 -2.786087 4.926865
-3.652267 -2.796555 4.921341
-3.631363 -2.764023 4.934677
-3.645096 -2.777145 4.920914
-3.634750 -2.775223 4.912521
-3.631912 -2.764908 4.910721
-3.626816 -2.764725 4.919357
-3.637100 -2.775253 4.934219
-3.671127 -2.818253 4.955917
-3.674271 -2.852188 4.954758
-3.675430 -2.873581 4.938736
-3.683212 -2.867203 4.948105
-3.676346 -2.863785 4.954330
-3.676834 -2.874435 4.963028
-3.677353 -2.846390 4.956680
-3.671921 -2.840897 4.955551
-3.670792 -2.829300 4.955032
-3.676987 -2.873032 4.989548
-3.675949 -2.864212 4.979141
-3.674393 -2.852493 4.979050
-3.678421 -2.846634 4.981613
-3.682510 -2.859909 4.991837
-3.679916 -2.863846 4.999405
-3.670853 -2.814102 4.977249
-3.672745 -2.841110 4.979050
-3.670273 -2.829697 4.979996
-3.668900 -2.818405 4.979813
-3.630936 -2.761734 4.957474
-3.657883 -2.790146 4.956680
-3.661301 -2.807297 4.937607
-3.666092 -2.798447 4.943771
-3.657974 -2.796860 4.937668
-3.660995 -2.807693 4.962265
-3.657272 -2.796463 4.964584
-3.652573 -2.796860 4.945267
-3.646988 -2.786209 4.949631
-3.630722 -2.764816 4.963760
-3.644394 -2.778366 4.946762
-3.626694 -2.765060 4.943649
-3.644150 -2.773911 4.967758
-3.637894 -2.775436 4.957657
-3.657578 -2.796768 4.988693
-3.657394 -2.788589 4.980270
-3.662857 -2.807724 4.984695
-3.670700 -2.808029 4.996964
-3.668930 -2.800095 4.992599
-3.651627 -2.786148 4.993484
-3.648911 -2.786209 4.971909
-3.632828 -2.764847 4.985916
-3.641159 -2.775284 4.978592
-3.630539 -2.759140 4.980087
-3.627701 -2.757675 4.981918
-3.654099 -2.778214 4.991623
-3.643784 -2.770767 4.989944
-3.613632 -2.755447 4.955948
-3.622787 -2.764969 4.899490
-3.618393 -2.752670 4.900528
-3.618790 -2.755417 4.878311
-3.609573 -2.755020 4.887772
-3.600906 -2.752701 4.880905
-3.600113 -2.752029 4.902847
-3.597794 -2.750320 4.901321
-3.617752 -2.752823 4.925308
-3.611191 -2.755142 4.910110
-3.612839 -2.755203 4.932541
-3.599930 -2.750626 4.932755
-3.544724 -2.751266 4.905685
-3.531357 -2.752548 4.879196
-3.545547 -2.751907 4.882156
-3.538834 -2.754593 4.885696
-3.530838 -2.754929 4.896164
-3.517929 -2.758743 4.887619
-3.516068 -2.757278 4.883987
-3.505051 -2.762894 4.879349
-3.514664 -2.762711 4.882004
-3.501175 -2.763077 4.889694
-3.530838 -2.751389 4.902786
-3.506607 -2.764114 4.906235
-3.543747 -2.750504 4.929153
-3.538528 -2.753067 4.915390
-3.530289 -2.750351 4.926620
-3.516708 -2.757797 4.910660
-3.531052 -2.755081 4.921249
-3.514603 -2.761490 4.911880
-3.515427 -2.757126 4.908524
-3.500381 -2.764389 4.915482
-3.505417 -2.763168 4.929367
-3.514786 -2.757095 4.933182
-3.617142 -2.753067 4.950333
-3.620316 -2.755142 4.997757
-3.616684 -2.750839 4.973282
-3.615372 -2.755539 4.978500
-3.543167 -2.750046 4.953293
-3.538071 -2.751358 4.945053
-3.517014 -2.758011 4.960922
-3.518448 -2.759171 4.937973
-3.529556 -2.753922 4.944046
-3.515305 -2.761276 4.942490
-3.505325 -2.763138 4.954239
-3.514206 -2.756516 4.957535
-3.539108 -2.751511 4.976028
-3.528000 -2.752731 4.992081
-3.529343 -2.753769 4.968796
-3.529007 -2.750626 4.976578
-3.514847 -2.759537 4.972122
-3.506668 -2.764175 4.981247
-3.513748 -2.755020 4.981155
-3.515060 -2.756485 4.983292
-3.578903 -2.749985 4.835892
-3.591599 -2.749191 4.825089
-3.564194 -2.749832 4.778275
-3.563614 -2.749527 4.802231
-3.577896 -2.746750 4.799301
-3.566574 -2.747940 4.811600
-3.534836 -2.749191 4.805832
-3.563248 -2.746841 4.824173
-3.577286 -2.747086 4.823807
-3.604996 -2.748856 4.873123
-3.590408 -2.748886 4.873642
-3.591019 -2.748825 4.849136
-3.562607 -2.747086 4.848740
-3.576584 -2.747452 4.848495
-3.563644 -2.749039 4.861893
-3.576218 -2.744980 4.870804
-3.560928 -2.749100 4.840897
-3.559189 -2.748550 4.867050
-3.547592 -2.748032 4.850174
-3.534042 -2.749435 4.846542
-3.547073 -2.746689 4.873489
-3.562119 -2.745743 4.872025
-3.598862 -2.748154 4.961990
-3.604752 -2.744400 4.893784
-3.590042 -2.746323 4.895981
-3.565872 -2.749069 4.883530
-3.577713 -2.749069 4.883255
-3.567276 -2.749863 4.892166
-3.575516 -2.745682 4.895950
-3.571121 -2.748642 4.902115
-3.597397 -2.745499 4.923050
-3.603836 -2.747482 4.921158
-3.597244 -2.749893 4.925369
-3.574203 -2.746384 4.927933
-3.578445 -2.749619 4.908951
-3.589584 -2.746292 4.907089
-3.589584 -2.744461 4.918991
-3.566940 -2.748337 4.921860
-3.575119 -2.743515 4.918747
-3.561539 -2.745132 4.896072
-3.560440 -2.749527 4.893356
-3.532364 -2.749435 4.886978
-3.546432 -2.746750 4.898087
-3.545914 -2.745895 4.922012
-3.561020 -2.744064 4.919785
-3.559250 -2.748581 4.916458
-3.529526 -2.749252 4.927109
-3.602921 -2.743973 4.967697
-3.594193 -2.747574 4.946091
-3.603287 -2.746933 4.945450
-3.590317 -2.746872 4.954666
-3.589035 -2.743484 4.942947
-3.574539 -2.742966 4.943039
-3.574081 -2.746292 4.952713
-3.567459 -2.747787 4.952316
-3.591263 -2.745316 4.967056
-3.588547 -2.742050 4.966537
-3.574234 -2.739517 4.964859
-3.616257 -2.748917 4.996567
-3.599503 -2.745865 4.969376
-3.598282 -2.746292 4.991684
-3.602219 -2.745041 4.993637
-3.596054 -2.746719 4.997482
-3.590042 -2.744400 4.990494
-3.569382 -2.742661 4.971207
-3.565781 -2.744553 4.981064
-3.588028 -2.740829 4.990402
-3.573715 -2.738358 4.988785
-3.569717 -2.742905 4.996841
-3.555466 -2.745682 4.961075
-3.559982 -2.741745 4.967422
-3.556473 -2.746475 4.937515
-3.560745 -2.740646 4.941574
-3.545303 -2.745712 4.946671
-3.526840 -2.749069 4.967300
-3.529861 -2.748367 4.949692
-3.555923 -2.746017 4.986862
-3.544754 -2.744675 4.970657
-3.543045 -2.749985 4.978226
-3.559494 -2.740341 4.991135
-3.544144 -2.744156 4.995193
-3.528702 -2.747421 4.998795
-3.453476 -2.818466 4.841354
-3.439743 -2.825912 4.581589
-3.448593 -2.956894 4.584244
-3.443649 -2.947525 4.524246
-3.489487 -2.993118 4.522507
-3.490372 -2.992813 4.500229
-3.477249 -2.989243 4.510696
-3.485611 -2.991684 4.516830
-3.478043 -2.986374 4.519943
-3.465805 -2.978928 4.519730
-3.461716 -2.977066 4.513809
-3.467056 -2.980270 4.517288
-3.457321 -2.970993 4.517441
-3.449234 -2.960617 4.519211
-3.445511 -2.953629 4.504654
-3.443832 -2.947983 4.501053
-3.448013 -2.959641 4.526199
-3.479538 -2.990097 4.556839
-3.489578 -2.992355 4.546097
-3.485703 -2.990891 4.545425
-3.477768 -2.988602 4.534653
-3.477371 -2.986435 4.542557
-3.465927 -2.978043 4.548416
-3.460251 -2.975815 4.534653
-3.468246 -2.978226 4.542343
-3.456619 -2.971207 4.539902
-3.462082 -2.977371 4.559891
-3.447891 -2.959610 4.554459
-3.447983 -2.961411 4.541061
-3.446823 -2.954269 4.545425
-3.442490 -2.948166 4.546219
-3.437424 -2.940781 4.517410
-3.437454 -2.940842 4.540237
-3.422409 -2.895218 4.521225
-3.430588 -2.920425 4.521683
-3.437363 -2.936050 4.504837
-3.433914 -2.932022 4.509079
-3.430832 -2.923264 4.509140
-3.436569 -2.936325 4.527206
-3.426804 -2.908615 4.516098
-3.424240 -2.900223 4.526382
-3.423782 -2.899643 4.502975
-3.423355 -2.892685 4.501205
-3.423325 -2.884689 4.515579
-3.424179 -2.891037 4.525742
-3.423111 -2.892197 4.526627
-3.426102 -2.908127 4.562241
-3.434067 -2.931076 4.537796
-3.431076 -2.922256 4.532944
-3.426163 -2.912827 4.536667
-3.430222 -2.920120 4.543991
-3.426590 -2.908188 4.539291
-3.436050 -2.936264 4.550034
-3.429916 -2.922958 4.554947
-3.423843 -2.889359 4.556503
-3.424088 -2.885330 4.539322
-3.424393 -2.900345 4.549393
-3.423843 -2.895950 4.551498
-3.423080 -2.891647 4.547836
-3.449142 -2.958664 4.589920
-3.489334 -2.991287 4.593063
-3.488815 -2.992538 4.568680
-3.485184 -2.992020 4.573044
-3.477005 -2.986191 4.565689
-3.480637 -2.990036 4.580338
-3.477951 -2.984421 4.590622
-3.467911 -2.977280 4.589157
-3.468277 -2.977524 4.565964
-3.466171 -2.976822 4.577377
-3.457352 -2.968979 4.588181
-3.448105 -2.954880 4.586288
-3.458878 -2.967850 4.566544
-3.448257 -2.960403 4.564987
-3.442978 -2.946884 4.570511
-3.478470 -2.983139 4.615097
-3.485550 -2.989456 4.602737
-3.479782 -2.987289 4.606552
-3.490952 -2.988724 4.619064
-3.468674 -2.975662 4.614029
-3.466568 -2.974991 4.606705
-3.438065 -2.941360 4.610031
-3.442947 -2.946274 4.594193
-3.457657 -2.967941 4.612381
-3.448959 -2.955185 4.613571
-3.451920 -2.954514 4.617630
-3.444168 -2.944138 4.619675
-3.436935 -2.940384 4.585403
-3.437241 -2.940659 4.562790
-3.424057 -2.888229 4.585526
-3.425919 -2.916458 4.584122
-3.433426 -2.932632 4.565262
-3.436447 -2.935104 4.574234
-3.429398 -2.922897 4.577896
-3.427505 -2.917801 4.563278
-3.426651 -2.913284 4.577194
-3.432816 -2.934006 4.592941
-3.423996 -2.909927 4.583115
-3.425186 -2.886276 4.586685
-3.425156 -2.901016 4.573349
-3.423019 -2.891068 4.571396
-3.425003 -2.886093 4.563431
-3.424454 -2.895676 4.581223
-3.429062 -2.919113 4.611435
-3.435532 -2.935501 4.596695
-3.428360 -2.923447 4.600296
-3.425827 -2.907059 4.609360
-3.437363 -2.932632 4.623062
-3.434219 -2.929001 4.624100
-3.428452 -2.914017 4.618179
-3.424667 -2.884689 4.615891
-3.425461 -2.901230 4.596786
-3.422836 -2.890579 4.594925
-3.425278 -2.895615 4.611160
-3.428482 -2.903824 4.624039
-3.425491 -2.886520 4.610184
-3.423843 -2.875137 4.614517
-3.425034 -2.887253 4.621750
-3.444046 -2.815353 4.578140
-3.447983 -2.813492 4.505630
-3.440262 -2.826370 4.513718
-3.447464 -2.818130 4.514053
-3.441116 -2.827042 4.560440
-3.440323 -2.826401 4.536514
-3.447128 -2.817856 4.536362
-3.444138 -2.815414 4.555283
-3.430466 -2.838242 4.525986
-3.426315 -2.858078 4.523331
-3.426437 -2.872787 4.510239
-3.426468 -2.860184 4.508408
-3.426651 -2.858353 4.501083
-3.430649 -2.844009 4.513168
-3.429977 -2.847275 4.509933
-3.425308 -2.869431 4.517075
-3.424362 -2.871048 4.530228
-3.431381 -2.847153 4.520187
-3.433975 -2.828781 4.527420
-3.433395 -2.834824 4.513779
-3.427200 -2.858810 4.547287
-3.422684 -2.871964 4.537033
-3.422867 -2.874191 4.533493
-3.426437 -2.859024 4.537460
-3.428543 -2.845871 4.533859
-3.430283 -2.846237 4.541519
-3.423508 -2.870346 4.551926
-3.423752 -2.869980 4.562088
-3.428482 -2.845261 4.557388
-3.429947 -2.837448 4.548538
-3.429947 -2.838760 4.533737
-3.429886 -2.831924 4.531876
-3.437302 -2.832016 4.559128
-3.434067 -2.835403 4.560287
-3.486771 -2.778885 4.521896
-3.476486 -2.782242 4.514053
-3.467026 -2.792557 4.521957
-3.453751 -2.808853 4.513046
-3.460434 -2.799149 4.512131
-3.468735 -2.791092 4.513565
-3.464218 -2.795761 4.513931
-3.447586 -2.812027 4.527603
-3.449661 -2.810287 4.524277
-3.486771 -2.776657 4.518661
-3.497482 -2.771225 4.501083
-3.495804 -2.770401 4.515427
-3.483475 -2.774460 4.506577
-3.481094 -2.779587 4.500381
-3.497025 -2.770859 4.523148
-3.480453 -2.780197 4.523880
-3.476944 -2.782608 4.560257
-3.476730 -2.782455 4.537125
-3.466141 -2.790298 4.550308
-3.453262 -2.808426 4.535141
-3.459183 -2.798111 4.533218
-3.450089 -2.803635 4.538101
-3.453171 -2.796738 4.532547
-3.464005 -2.792496 4.534470
-3.467484 -2.790085 4.534653
-3.453720 -2.808823 4.558609
-3.460251 -2.798996 4.557480
-3.449814 -2.809402 4.553482
-3.447220 -2.810135 4.549301
-3.463486 -2.791489 4.556870
-3.466415 -2.789230 4.556107
-3.486649 -2.777634 4.550858
-3.495193 -2.770523 4.538651
-3.486130 -2.776169 4.540634
-3.497604 -2.771317 4.546707
-3.481705 -2.774429 4.546402
-3.494644 -2.769852 4.561295
-3.479752 -2.780838 4.547592
-3.438889 -2.831924 4.618820
-3.440720 -2.826706 4.605972
-3.447250 -2.817978 4.605453
-3.434952 -2.827835 4.586380
-3.428085 -2.847641 4.580002
-3.424210 -2.874832 4.574234
-3.424911 -2.871506 4.576736
-3.426407 -2.857895 4.566574
-3.425980 -2.857803 4.568588
-3.429337 -2.845474 4.563156
-3.425034 -2.867783 4.587540
-3.427536 -2.859085 4.593674
-3.430923 -2.846756 4.588242
-3.430344 -2.842300 4.583603
-3.431107 -2.839371 4.574448
-3.434189 -2.835495 4.583450
-3.427597 -2.859116 4.616898
-3.425858 -2.872299 4.601089
-3.427872 -2.858688 4.596939
-3.426407 -2.865402 4.613235
-3.426285 -2.857529 4.611374
-3.430435 -2.846359 4.610703
-3.431595 -2.839798 4.614975
-3.434952 -2.836105 4.607559
-3.433670 -2.837631 4.611923
-3.485428 -2.775589 4.585556
-3.463089 -2.789841 4.578842
-3.458237 -2.797348 4.577744
-3.446762 -2.808548 4.571274
-3.450882 -2.798172 4.576859
-3.447128 -2.803360 4.577499
-3.458847 -2.789139 4.563766
-3.465042 -2.788132 4.577255
-3.449844 -2.808365 4.582626
-3.452194 -2.807571 4.579544
-3.440994 -2.809464 4.587387
-3.466354 -2.789474 4.579575
-3.486099 -2.775803 4.579514
-3.485458 -2.775620 4.562607
-3.495285 -2.769455 4.566574
-3.479355 -2.779160 4.569443
-3.494186 -2.768600 4.583572
-3.495987 -2.770035 4.590530
-3.474289 -2.780502 4.579758
-3.476669 -2.773758 4.585190
-3.478958 -2.776993 4.591049
-3.456528 -2.795975 4.621750
-3.458023 -2.797195 4.600571
-3.445694 -2.812454 4.597824
-3.451889 -2.807297 4.602219
-3.462540 -2.789017 4.601517
-3.464951 -2.788040 4.600204
-3.466446 -2.788498 4.608841
-3.449631 -2.806961 4.611649
-3.451401 -2.806931 4.624771
-3.447891 -2.803879 4.618149
-3.487747 -2.776810 4.610001
-3.485367 -2.775558 4.608597
-3.493576 -2.768631 4.606949
-3.474625 -2.780746 4.603287
-3.495804 -2.769882 4.613419
-3.477951 -2.780563 4.617386
-3.451035 -2.947311 4.703629
-3.445786 -2.947952 4.643631
-3.492142 -2.986679 4.644577
-3.486588 -2.985855 4.633102
-3.478592 -2.982254 4.639236
-3.478683 -2.984146 4.633194
-3.469833 -2.973679 4.639481
-3.466965 -2.973343 4.636032
-3.449753 -2.952377 4.643600
-3.460251 -2.964218 4.639816
-3.452408 -2.956192 4.628189
-3.450272 -2.955734 4.639297
-3.444839 -2.942673 4.644547
-3.476486 -2.977859 4.686874
-3.486710 -2.984909 4.662155
-3.492111 -2.986008 4.668625
-3.478409 -2.982285 4.658768
-3.469559 -2.973282 4.663162
-3.479813 -2.980179 4.664932
-3.467728 -2.970474 4.666153
-3.450211 -2.950363 4.673294
-3.461105 -2.962509 4.665024
-3.458328 -2.957779 4.670731
-3.451218 -2.953934 4.664627
-3.445663 -2.941055 4.669693
-3.450760 -2.952225 4.673813
-3.439102 -2.929947 4.649399
-3.441177 -2.926773 4.676346
-3.425858 -2.885574 4.646835
-3.430984 -2.918930 4.651718
-3.431198 -2.919357 4.628036
-3.430771 -2.920578 4.637009
-3.435654 -2.924118 4.655350
-3.426682 -2.877823 4.648239
-3.428970 -2.902603 4.637619
